107.989  71.464  61.661 
107.373  72.688  62.127 
107.799  71.934  61.525 
107.670  73.095  62.084 
107.216  73.912  62.093 
107.075  74.937  61.738 
106.898  76.011  62.034 
106.904  75.907  61.578 
105.999  76.841  61.582 
105.933  77.775  61.947 
105.416  77.947  61.720 
105.465  78.659  62.347 
104.787  79.591  61.588 
105.174  80.312  61.636 
104.019  81.422  61.792 
104.244  82.184  62.101 
103.927  82.335  61.514 
103.070  83.426  61.806 
103.014  83.759  62.220 
102.696  84.493  61.786 
102.215  85.865  61.658 
102.229  85.556  62.240 
101.531  85.976  62.193 
101.011  87.233  62.114 
100.387  87.710  61.760 
99.931  88.294  61.337 
99.405  88.520  61.473 
99.409  89.617  61.218 
98.900  90.251  62.129 
98.316  90.808  61.522 
97.893  91.490  61.323 
96.969  91.960  61.711 
95.993  92.530  62.143 
96.161  93.695  62.164 
95.553  93.312  61.881 
95.134  94.999  61.771 
94.352  95.450  61.776 
94.027  96.107  61.992 
93.134  96.010  61.548 
92.854  96.986  61.573 
92.643  97.264  61.860 
91.837  97.533  62.332 
91.492  97.892  62.264 
90.846  98.324  62.302 
90.291  98.803  61.727 
89.026  99.579  61.990 
89.022  99.264  61.523 
88.562  100.163  61.387 
87.058  100.761  61.745 
87.035  101.377  62.016 
85.923  101.703  61.951 
85.413  102.385  62.077 
84.578  102.232  61.961 
83.878  102.710  61.436 
83.604  103.363  61.799 
82.930  103.472  61.927 
82.385  103.907  62.016 
81.600  104.023  61.935 
80.917  104.653  62.048 
80.161  105.007  62.146 
79.428  105.312  61.969 
78.575  105.300  61.941 
77.285  106.015  62.170 
76.669  106.249  61.747 
76.530  106.177  61.023 
76.144  106.522  61.889 
75.481  106.986  62.139 
74.041  107.003  62.242 
73.505  107.184  61.123 
72.330  107.902  61.958 
72.236  107.566  61.374 
70.924  108.058  61.958 
70.239  108.074  62.002 
69.122  108.524  61.468 
69.442  108.630  62.164 
68.144  108.405  62.403 
67.547  108.703  61.597 
66.605  108.787  61.441 
66.073  108.998  61.710 
65.048  108.428  62.008 
64.714  109.162  62.435 
63.973  109.278  61.858 
62.287  109.353  61.707 
62.152  109.274  61.052 
60.854  109.399  62.199 
60.449  109.027  62.157 
59.616  108.626  61.730 
58.686  108.865  61.608 
58.388  109.406  62.168 
57.415  109.072  61.411 
56.502  108.970  61.347 
56.123  109.334  62.138 
55.027  109.041  62.029 
53.712  109.195  62.242 
53.626  109.000  61.258 
52.974  108.756  61.838 
51.651  108.699  62.309 
51.315  107.953  61.803 
50.438  108.280  61.987 
49.789  108.283  61.989 
49.141  107.405  61.248 
48.426  107.623  61.615 
47.345  107.674  61.711 
46.646  107.043  61.995 
45.975  107.501  61.850 
45.304  107.289  62.240 
45.057  107.026  61.587 
43.308  106.437  61.589 
43.075  105.948  62.090 
42.000  106.025  61.094 
41.981  105.898  61.829 
41.289  105.164  61.799 
40.288  105.113  62.100 
39.708  105.047  61.296 
39.117  104.818  62.010 
38.087  103.751  61.396 
37.463  102.987  61.401 
37.022  103.291  62.113 
36.598  103.382  61.475 
35.899  102.883  62.079 
34.682  102.622  61.143 
34.147  102.147  61.455 
33.871  101.479  61.490 
32.779  100.912  61.744 
31.607  100.589  61.996 
30.503  100.008  61.954 
31.035  100.233  61.352 
30.320  99.165  62.092 
29.179  98.642  61.693 
29.611  98.346  62.208 
28.505  97.693  61.647 
27.678  97.371  62.347 
27.583  97.132  61.679 
26.584  96.664  61.673 
26.121  96.140  62.165 
25.570  95.273  61.494 
24.993  95.181  61.403 
24.992  94.107  61.694 
23.568  93.224  61.983 
23.066  92.947  61.824 
22.606  92.264  61.558 
22.438  91.792  62.248 
21.514  90.907  62.366 
21.614  91.260  61.570 
20.944  90.179  61.972 
20.676  89.320  61.966 
20.158  88.335  62.194 
19.525  87.720  62.089 
19.323  86.741  62.260 
18.692  86.829  61.946 
18.635  86.111  61.618 
18.047  85.439  61.757 
17.294  84.999  62.015 
17.200  84.365  61.527 
16.551  83.184  61.812 
16.794  82.734  62.403 
15.898  82.361  61.939 
16.009  81.098  61.715 
15.380  80.387  61.981 
15.030  80.402  61.447 
14.728  79.763  61.816 
14.265  78.975  62.200 
14.098  77.333  61.685 
13.311  76.282  62.346 
13.180  76.799  61.821 
13.108  75.973  61.683 
13.208  74.557  62.225 
12.805  74.348  61.635 
12.176  72.847  61.529 
12.530  73.069  61.843 
12.581  72.068  62.266 
11.927  71.435  61.800 
11.951  70.674  62.132 
11.811  69.882  61.572 
12.252  68.931  61.842 
11.990  68.054  61.699 
11.357  67.616  61.409 
11.377  66.885  62.099 
11.047  66.292  61.630 
10.848  65.265  61.587 
11.275  64.140  61.759 
10.663  63.365  61.273 
10.723  63.002  61.923 
10.967  61.834  61.947 
10.391  60.914  61.673 
11.027  60.468  61.760 
10.580  59.478  61.925 
10.796  59.149  61.220 
10.690  57.431  62.035 
10.856  57.215  61.623 
10.882  56.947  61.139 
10.545  56.339  61.442 
10.623  54.731  61.683 
10.731  54.320  61.029 
11.577  53.299  61.840 
11.096  52.981  61.471 
11.270  52.497  61.621 
11.451  51.527  61.739 
11.760  50.909  61.596 
12.083  49.658  62.046 
12.110  49.105  61.380 
11.951  47.872  61.599 
12.485  47.500  62.264 
12.576  46.178  61.823 
12.835  45.421  61.742 
12.984  44.707  62.023 
13.238  44.023  61.639 
13.991  43.362  61.715 
13.965  42.876  61.341 
13.841  41.722  61.295 
14.101  41.868  62.050 
14.295  41.048  62.504 
15.230  39.985  61.516 
14.935  38.955  62.389 
15.794  39.087  61.768 
15.685  37.439  62.397 
16.048  37.461  61.564 
16.770  36.448  61.940 
16.364  36.123  61.385 
16.970  35.296  61.399 
17.644  34.026  61.922 
17.956  34.397  61.762 
18.384  33.078  62.210 
18.885  32.866  61.427 
19.149  32.477  62.308 
19.511  31.847  61.795 
20.120  30.722  61.628 
21.023  30.308  61.461 
20.591  29.704  62.040 
21.603  29.142  61.457 
22.490  28.502  62.171 
22.410  27.763  62.256 
23.040  26.935  61.960 
24.064  26.838  61.464 
24.239  25.964  61.462 
25.025  25.011  61.607 
25.742  25.017  62.079 
26.420  24.389  61.509 
26.977  23.635  61.945 
27.137  23.203  61.649 
27.782  22.599  61.313 
28.309  22.466  61.982 
28.406  22.078  61.644 
29.313  20.740  61.778 
29.746  20.805  61.269 
31.111  20.484  61.786 
31.213  19.714  61.959 
32.342  19.000  62.029 
32.808  19.180  61.355 
33.769  19.031  62.000 
34.129  18.250  62.055 
35.277  17.251  62.317 
35.987  17.384  62.096 
36.038  16.848  61.889 
36.333  16.638  61.558 
36.898  16.176  61.813 
37.710  15.976  61.964 
38.723  15.671  61.687 
39.432  14.894  62.769 
39.511  15.155  61.860 
40.338  14.789  61.475 
40.936  14.291  61.755 
42.521  13.745  61.677 
43.189  13.960  61.983 
44.125  13.649  62.030 
44.169  12.993  62.311 
44.731  12.842  62.075 
45.873  12.993  61.921 
46.657  12.692  61.466 
47.109  12.183  60.871 
47.554  12.091  61.963 
48.428  11.988  61.858 
49.203  11.802  61.687 
49.860  12.173  61.690 
51.195  11.733  62.290 
51.955  11.658  61.687 
52.367  11.815  61.379 
52.808  11.274  61.923 
54.497  11.019  61.353 
55.046  10.805  62.024 
55.641  11.370  62.273 
55.990  10.602  62.065 
57.963  11.198  61.951 
57.934  10.743  61.668 
58.650  10.575  61.382 
59.363  10.432  61.611 
60.854  10.443  61.493 
60.668  10.534  62.120 
61.735  11.114  61.935 
62.352  10.589  61.938 
63.477  10.731  62.042 
64.219  10.509  61.909 
64.876  11.293  61.201 
66.326  11.558  61.551 
66.868  10.941  61.552 
67.225  11.129  61.947 
67.964  11.223  62.318 
68.619  10.920  62.017 
69.428  11.715  61.449 
69.976  11.513  61.829 
70.757  12.128  61.960 
71.518  11.982  62.311 
72.081  12.234  62.108 
72.913  12.406  61.653 
73.995  13.145  61.886 
74.744  12.650  61.440 
75.425  13.251  61.587 
76.085  13.795  61.604 
76.848  13.335  61.614 
78.049  14.002  61.166 
78.040  14.014  62.382 
79.322  14.748  62.024 
79.851  15.388  61.221 
80.360  15.178  61.854 
80.781  15.084  61.324 
81.606  15.523  61.622 
82.377  16.556  61.595 
82.932  16.560  62.217 
83.822  17.187  61.999 
84.347  17.066  61.902 
85.374  17.865  61.900 
85.802  17.641  62.063 
86.224  18.053  61.530 
86.820  19.407  62.389 
88.131  19.538  62.154 
88.452  19.519  61.530 
89.220  20.107  61.516 
89.623  20.998  62.011 
90.099  21.015  62.222 
90.729  21.492  61.870 
91.263  22.270  61.753 
91.874  22.815  62.190 
92.821  23.043  61.925 
93.098  23.620  61.913 
93.958  23.902  61.776 
94.858  25.187  61.938 
95.480  25.843  61.796 
95.548  25.777  62.286 
95.999  26.481  62.264 
96.543  27.109  61.579 
97.201  27.633  62.506 
97.871  27.979  62.280 
97.662  28.528  61.687 
98.700  28.999  61.412 
99.054  30.253  61.723 
99.629  30.350  61.357 
100.268  30.870  61.483 
100.297  31.405  61.931 
100.729  32.119  62.081 
101.597  33.127  62.111 
101.269  33.848  61.681 
102.284  34.256  61.461 
102.457  35.187  61.649 
102.988  35.782  62.101 
103.508  36.217  61.858 
103.473  37.446  61.631 
103.998  37.848  62.164 
103.870  38.700  62.095 
104.059  39.259  61.662 
105.282  39.715  61.954 
105.484  40.962  61.589 
105.685  41.595  62.285 
105.919  42.332  61.423 
106.114  42.344  61.852 
106.806  43.409  62.150 
106.308  44.250  61.689 
106.958  45.359  61.464 
106.608  45.657  61.903 
106.837  46.645  61.553 
107.748  47.175  61.828 
107.341  48.653  62.135 
107.691  48.411  61.051 
108.065  48.934  61.635 
108.288  50.322  62.080 
108.561  51.496  61.607 
108.585  52.131  62.368 
108.771  52.423  61.993 
108.947  52.879  62.181 
109.318  54.452  61.801 
108.789  55.081  61.411 
109.058  55.713  61.779 
109.146  57.011  61.924 
109.029  57.869  62.124 
109.496  58.113  61.890 
109.456  58.789  61.592 
109.431  59.546  61.885 
109.177  59.934  61.141 
109.316  60.765  60.947 
109.355  61.578  61.113 
109.320  62.461  60.714 
109.324  62.877  61.553 
108.868  64.372  61.378 
109.113  64.851  61.182 
108.960  66.263  61.330 
108.599  65.940  60.761 
108.797  67.641  61.452 
108.059  67.836  60.991 
108.894  68.025  60.642 
108.910  68.934  60.908 
108.271  70.395  61.363 
107.973  71.560  61.146 
107.554  72.199  60.756 
107.153  72.993  61.604 
107.741  72.970  60.315 
107.454  73.319  61.132 
106.969  74.570  60.961 
106.832  76.201  60.765 
106.344  76.218  60.899 
106.050  77.124  60.858 
105.693  78.171  61.213 
104.956  78.802  61.060 
105.539  78.986  61.553 
104.991  79.628  61.135 
104.559  80.734  60.997 
105.037  80.947  60.978 
103.643  82.039  60.581 
103.624  82.627  60.746 
103.498  83.201  60.601 
102.240  84.506  61.523 
102.087  84.609  60.948 
102.521  85.234  61.346 
101.579  85.763  60.825 
101.490  86.792  61.537 
100.899  86.942  61.672 
101.074  87.389  60.907 
100.183  88.776  61.353 
99.868  89.233  61.233 
98.638  89.731  61.140 
99.051  90.418  61.478 
97.809  90.667  60.810 
98.023  91.050  60.640 
97.224  92.351  60.931 
96.420  93.027  61.587 
96.695  93.419  60.862 
96.023  93.922  61.200 
95.068  94.789  60.332 
94.467  94.876  61.612 
94.065  95.874  61.123 
93.205  96.181  61.077 
93.309  96.688  60.840 
92.440  96.706  60.647 
92.111  97.518  61.126 
91.654  98.110  61.738 
90.976  98.460  61.668 
90.883  98.742  60.556 
89.693  99.363  61.660 
89.136  99.751  60.663 
88.055  100.455  60.633 
87.963  100.626  61.498 
86.501  101.112  61.168 
86.326  101.827  61.644 
84.855  102.412  61.406 
84.849  102.683  60.826 
84.236  103.088  61.198 
82.872  103.361  60.989 
82.370  103.057  61.172 
81.715  104.458  61.630 
80.923  104.800  61.460 
80.489  104.608  61.332 
79.926  104.841  60.802 
79.744  104.931  61.241 
79.128  105.082  61.229 
78.118  105.551  61.438 
77.266  106.023  61.393 
75.570  106.420  61.283 
75.282  106.961  60.619 
75.020  107.131  61.378 
74.427  106.914  61.140 
72.980  107.519  61.468 
72.442  107.755  60.708 
71.969  107.866  60.509 
71.265  107.291  61.085 
70.882  107.864  61.360 
69.672  108.171  61.372 
68.955  108.496  60.873 
67.332  108.788  60.819 
66.539  108.812  60.586 
66.626  108.367  61.112 
66.025  108.850  60.771 
65.394  108.780  61.363 
64.614  109.121  61.067 
63.825  108.742  61.702 
62.952  109.192  61.283 
61.538  109.262  60.898 
61.048  108.813  61.464 
60.927  109.352  61.638 
60.103  109.317  61.560 
58.903  109.380  60.472 
58.171  109.317  61.215 
57.971  109.454  60.772 
57.270  109.291  60.839 
56.032  109.485  61.359 
55.373  109.452  61.469 
54.374  109.119  61.559 
53.369  109.107  60.319 
52.281  108.447  61.836 
51.816  108.869  60.627 
51.257  108.550  60.934 
50.670  108.414  61.152 
49.631  108.051  61.363 
48.851  108.183  61.161 
48.263  107.924  60.800 
47.812  107.933  61.125 
46.509  107.789  61.315 
46.379  107.265  61.242 
45.634  107.207  61.312 
44.692  106.962  61.174 
44.238  106.539  61.415 
43.110  106.520  60.938 
42.648  105.859  61.263 
41.715  105.727  61.442 
40.887  105.607  61.030 
40.379  104.967  61.572 
39.191  104.782  61.200 
39.228  104.164  61.348 
38.433  104.312  60.820 
37.040  103.509  60.769 
36.753  102.972  60.624 
35.874  103.005  61.443 
35.491  102.660  61.261 
34.243  102.038  60.668 
33.638  101.761  61.158 
33.131  101.331  61.624 
32.620  100.690  60.701 
32.455  100.345  61.415 
31.720  100.273  60.960 
30.971  99.606  60.614 
30.316  99.686  61.307 
29.576  98.539  61.412 
28.945  98.214  61.871 
28.496  98.139  61.159 
27.589  97.656  61.502 
27.228  96.998  61.142 
26.796  96.689  60.887 
26.119  96.430  61.525 
25.612  95.910  61.359 
24.730  94.315  60.920 
24.409  94.621  61.246 
23.593  93.621  61.361 
23.175  92.913  60.989 
22.148  91.947  60.933 
22.285  91.304  61.363 
21.834  91.162  61.052 
21.246  90.675  61.291 
20.591  89.226  60.720 
19.918  89.290  61.261 
19.822  88.689  60.719 
19.518  88.499  61.617 
19.029  87.938  61.582 
18.607  86.772  61.059 
17.850  85.919  61.802 
17.591  85.710  60.971 
17.700  85.081  61.332 
17.457  83.763  60.910 
16.821  83.624  61.465 
16.346  83.063  60.886 
15.914  82.250  61.191 
15.650  81.645  61.562 
15.372  81.025  61.178 
14.856  80.453  60.529 
14.768  79.872  61.025 
14.400  79.265  61.041 
14.102  78.066  61.178 
13.986  77.533  60.779 
13.088  76.422  60.816 
13.107  75.125  61.502 
13.491  74.817  60.944 
12.828  74.295  61.080 
12.841  73.165  60.918 
12.073  71.943  61.628 
11.894  71.982  61.139 
12.526  71.429  60.907 
11.906  70.854  61.308 
11.675  70.128  60.729 
11.589  69.070  60.801 
11.604  68.553  61.339 
11.276  66.885  60.847 
11.338  66.350  60.850 
11.477  65.755  61.267 
11.036  64.975  61.248 
10.549  64.708  60.984 
10.998  64.093  60.902 
10.470  62.525  61.217 
10.894  62.125  61.001 
10.938  61.196  61.143 
10.536  60.669  60.819 
10.619  59.783  61.092 
10.363  58.328  61.235 
10.488  58.401  62.141 
10.580  57.862  61.276 
10.883  56.592  60.584 
10.480  55.988  60.763 
10.556  55.074  60.902 
11.225  54.421  60.982 
10.940  53.186  60.498 
11.528  52.896  60.955 
11.123  52.107  61.268 
11.533  50.885  61.138 
11.611  50.227  60.706 
12.057  50.075  60.764 
12.051  48.561  61.586 
12.101  48.282  60.785 
12.330  47.200  60.716 
12.660  46.956  61.071 
13.032  46.136  60.649 
13.436  44.919  61.373 
13.008  44.594  61.286 
13.314  43.592  61.196 
13.433  43.142  60.575 
13.777  42.530  61.572 
14.377  41.800  61.071 
14.551  40.812  61.675 
14.339  40.394  60.932 
14.929  39.699  60.834 
15.333  38.832  60.833 
16.299  38.077  61.174 
16.648  36.963  61.052 
16.303  36.697  60.711 
16.812  36.027  60.962 
16.982  35.183  60.585 
17.515  35.220  61.359 
18.050  34.026  60.932 
18.281  33.221  61.395 
19.383  32.822  61.051 
20.037  32.223  61.362 
19.836  31.431  60.912 
19.916  30.957  60.272 
20.281  30.307  61.888 
20.496  29.667  61.086 
22.237  28.295  61.100 
21.795  28.388  61.735 
22.239  27.688  61.280 
22.961  27.200  61.102 
23.655  26.096  60.561 
23.942  25.760  60.781 
24.583  25.478  60.958 
25.949  24.947  61.256 
25.803  24.272  60.853 
26.378  23.831  61.400 
26.796  23.231  60.815 
27.566  23.174  61.035 
28.321  22.735  61.135 
28.944  22.033  61.598 
29.659  21.424  61.336 
29.395  20.741  60.916 
30.157  20.445  60.936 
30.775  19.844  61.330 
31.711  19.664  61.007 
32.733  18.429  61.177 
33.427  18.006  60.864 
33.809  18.285  61.574 
34.595  17.823  61.535 
35.303  17.492  61.517 
36.182  16.935  61.131 
37.165  16.486  61.076 
36.727  16.227  60.439 
37.805  16.301  61.062 
39.207  15.609  61.059 
39.957  15.497  61.212 
39.783  15.153  60.843 
40.775  14.731  61.745 
41.739  14.279  61.212 
41.723  13.899  61.569 
43.308  13.404  60.946 
43.329  13.812  61.377 
44.378  12.952  61.433 
44.996  13.336  60.953 
45.350  12.928  61.522 
46.074  12.506  61.516 
47.461  12.374  61.482 
47.886  12.618  60.997 
49.135  12.439  61.071 
49.300  11.888  60.716 
50.615  11.550  60.606 
50.894  11.522  61.341 
51.500  11.887  60.961 
52.539  11.148  60.914 
53.886  11.958  61.303 
54.173  11.423  61.321 
55.095  11.481  61.055 
55.854  10.934  61.609 
56.254  11.171  61.484 
57.231  11.357  61.679 
58.280  10.907  61.260 
59.095  10.970  61.498 
59.620  11.144  61.569 
60.355  10.412  60.752 
61.669  10.632  61.217 
62.122  10.877  60.489 
62.463  10.606  61.111 
63.192  10.853  61.384 
63.933  10.768  61.410 
64.252  10.803  61.038 
65.712  11.119  61.010 
66.593  11.018  60.860 
67.364  11.075  60.987 
68.283  11.878  61.030 
68.440  11.482  61.348 
69.276  11.141  61.379 
69.915  11.235  60.813 
71.399  11.837  61.502 
71.433  12.343  61.615 
72.259  12.105  61.498 
73.467  12.401  60.950 
73.906  12.721  61.225 
74.645  13.119  61.401 
74.735  12.881  60.613 
76.571  13.435  60.960 
77.211  13.551  61.299 
77.364  13.788  60.882 
78.487  14.314  60.938 
78.922  14.415  61.274 
79.587  14.673  61.392 
80.674  15.515  61.132 
81.494  15.346  60.782 
81.962  15.629  61.367 
83.206  16.437  61.542 
83.090  16.857  60.759 
83.737  16.723  61.160 
84.869  17.305  61.407 
85.573  17.713  61.108 
86.255  18.116  60.975 
86.844  18.667  61.187 
86.722  19.053  61.660 
87.721  19.846  60.996 
88.466  20.178  61.146 
89.049  20.594  61.137 
89.761  20.379  60.766 
90.724  21.370  60.993 
91.175  21.571  61.465 
92.063  22.321  60.510 
92.100  22.613  60.926 
92.470  23.332  61.176 
93.300  23.553  61.207 
93.864  24.722  60.689 
94.127  24.604  61.562 
95.301  25.051  61.759 
95.112  25.363  60.938 
95.838  25.998  61.369 
96.260  26.385  60.988 
96.660  27.139  61.101 
97.361  27.698  61.117 
98.015  28.195  61.353 
98.443  28.895  60.712 
98.949  29.620  61.179 
99.816  31.052  61.344 
100.382  31.309  60.808 
100.632  31.788  61.423 
101.112  32.752  61.617 
100.873  32.697  61.063 
101.562  33.579  61.327 
102.287  34.538  61.000 
102.946  35.406  60.857 
103.079  36.235  61.343 
103.414  36.872  61.543 
103.917  36.957  61.937 
104.060  37.190  61.034 
104.363  38.336  61.592 
104.715  38.477  60.751 
104.900  39.555  61.714 
105.596  40.323  61.601 
105.899  41.189  61.868 
105.965  41.642  61.181 
106.211  42.515  60.912 
106.791  43.819  61.691 
106.311  44.117  61.150 
106.796  44.645  61.380 
107.366  45.617  60.296 
107.193  45.776  61.228 
107.483  47.358  60.846 
107.667  48.114  61.578 
107.252  49.124  61.196 
108.406  49.799  61.288 
108.443  50.636  61.464 
108.542  51.468  60.700 
108.548  52.008  61.372 
108.835  52.798  61.212 
109.081  53.541  61.136 
109.135  54.030  61.268 
108.914  54.726  60.692 
109.244  55.349  61.253 
108.719  56.052  60.937 
109.268  57.339  61.364 
108.881  57.926  61.652 
109.074  59.218  61.075 
109.504  59.238  60.688 
108.821  60.323  60.371 
108.981  61.131  61.104 
108.943  61.945  60.087 
108.778  62.714  60.391 
109.289  62.783  59.923 
108.961  63.352  61.021 
108.999  64.948  60.246 
109.218  65.151  60.769 
109.443  66.366  60.489 
108.968  67.133  60.773 
108.783  67.944  60.133 
108.533  68.759  60.481 
108.587  69.610  60.180 
108.192  70.123  60.351 
108.220  70.994  60.551 
107.233  71.494  60.474 
107.709  72.165  60.184 
107.394  73.991  60.353 
107.357  74.126  61.066 
107.175  74.818  60.192 
106.641  75.454  60.402 
105.983  75.962  59.992 
105.871  77.544  60.600 
106.035  77.381  60.022 
105.672  78.479  60.820 
105.340  78.551  60.077 
105.154  79.535  60.315 
104.848  80.207  60.773 
104.868  80.984  60.253 
104.104  81.612  60.936 
104.150  82.097  60.189 
103.409  83.319  60.102 
102.803  84.622  60.804 
102.463  84.201  60.067 
102.597  85.105  59.903 
102.379  85.457  60.683 
101.560  86.532  60.706 
100.692  86.945  60.509 
100.699  87.769  60.827 
100.592  88.345  59.613 
99.442  88.885  60.603 
99.461  89.539  60.457 
99.074  89.865  60.273 
98.600  90.612  60.675 
97.740  91.118  59.858 
97.623  91.721  60.387 
96.937  92.717  60.938 
96.822  93.189  60.148 
96.040  93.786  60.268 
95.453  94.149  60.495 
94.342  95.393  60.314 
94.586  95.528  60.733 
93.726  95.962  60.452 
92.729  96.785  60.273 
92.202  97.582  60.597 
92.404  97.385  59.963 
90.757  98.287  60.734 
91.004  98.315  59.614 
90.071  99.037  60.377 
89.274  99.259  60.804 
88.531  99.637  60.709 
88.175  100.592  59.729 
87.860  100.725  60.237 
87.442  101.037  60.907 
86.536  101.360  59.957 
86.111  101.505  60.698 
85.416  102.202  60.874 
84.222  102.574  60.521 
83.283  103.662  60.452 
83.124  103.590  59.963 
82.226  104.003  61.096 
81.171  104.221  60.954 
80.417  104.632  60.725 
80.041  104.380  59.871 
79.220  105.439  60.819 
78.783  104.984  60.437 
78.395  105.546  61.013 
77.879  106.071  60.752 
76.963  106.428  60.746 
76.097  106.700  59.825 
75.564  106.624  60.367 
74.604  106.653  60.310 
73.828  107.067  60.070 
73.334  106.995  60.261 
72.672  107.611  59.965 
71.343  107.416  60.224 
71.121  108.014  60.116 
69.959  107.961  61.006 
69.204  108.159  60.631 
68.577  108.725  60.199 
67.569  108.197  60.748 
67.080  108.562  60.002 
66.090  108.891  59.897 
65.325  108.746  60.412 
64.844  109.304  60.211 
63.953  109.231  60.458 
63.564  109.112  60.981 
62.646  109.449  59.980 
61.826  109.421  60.073 
60.922  109.406  60.178 
60.252  109.526  60.164 
59.712  109.408  60.647 
58.416  108.987  60.479 
57.029  109.291  59.932 
56.532  109.051  60.523 
55.682  108.893  60.882 
55.062  108.307  60.646 
54.263  108.948  60.801 
53.770  108.776  60.716 
52.956  108.991  61.230 
52.316  108.731  60.756 
51.227  108.548  60.053 
51.232  108.080  60.627 
50.063  108.302  61.231 
49.193  108.271  60.809 
48.732  107.411  60.410 
47.962  107.973  60.311 
47.135  107.491  60.863 
46.532  106.766  60.646 
45.051  107.115  59.903 
44.893  106.636  60.222 
43.409  106.535  60.203 
43.978  106.514  60.778 
42.471  106.454  60.319 
42.111  105.385  60.579 
41.313  105.357  60.842 
40.818  105.145  60.164 
39.940  104.722  60.476 
39.164  104.855  60.334 
38.570  104.215  59.961 
37.554  103.411  60.162 
36.208  102.950  60.298 
36.304  103.476  59.617 
35.883  102.671  60.645 
34.855  102.533  60.477 
33.466  101.673  60.267 
33.028  101.449  60.823 
33.671  101.187  60.500 
32.212  100.898  60.889 
31.716  100.480  60.257 
30.471  99.834  60.552 
30.519  99.316  59.961 
30.014  99.152  60.545 
29.145  98.302  60.458 
28.294  98.117  60.138 
27.891  97.449  60.695 
27.277  96.982  60.377 
26.668  96.370  60.321 
26.798  95.469  60.338 
25.885  95.824  60.273 
25.352  94.981  60.550 
24.788  94.393  60.419 
24.046  94.005  60.733 
23.623  93.336  60.573 
23.083  93.241  60.595 
22.368  92.708  60.630 
21.853  91.807  60.011 
21.241  90.635  60.474 
20.725  90.684  60.709 
20.749  90.058  59.846 
20.138  89.480  60.569 
19.766  88.677  60.233 
18.840  87.593  61.267 
18.871  87.630  60.702 
18.644  85.984  60.743 
18.066  85.784  60.008 
17.573  85.345  60.555 
17.530  85.005  60.182 
17.165  84.474  60.926 
16.678  83.831  60.277 
16.592  82.384  60.471 
15.919  81.865  60.689 
15.431  81.619  60.759 
15.150  79.574  60.151 
14.658  79.589  60.330 
14.631  78.887  60.882 
14.287  78.260  60.406 
13.867  78.103  60.179 
13.468  76.948  60.307 
13.244  75.604  60.687 
13.195  74.694  60.360 
12.751  74.352  59.988 
12.613  73.937  59.743 
12.314  73.581  60.596 
12.071  72.749  60.541 
12.186  71.775  60.350 
12.016  70.849  60.485 
11.667  70.334  59.991 
11.990  69.809  60.526 
11.714  68.222  60.714 
11.361  68.139  60.226 
10.917  67.250  60.410 
11.121  65.946  60.410 
10.796  66.006  59.920 
11.040  64.832  60.092 
10.885  63.889  60.082 
10.407  63.706  60.167 
10.472  62.951  60.465 
10.807  61.441  60.572 
10.823  61.368  59.888 
11.174  60.007  60.074 
10.424  59.144  60.318 
10.899  58.222  60.391 
10.650  58.181  59.954 
10.682  57.447  60.625 
11.459  56.264  60.086 
11.405  55.348  60.609 
10.738  54.047  60.587 
11.350  53.602  60.934 
11.106  52.379  60.295 
11.506  51.904  60.453 
11.465  51.661  60.968 
12.032  50.498  60.522 
11.533  50.159  59.883 
11.802  49.262  60.800 
12.126  48.932  60.047 
12.097  47.656  60.732 
12.479  47.747  60.107 
12.380  46.241  60.865 
13.010  45.163  60.470 
13.094  45.477  61.181 
13.322  44.126  60.789 
13.548  43.525  60.290 
13.980  42.761  60.054 
13.689  42.286  60.658 
14.018  41.363  59.710 
14.727  40.648  60.693 
14.876  39.730  60.257 
15.110  39.230  60.576 
15.362  38.347  60.927 
16.005  38.237  60.249 
16.194  37.467  60.518 
16.953  35.837  60.096 
17.274  34.956  60.067 
17.307  34.479  60.907 
18.143  34.777  60.100 
18.406  34.072  60.513 
18.420  33.219  60.497 
18.718  32.554  60.710 
19.733  31.945  60.561 
20.157  31.338  60.027 
20.243  30.348  60.924 
20.837  29.540  60.515 
21.374  29.635  61.034 
21.457  28.755  60.710 
22.244  27.943  60.278 
22.926  27.973  60.965 
23.281  27.143  59.982 
23.997  26.629  60.528 
24.285  25.556  60.096 
24.857  25.449  60.214 
25.348  24.658  60.715 
26.213  24.487  60.278 
26.378  23.673  60.722 
26.893  23.232  60.030 
27.679  22.525  60.504 
28.245  22.033  60.641 
29.292  21.160  59.965 
29.615  20.856  60.203 
29.970  21.068  60.475 
30.273  20.344  60.014 
31.551  19.447  60.557 
32.303  18.883  60.678 
32.698  19.240  60.057 
33.675  17.860  60.331 
34.179  17.979  61.189 
34.160  18.228  60.391 
35.288  17.287  60.159 
36.073  16.721  60.299 
36.808  16.273  59.906 
37.897  15.753  60.672 
38.468  15.712  59.953 
38.409  15.679  61.311 
39.284  15.298  60.076 
40.847  15.243  60.950 
41.402  14.437  60.315 
41.922  14.255  60.387 
41.996  13.795  60.945 
43.101  13.795  59.983 
44.062  13.534  60.560 
44.777  13.301  59.898 
44.828  12.920  60.664 
46.277  12.673  60.711 
47.196  12.996  60.297 
48.040  12.414  60.593 
48.249  11.986  60.698 
49.135  12.265  60.160 
49.704  11.617  60.913 
50.121  12.044  60.595 
51.269  11.478  60.644 
51.970  11.330  60.323 
53.008  11.158  60.336 
53.394  11.502  60.169 
53.966  11.069  60.695 
54.555  11.049  60.400 
55.935  11.160  60.723 
56.115  10.833  60.341 
57.009  10.783  61.150 
58.106  10.592  60.729 
59.012  10.720  60.624 
60.021  11.102  60.353 
60.474  10.818  60.263 
60.573  10.886  61.298 
61.462  10.371  60.441 
62.444  10.591  60.244 
63.260  10.761  60.759 
64.351  11.118  60.466 
65.230  10.755  60.046 
65.740  11.467  60.274 
66.503  11.173  59.906 
67.183  11.201  60.309 
67.855  11.058  60.038 
68.720  11.286  60.105 
69.885  11.956  60.481 
70.958  12.038  60.702 
70.703  11.572  60.951 
71.936  12.209  60.321 
72.680  12.256  60.698 
73.209  12.699  60.685 
73.788  12.736  60.169 
75.321  13.098  60.513 
75.696  13.304  60.731 
76.308  13.563  60.181 
76.893  13.457  60.229 
77.823  14.637  60.422 
78.820  14.937  60.551 
79.674  14.403  60.282 
80.662  15.415  60.558 
80.478  14.815  61.103 
81.933  15.629  60.453 
82.422  16.311  60.508 
83.135  16.260  60.635 
83.070  16.457  59.909 
83.773  16.865  60.332 
84.392  17.414  60.923 
85.274  17.371  60.949 
85.718  17.885  60.231 
86.515  19.314  60.681 
87.238  19.003  61.032 
87.847  19.499  60.522 
88.314  20.625  59.808 
88.924  20.202  60.338 
90.097  20.727  60.611 
89.833  21.189  60.785 
91.155  21.690  60.099 
91.586  21.924  61.137 
92.713  22.929  60.673 
93.238  23.339  60.778 
93.481  23.918  60.274 
93.984  23.896  60.959 
94.544  24.598  60.538 
95.180  25.341  60.235 
95.485  26.181  60.599 
95.797  25.889  60.343 
96.179  26.670  60.531 
97.655  27.832  60.210 
98.148  28.542  60.469 
98.793  29.077  60.218 
98.543  29.647  60.788 
99.397  30.321  60.862 
99.568  30.425  59.987 
100.033  31.001  60.575 
100.368  32.193  60.335 
101.145  32.228  60.326 
101.194  33.612  60.797 
101.590  33.523  60.192 
102.295  34.527  60.124 
102.218  35.203  60.628 
102.818  36.338  60.702 
103.633  36.671  60.556 
103.271  37.250  60.632 
104.017  37.476  60.185 
104.180  38.302  60.290 
104.740  39.440  60.446 
105.156  39.694  61.005 
105.161  41.079  60.214 
105.403  41.329  60.657 
105.923  41.841  60.316 
106.220  42.603  59.904 
106.090  43.468  60.389 
106.695  44.861  60.941 
107.172  44.838  60.762 
107.217  46.084  60.679 
107.577  46.453  60.695 
107.940  47.843  60.274 
107.659  48.378  60.377 
107.310  49.280  60.229 
107.974  49.294  60.815 
108.107  49.852  60.017 
108.344  50.412  60.573 
108.777  52.281  60.573 
109.279  52.335  59.987 
108.834  53.693  60.333 
109.220  54.494  59.859 
109.110  55.607  60.860 
108.784  55.295  60.181 
109.262  56.760  61.158 
108.928  57.144  60.495 
109.095  58.502  60.343 
109.340  58.266  60.874 
108.946  59.067  59.993 
109.577  60.188  60.316 
109.397  60.660  59.345 
109.259  61.181  59.982 
109.287  62.016  59.556 
109.171  64.073  60.065 
108.568  64.548  59.829 
108.461  65.519  59.928 
109.229  65.767  60.031 
108.715  66.213  60.319 
109.051  67.101  60.232 
108.245  67.675  59.732 
108.163  68.595  59.704 
107.826  70.096  59.644 
107.733  70.795  60.233 
107.421  71.169  59.539 
108.115  71.633  59.574 
107.310  72.744  59.835 
107.497  72.852  59.407 
107.181  73.610  59.773 
107.181  74.388  59.282 
106.836  75.132  59.792 
106.502  76.405  59.441 
106.343  76.808  59.225 
105.811  78.321  59.999 
105.143  78.413  59.617 
104.989  78.976  59.300 
104.542  79.736  59.703 
104.989  80.378  59.712 
104.487  81.475  60.352 
104.213  81.399  59.597 
104.077  81.909  59.506 
103.761  82.653  59.839 
103.278  83.945  60.354 
103.059  84.225  59.513 
102.228  85.057  59.563 
101.905  86.187  60.213 
101.579  86.696  59.816 
101.362  87.067  60.062 
101.056  87.615  59.937 
100.256  88.550  59.990 
100.365  88.719  60.484 
99.729  89.621  59.344 
98.556  90.488  59.697 
98.276  90.941  60.006 
97.486  91.747  59.582 
97.309  92.440  60.046 
96.395  92.826  59.874 
96.897  92.955  59.475 
95.667  93.457  59.758 
95.181  94.385  59.718 
94.522  95.063  59.626 
93.769  95.367  59.904 
93.982  95.924  59.631 
93.284  96.417  60.057 
92.838  96.811  59.527 
91.520  97.461  59.706 
91.823  98.037  59.431 
90.575  98.977  59.871 
89.846  99.303  59.529 
89.190  99.092  59.969 
88.675  99.223  59.980 
88.469  100.216  58.915 
87.302  100.649  60.237 
86.868  101.246  60.388 
85.826  101.870  59.763 
85.600  102.103  60.443 
85.148  102.132  60.257 
84.722  102.538  59.769 
83.705  103.028  59.848 
83.093  103.483  59.453 
82.453  104.169  60.132 
81.490  104.047  60.281 
80.622  104.805  60.282 
79.858  104.874  59.826 
79.713  105.276  59.436 
78.841  105.549  59.464 
78.266  105.948  60.072 
77.310  106.242  60.398 
76.264  106.014  59.694 
75.563  107.009  59.388 
74.711  107.023  59.907 
73.905  107.139  59.511 
73.621  106.472  59.857 
72.570  107.334  59.516 
72.358  107.988  59.349 
71.880  107.940  60.010 
71.231  107.390  59.749 
70.241  108.099  59.500 
69.579  108.455  59.802 
68.321  108.042  59.710 
68.029  108.781  59.624 
66.693  108.435  59.729 
66.113  108.504  59.412 
65.326  109.267  60.093 
64.476  109.244  59.593 
63.747  108.707  59.734 
63.467  109.164  60.271 
61.712  109.337  59.589 
61.297  108.767  60.128 
60.889  108.983  59.413 
60.373  109.200  59.681 
59.635  109.441  59.466 
58.678  109.033  59.739 
57.267  108.778  59.333 
57.346  109.330  59.019 
55.440  109.071  59.454 
55.783  108.782  60.142 
54.978  109.103  59.352 
54.101  109.055  60.002 
52.643  108.660  60.049 
51.853  108.312  60.086 
50.829  108.287  59.787 
50.398  107.988  60.490 
50.098  108.176  59.557 
49.256  107.659  59.701 
48.481  108.188  59.634 
47.458  107.215  59.909 
47.139  107.670  60.442 
46.455  107.340  59.988 
45.839  107.300  59.477 
44.834  107.165  59.407 
44.156  106.981  60.117 
43.841  106.187  59.885 
42.692  106.344  59.498 
42.040  106.076  59.879 
41.293  105.216  59.563 
40.397  105.219  59.964 
40.097  104.744  59.494 
39.122  104.904  59.644 
38.328  103.554  60.365 
37.680  103.920  60.006 
36.354  103.667  60.201 
35.990  103.072  59.613 
35.078  102.155  59.590 
35.171  102.730  59.901 
34.196  101.930  60.111 
33.381  101.427  59.567 
33.282  101.908  59.637 
31.740  100.677  59.727 
31.047  100.206  60.069 
30.622  100.167  59.302 
30.038  99.749  59.344 
29.772  99.119  59.739 
28.926  98.479  59.794 
28.456  98.541  59.389 
27.750  97.533  59.879 
27.180  96.913  59.716 
27.307  96.061  59.889 
26.511  96.084  59.541 
25.227  95.206  60.100 
25.230  94.430  59.491 
24.289  94.001  60.002 
23.985  93.401  60.148 
23.675  92.942  59.622 
23.201  92.848  59.196 
22.108  92.258  60.011 
21.295  91.228  59.392 
21.219  91.298  60.067 
21.022  90.399  59.576 
20.334  89.812  59.622 
20.429  89.074  59.921 
19.680  88.175  59.639 
19.377  87.791  59.465 
18.588  87.305  60.442 
18.439  86.628  59.822 
17.929  86.212  60.227 
17.642  85.692  59.650 
17.746  84.824  59.646 
17.018  84.408  59.687 
16.632  83.543  59.869 
16.516  83.071  60.240 
16.169  82.354  59.712 
15.467  81.053  60.206 
14.969  80.444  59.722 
14.815  79.555  59.366 
14.457  79.049  59.884 
14.470  77.722  59.583 
13.916  77.597  59.490 
13.736  76.413  59.694 
13.177  76.199  59.995 
12.986  75.685  59.853 
12.718  74.908  59.544 
13.099  73.382  59.395 
12.213  73.329  59.815 
11.875  72.117  60.149 
11.848  71.887  59.494 
12.025  71.281  59.709 
11.411  69.520  59.887 
11.836  69.475  59.602 
11.967  68.739  59.938 
11.456  68.183  59.693 
11.134  67.398  59.819 
10.969  66.544  59.933 
10.998  65.320  59.494 
11.590  64.673  59.481 
10.752  64.352  59.346 
10.607  63.516  59.662 
10.666  62.290  59.698 
10.884  62.136  60.140 
10.503  60.655  60.015 
10.395  59.675  60.057 
10.472  59.597  59.526 
10.627  58.895  59.846 
10.557  57.741  59.713 
11.023  56.781  59.487 
10.658  56.115  59.820 
11.193  55.448  59.602 
11.185  54.651  60.244 
11.019  53.957  59.718 
10.668  53.093  59.960 
11.397  52.506  59.891 
11.988  51.745  60.152 
11.506  51.053  60.285 
11.583  49.686  59.875 
11.938  49.452  59.493 
11.963  48.180  59.912 
12.095  47.465  59.416 
12.952  46.794  60.142 
12.518  45.981  60.079 
12.915  45.238  59.733 
12.651  45.104  59.379 
12.918  44.561  60.418 
13.346  44.064  59.817 
13.343  43.158  59.483 
14.213  41.810  60.168 
14.447  41.081  59.834 
14.447  40.425  60.139 
14.729  40.043  59.520 
15.221  39.366  59.589 
15.361  38.473  60.206 
16.387  38.044  59.749 
15.955  37.607  59.664 
16.930  36.326  59.313 
16.837  35.535  59.717 
17.567  35.065  59.505 
18.296  34.546  59.663 
18.152  33.485  59.910 
18.491  33.534  59.564 
18.927  32.070  59.573 
18.978  32.556  60.162 
19.466  31.754  60.119 
20.034  30.801  59.171 
21.351  29.899  59.882 
21.406  29.078  59.213 
21.746  28.956  59.955 
21.908  28.299  59.490 
22.376  27.595  59.568 
23.020  27.227  59.156 
23.377  26.802  59.115 
24.138  26.026  59.975 
25.083  25.002  60.403 
25.390  24.743  59.787 
26.116  23.969  59.225 
27.061  23.946  59.906 
27.721  23.031  59.768 
28.474  21.975  60.025 
28.432  22.581  59.906 
28.926  21.756  59.725 
29.641  21.356  59.566 
30.061  20.673  59.187 
30.952  20.042  60.291 
31.071  19.753  59.793 
32.102  19.676  59.720 
33.238  19.067  60.035 
32.999  18.450  60.316 
33.387  18.226  59.557 
34.585  17.759  59.989 
35.722  17.108  59.487 
36.413  16.939  59.856 
36.623  16.336  59.344 
37.247  15.932  59.750 
38.284  16.002  59.290 
38.652  15.408  60.485 
40.134  15.108  60.165 
40.804  14.719  60.200 
41.292  14.077  59.698 
42.069  13.862  60.048 
42.504  13.912  59.211 
43.547  13.550  59.340 
43.546  13.446  60.083 
44.123  13.140  59.472 
45.784  13.252  59.545 
45.650  12.796  60.272 
46.923  12.986  59.820 
47.183  12.138  60.002 
47.900  12.171  59.745 
48.490  12.021  59.766 
49.694  11.739  59.889 
50.244  11.610  59.755 
51.118  11.287  59.904 
51.463  11.545  60.140 
52.138  11.120  59.773 
53.119  11.448  59.485 
53.929  11.402  60.093 
54.804  10.781  59.621 
55.598  10.791  59.461 
56.963  10.491  60.097 
57.855  10.795  60.076 
58.271  10.580  59.460 
58.692  10.411  59.628 
59.442  10.847  59.815 
60.678  10.290  59.352 
61.643  10.441  59.660 
62.480  10.533  59.752 
62.734  11.305  60.016 
63.488  10.812  60.119 
63.803  11.036  59.709 
64.412  10.747  59.807 
65.589  11.060  59.985 
66.466  11.602  59.239 
67.085  11.094  59.258 
67.841  11.219  59.246 
69.138  11.467  59.420 
69.847  11.522  59.871 
70.512  11.618  59.303 
70.767  11.544  59.930 
71.159  11.856  60.019 
72.555  11.926  59.758 
72.989  12.182  59.831 
74.751  13.551  59.766 
74.785  12.874  59.309 
75.404  13.077  59.991 
76.064  13.132  59.409 
77.506  13.825  59.551 
77.642  13.941  60.186 
78.877  14.207  59.932 
79.828  14.861  59.075 
80.196  14.842  60.678 
80.404  15.337  59.517 
81.032  15.652  59.738 
81.813  15.930  59.404 
82.411  15.927  59.717 
83.416  16.908  59.910 
84.410  17.121  59.846 
84.942  17.498  59.659 
85.902  18.000  59.580 
86.019  18.574  59.658 
86.911  18.947  59.874 
87.346  19.574  59.354 
88.134  19.800  59.834 
89.351  20.211  59.050 
89.218  20.571  60.146 
89.942  20.413  59.750 
90.441  21.222  60.080 
91.376  21.767  59.242 
91.879  21.990  60.078 
92.340  23.196  60.285 
92.634  23.779  59.593 
92.935  23.505  59.982 
93.806  24.850  59.393 
94.392  25.020  59.963 
95.515  25.686  59.561 
95.603  26.431  59.776 
96.192  26.871  59.859 
96.966  27.636  59.441 
96.975  27.102  60.107 
97.781  28.789  59.577 
98.266  29.006  59.762 
98.864  29.960  60.061 
98.469  30.457  59.548 
100.152  30.921  59.782 
100.722  31.600  59.732 
100.666  31.571  60.308 
101.232  32.849  59.834 
101.601  33.399  59.287 
101.507  34.200  60.406 
101.899  34.148  59.508 
102.985  35.606  59.553 
102.509  35.869  60.051 
103.345  36.050  60.135 
103.633  36.837  59.966 
104.713  38.266  59.891 
104.851  39.079  60.121 
104.151  39.537  59.637 
104.986  39.647  59.302 
105.269  40.357  59.480 
105.512  41.095  59.853 
105.262  42.112  59.875 
106.336  43.055  59.651 
106.778  43.937  59.308 
106.612  44.372  60.122 
106.979  44.760  59.407 
107.445  45.902  59.888 
107.046  46.420  59.930 
107.254  47.543  59.932 
107.829  48.261  59.425 
107.785  48.655  59.780 
108.116  49.348  60.034 
107.859  50.145  59.674 
108.137  50.943  60.038 
108.281  51.654  60.274 
108.513  52.334  59.452 
108.320  53.619  60.153 
108.819  54.048  59.539 
109.128  55.386  59.323 
109.090  55.972  59.998 
108.944  56.639  60.225 
109.399  56.590  59.428 
109.352  57.378  59.882 
109.358  58.201  59.842 
109.045  59.141  59.218 
109.246  59.877  59.526 
109.489  61.462  58.661 
109.153  61.694  59.211 
108.873  62.680  58.767 
109.081  63.890  59.401 
108.941  64.601  58.886 
108.808  65.492  58.992 
108.879  66.307  58.878 
108.903  66.479  59.758 
108.837  67.215  59.188 
108.934  67.945  59.250 
108.621  68.710  58.905 
108.372  69.571  59.097 
107.982  70.232  59.118 
108.218  70.951  59.111 
108.194  71.515  58.941 
107.286  72.078  59.519 
107.174  72.936  59.000 
107.022  73.880  59.349 
106.820  75.016  58.875 
106.205  75.569  59.323 
106.853  75.983  59.699 
106.445  76.575  58.584 
105.692  77.430  59.159 
105.745  78.292  59.159 
105.705  78.921  59.418 
105.314  79.830  59.133 
104.396  80.843  59.595 
104.535  80.954  58.864 
104.378  81.459  58.810 
104.001  82.113  58.959 
102.927  83.148  59.554 
103.407  83.864  59.409 
102.789  84.242  58.990 
102.674  85.121  58.411 
101.989  85.958  59.444 
101.238  86.040  59.245 
101.215  87.241  59.253 
100.081  87.711  59.227 
99.831  88.657  59.595 
100.139  88.913  58.963 
99.185  89.374  58.854 
99.009  89.798  59.080 
98.940  90.864  58.940 
97.229  91.800  58.902 
97.246  92.412  59.110 
97.175  92.725  58.749 
96.261  93.592  59.466 
95.860  94.158  59.345 
95.365  94.548  58.809 
94.690  94.669  58.824 
94.036  95.586  58.889 
93.270  95.993  59.218 
93.087  96.579  58.782 
92.115  96.823  58.986 
92.115  97.627  59.165 
91.194  98.593  59.172 
90.296  98.652  59.102 
89.535  99.148  58.762 
89.351  99.148  59.305 
88.623  99.953  59.470 
87.968  100.783  59.005 
87.383  100.975  58.822 
87.269  101.055  59.654 
86.235  101.333  59.000 
85.616  102.009  58.792 
84.706  102.468  59.199 
83.763  102.828  59.231 
83.417  103.664  59.136 
82.594  104.076  59.235 
82.165  103.619  59.584 
80.989  104.336  59.752 
80.972  104.677  58.829 
80.280  104.838  59.375 
80.120  104.691  58.587 
79.008  105.351  58.837 
78.119  105.925  59.190 
77.208  106.255  59.496 
76.659  106.498  58.989 
75.578  106.435  58.572 
74.677  107.087  58.985 
74.361  106.715  59.207 
73.400  107.202  59.390 
72.933  107.655  58.844 
71.688  107.835  58.906 
70.830  107.701  58.758 
71.105  108.057  59.342 
69.677  108.057  58.982 
68.915  108.611  59.495 
68.467  108.472  58.726 
67.330  108.913  59.416 
67.418  108.686  58.953 
66.523  109.036  59.137 
65.391  108.946  59.160 
64.778  108.828  58.942 
63.234  108.704  59.091 
63.059  109.051  59.570 
61.901  108.890  58.753 
61.807  109.430  59.078 
60.151  109.459  58.957 
59.590  109.355  58.628 
59.265  109.002  58.990 
58.077  109.312  59.801 
57.820  108.898  59.503 
56.639  109.160  58.630 
56.186  109.395  59.396 
55.723  109.193  58.815 
54.830  108.579  59.538 
53.220  109.045  59.162 
53.196  109.139  59.670 
52.458  108.475  58.721 
51.855  108.630  59.348 
50.935  108.546  59.124 
49.746  107.831  59.525 
48.712  107.301  59.471 
48.866  107.978  58.988 
47.594  107.781  59.461 
47.107  107.884  58.801 
46.611  107.538  59.205 
45.469  107.294  58.769 
45.248  106.860  58.693 
43.932  106.397  58.943 
43.571  106.824  59.432 
43.008  106.635  58.823 
41.871  106.067  59.228 
40.577  105.411  59.072 
39.829  105.293  59.272 
39.924  105.178  58.537 
39.238  104.794  58.837 
38.254  104.291  59.533 
37.569  103.926  59.136 
37.082  103.584  59.533 
36.640  103.055  58.970 
35.239  102.608  58.812 
34.566  102.457  59.425 
34.211  101.841  58.967 
33.502  102.008  59.150 
32.712  101.687  58.842 
32.350  101.164  59.471 
31.090  100.322  59.093 
31.241  100.071  58.609 
30.306  99.534  58.601 
29.747  99.191  58.865 
29.175  98.397  59.396 
28.728  98.343  58.600 
28.089  97.330  59.163 
27.435  96.958  58.840 
27.671  96.477  59.141 
26.222  95.205  59.586 
25.505  95.566  59.446 
25.208  95.138  58.945 
24.101  94.042  59.492 
23.840  93.464  58.838 
23.596  93.444  59.629 
22.775  92.344  58.899 
22.054  91.876  59.145 
22.170  91.358  59.036 
21.495  90.786  59.536 
20.925  90.414  59.016 
20.445  90.006  58.897 
20.362  89.171  59.169 
19.731  88.706  59.375 
19.493  88.318  58.625 
18.705  87.347  59.279 
18.248  86.262  59.027 
18.487  85.570  58.505 
17.910  85.270  58.950 
17.110  84.070  59.340 
16.469  83.416  58.647 
16.637  83.268  59.235 
16.476  81.999  59.289 
15.643  80.808  59.278 
15.350  81.193  59.638 
15.221  79.919  59.232 
14.393  79.504  59.048 
14.454  78.686  59.049 
14.102  78.520  59.429 
14.119  76.828  59.502 
13.454  76.515  58.902 
13.400  75.762  59.345 
12.998  75.390  58.652 
13.219  74.614  59.352 
12.770  74.043  58.919 
12.429  73.134  59.349 
11.999  72.398  58.656 
12.557  71.442  59.123 
12.008  70.624  58.993 
11.680  69.800  59.259 
11.596  68.789  59.038 
11.314  67.885  59.043 
11.635  67.465  58.959 
11.356  66.693  59.537 
11.140  66.076  59.157 
10.805  65.599  58.725 
11.048  64.868  58.728 
10.976  63.628  58.884 
10.694  62.937  59.859 
10.679  62.860  59.018 
10.650  61.212  59.426 
10.432  60.266  59.376 
10.490  59.655  58.638 
10.675  59.083  59.364 
10.462  58.453  59.104 
10.800  57.725  59.082 
10.820  57.004  58.438 
10.531  56.413  59.053 
10.599  55.543  59.038 
10.760  55.112  59.254 
10.651  54.321  58.935 
10.943  53.159  58.356 
10.904  52.865  59.117 
11.258  51.584  59.616 
11.370  50.732  59.557 
11.603  50.094  59.079 
11.769  48.933  59.508 
12.265  48.556  59.293 
12.373  47.444  58.507 
12.920  47.265  59.403 
12.439  46.503  59.378 
12.617  45.903  59.600 
12.949  44.515  59.251 
13.345  44.757  58.867 
13.101  43.867  59.001 
13.739  42.410  59.279 
13.665  41.954  58.383 
14.517  40.935  59.223 
15.237  40.133  59.260 
14.931  39.421  58.835 
15.491  39.369  58.733 
16.239  38.514  58.637 
16.448  37.228  59.070 
16.301  36.741  58.849 
16.215  36.692  59.650 
16.592  35.906  59.187 
17.609  34.895  58.468 
17.886  34.215  59.461 
18.530  34.050  58.960 
18.619  32.730  59.343 
19.040  32.058  58.857 
19.503  31.239  58.818 
19.647  31.596  59.314 
20.710  30.156  59.114 
20.623  30.151  59.605 
20.925  29.350  59.655 
22.014  29.360  58.896 
22.639  28.356  59.403 
22.485  27.761  58.801 
23.492  27.480  58.842 
24.212  26.317  59.271 
24.525  25.544  59.018 
25.329  25.266  59.499 
25.551  24.430  59.349 
26.250  23.605  58.463 
26.607  23.827  59.132 
27.116  22.871  59.311 
27.879  22.417  59.442 
27.901  22.186  58.779 
28.595  21.679  58.974 
29.394  21.223  58.702 
30.856  20.526  59.350 
30.775  20.101  58.969 
31.629  19.827  58.947 
32.598  19.423  59.138 
32.533  18.925  59.646 
33.210  18.845  59.172 
34.017  17.841  59.197 
34.825  17.878  59.145 
34.998  17.336  59.367 
36.159  16.793  58.959 
36.773  16.621  58.365 
37.289  16.502  59.194 
37.737  15.864  59.251 
39.007  15.455  59.282 
39.962  15.295  59.294 
40.224  14.859  58.830 
40.600  14.585  59.390 
41.717  14.461  59.087 
42.716  13.541  58.787 
43.412  14.141  59.028 
43.687  13.385  58.856 
44.504  13.059  59.060 
45.033  12.809  59.523 
45.868  12.596  59.407 
46.324  12.441  59.634 
47.916  12.296  58.480 
47.948  11.927  59.268 
48.942  11.878  59.258 
49.312  11.644  59.602 
49.872  11.750  59.028 
51.006  11.946  59.174 
52.027  11.687  59.023 
52.391  10.966  58.893 
53.623  11.651  58.918 
54.477  11.520  59.460 
55.135  10.958  58.832 
55.919  11.144  58.695 
56.420  10.578  59.462 
56.888  10.603  59.258 
57.637  10.367  58.922 
59.082  11.054  58.947 
59.960  10.604  59.485 
60.615  10.702  58.781 
61.260  10.848  59.644 
61.589  10.431  58.756 
63.327  10.628  59.095 
64.086  10.593  59.301 
64.642  10.428  58.619 
64.939  11.110  59.219 
65.484  10.619  58.760 
65.857  11.117  59.360 
67.789  11.655  58.611 
68.310  11.552  59.363 
69.082  11.431  58.878 
69.563  11.931  59.478 
69.882  11.645  58.769 
71.410  11.792  59.536 
72.177  11.760  58.847 
73.089  11.995  58.891 
73.816  12.513  59.314 
73.895  13.061  59.386 
74.871  13.584  58.884 
75.697  13.430  59.315 
76.998  13.607  59.301 
77.332  13.699  58.658 
78.293  14.021  59.403 
78.779  14.866  59.249 
79.210  14.514  59.291 
79.833  14.796  59.857 
80.375  14.677  58.980 
81.036  15.303  58.971 
82.282  15.915  58.746 
83.141  16.462  59.109 
83.216  17.045  58.845 
84.594  17.192  58.400 
84.575  17.648  58.896 
85.247  18.233  59.164 
86.510  18.302  60.193 
86.982  18.355  59.368 
87.437  18.851  58.809 
88.089  19.218  59.198 
88.582  19.804  59.190 
89.425  20.395  59.693 
89.579  21.139  59.430 
90.415  20.843  59.311 
90.868  21.391  59.310 
92.021  22.516  59.466 
92.683  23.019  59.399 
93.377  23.584  59.384 
93.633  23.671  58.993 
94.107  24.050  59.165 
94.605  24.719  59.561 
95.438  25.420  58.978 
95.163  25.782  58.790 
95.844  26.176  58.779 
96.703  27.430  58.794 
97.519  27.416  59.621 
97.645  28.193  59.466 
98.615  29.121  59.215 
98.739  29.588  59.400 
99.111  29.795  58.653 
99.392  30.840  59.249 
99.829  31.272  59.531 
100.555  32.366  59.440 
100.479  32.315  58.900 
101.131  32.866  58.950 
101.664  33.601  58.759 
102.548  35.046  59.375 
102.393  34.670  58.602 
103.122  35.897  58.679 
103.113  36.429  59.339 
103.650  37.630  58.770 
104.305  37.807  59.428 
104.726  39.103  59.320 
104.613  39.254  58.704 
105.236  40.014  59.087 
105.475  41.270  58.677 
105.507  40.982  59.365 
105.937  42.235  59.156 
106.071  43.488  58.884 
106.577  43.411  59.120 
