18.873  45.999  38.571 
18.413  45.039  39.008 
18.964  43.777  39.426 
19.602  44.414  38.214 
19.499  42.748  38.735 
20.001  41.814  38.900 
19.368  42.047  39.532 
20.032  40.997  38.397 
20.504  40.017  38.651 
19.997  40.145  39.369 
21.276  39.308  39.448 
21.880  39.132  38.166 
21.550  38.592  38.754 
22.145  37.384  38.322 
22.825  36.128  38.788 
22.874  35.021  39.761 
23.633  36.131  38.930 
24.149  32.346  41.335 
24.770  33.480  39.033 
23.922  34.714  39.024 
24.750  34.764  37.618 
25.258  29.806  40.432 
23.837  31.950  40.768 
24.791  30.483  40.693 
28.563  29.867  36.660 
28.045  31.103  35.684 
25.709  33.649  37.262 
28.486  26.903  40.581 
29.487  29.815  36.309 
31.169  26.768  37.947 
29.830  29.027  35.819 
28.909  26.333  41.019 
33.159  27.229  34.150 
29.650  28.263  37.364 
31.430  27.140  37.317 
31.583  25.077  39.572 
33.590  24.921  39.364 
32.527  24.981  39.072 
34.750  25.381  36.794 
35.064  23.546  39.562 
32.914  25.334  39.011 
36.829  22.630  39.233 
37.593  23.363  38.053 
37.701  22.128  39.363 
38.633  21.237  40.040 
35.909  24.545  36.380 
39.777  22.584  36.034 
41.262  21.122  37.697 
41.671  21.353  36.847 
46.119  18.729  36.983 
42.574  20.151  37.344 
45.128  18.341  37.708 
43.049  18.901  39.475 
45.492  18.882  36.634 
46.828  18.182  37.267 
48.476  17.789  37.635 
49.053  18.309  37.259 
49.458  17.621  37.661 
49.843  17.900  36.844 
50.473  17.665  37.459 
51.413  17.224  38.513 
50.787  17.235  37.713 
51.480  16.935  37.756 
52.837  16.895  37.436 
52.627  18.122  35.794 
52.846  17.761  36.271 
55.221  16.250  38.425 
55.582  15.737  38.718 
55.826  16.007  37.900 
58.025  15.962  37.236 
60.915  15.733  38.489 
60.725  16.261  36.798 
61.637  16.681  36.981 
60.049  15.509  38.268 
61.088  14.657  39.402 
63.691  16.209  38.970 
63.431  15.963  38.145 
63.520  15.717  38.686 
65.086  16.453  38.119 
65.655  16.615  38.649 
66.674  17.187  38.112 
66.672  16.548  38.499 
67.506  16.669  38.402 
67.963  17.127  37.599 
68.580  17.413  37.277 
69.768  17.319  38.135 
70.428  18.397  37.711 
71.343  17.871  38.620 
71.688  18.727  37.355 
72.398  18.573  37.798 
73.457  19.622  34.701 
74.078  20.964  32.926 
74.914  21.195  32.626 
75.765  18.950  37.248 
77.615  20.229  36.695 
79.648  21.046  36.356 
76.878  19.980  36.195 
78.540  20.535  37.113 
78.003  20.797  34.901 
85.048  23.421  37.276 
85.461  25.509  35.025 
87.458  25.239  36.551 
84.026  24.087  35.716 
86.054  23.276  39.812 
85.394  23.562  38.533 
86.089  24.644  36.751 
87.972  25.339  38.249 
87.466  25.245  37.844 
83.803  24.175  34.106 
86.883  25.439  35.894 
89.410  28.131  34.396 
86.985  25.040  38.175 
84.886  25.375  34.594 
87.965  26.122  36.328 
89.105  26.856  36.368 
89.255  26.933  39.043 
89.437  28.787  35.389 
90.754  29.915  36.157 
90.365  27.616  37.861 
90.819  29.300  38.484 
93.118  33.215  34.631 
93.624  31.627  37.192 
91.819  30.456  36.514 
94.845  33.989  36.533 
93.085  33.840  34.839 
95.386  34.071  38.313 
95.533  34.824  37.140 
94.664  36.161  35.781 
96.415  37.303  36.760 
96.509  37.908  37.226 
96.518  38.349  36.385 
98.012  39.237  37.710 
97.006  39.330  36.348 
98.197  40.580  37.473 
98.239  41.706  37.967 
97.716  42.157  37.300 
98.265  42.736  36.338 
99.248  43.386  36.877 
99.459  44.367  36.539 
100.071  44.184  37.084 
99.799  45.039  37.163 
100.703  45.553  37.673 
101.177  46.794  37.239 
100.723  47.390  36.613 
101.057  47.690  37.207 
101.068  49.061  37.351 
101.468  49.161  37.569 
102.559  50.118  37.459 
102.159  49.500  37.710 
105.028  53.500  42.515 
102.594  50.694  38.490 
102.358  52.465  37.902 
103.922  52.844  40.056 
103.512  52.568  38.161 
104.527  53.556  39.590 
104.652  53.953  39.974 
105.121  56.393  40.621 
105.071  57.396  40.459 
105.176  57.067  39.402 
104.678  56.763  38.302 
103.928  54.788  37.985 
104.338  57.506  38.018 
105.092  59.029  38.265 
103.803  59.428  35.451 
105.780  57.688  40.469 
103.071  63.514  35.626 
103.338  65.678  37.423 
103.643  65.025  38.267 
103.272  62.649  35.343 
106.020  65.308  42.099 
104.768  62.164  38.641 
104.283  65.990  39.749 
101.678  67.349  35.103 
101.243  70.320  36.298 
102.162  69.133  35.941 
102.058  73.595  38.960 
102.553  72.313  38.867 
101.255  71.792  35.448 
99.542  74.812  34.679 
102.181  72.820  37.296 
98.188  75.095  32.846 
100.492  76.858  38.405 
99.316  77.314  36.475 
99.740  77.245  37.315 
99.846  77.963  39.068 
99.158  78.703  38.159 
99.445  79.546  38.488 
99.198  79.738  37.964 
98.843  80.710  38.184 
98.636  81.313  37.750 
98.519  82.439  38.886 
97.455  83.844  38.011 
98.317  83.332  38.747 
96.666  85.073  38.312 
94.331  85.643  34.155 
95.214  85.144  35.562 
95.033  85.281  34.698 
94.381  87.912  36.786 
97.250  85.153  38.828 
94.395  85.943  34.598 
91.928  88.370  36.280 
91.301  88.811  35.255 
90.800  88.708  34.289 
90.305  89.893  35.760 
89.824  90.453  36.149 
90.150  90.858  36.968 
89.738  93.124  39.150 
89.288  93.274  37.646 
88.571  92.803  36.462 
87.906  93.225  36.383 
86.770  94.113  36.882 
86.562  94.441  36.434 
86.184  94.769  36.396 
85.494  95.432  36.299 
85.095  95.662  36.605 
85.443  95.951  36.941 
84.940  96.814  37.346 
83.486  97.706  37.270 
82.732  97.662  37.680 
82.079  97.987  36.883 
81.300  98.227  37.113 
81.033  99.113  37.821 
80.757  98.960  37.395 
79.575  99.308  36.970 
76.897  100.267  36.520 
79.623  99.910  37.604 
77.997  101.013  37.364 
77.600  102.679  39.994 
76.033  101.244  36.826 
77.111  102.028  38.365 
74.222  102.477  37.409 
72.351  102.198  36.552 
73.823  103.030  38.591 
70.772  105.473  42.219 
73.380  104.449  39.882 
69.766  103.725  37.852 
70.530  102.352  35.988 
68.882  104.060  37.961 
67.458  103.101  36.039 
68.150  103.962  37.463 
66.509  104.367  38.776 
65.534  103.597  37.335 
64.378  103.020  36.752 
64.552  103.739  37.158 
63.546  103.425  38.402 
61.611  103.790  37.619 
62.469  103.537  37.905 
61.369  103.879  37.995 
60.196  104.237  38.482 
58.380  103.164  37.383 
58.205  103.734  37.995 
57.615  103.904  38.454 
56.403  104.052  38.813 
56.104  103.621  38.939 
54.959  104.035  38.907 
54.224  104.148  39.580 
53.658  104.007  38.769 
53.178  103.842  38.701 
52.263  104.029  39.491 
51.503  103.984  39.669 
51.584  103.756  38.956 
50.338  103.726  39.241 
50.007  103.320  38.994 
49.101  102.966  39.132 
47.370  101.980  38.146 
46.702  101.600  38.274 
43.874  102.557  41.034 
43.421  101.564  40.102 
47.375  103.058  40.210 
45.615  103.548  41.999 
42.967  100.610  38.873 
43.689  99.630  37.124 
41.591  99.270  37.419 
42.705  98.829  36.663 
41.228  98.628  36.595 
39.385  99.034  39.043 
40.093  97.983  37.402 
39.585  98.837  38.265 
38.854  97.937  38.068 
38.084  97.736  38.659 
37.714  97.521  37.951 
34.822  97.120  40.191 
35.952  96.603  39.727 
35.304  96.210  38.253 
34.975  95.526  38.814 
33.048  94.900  38.394 
33.539  95.021  38.756 
31.020  93.785  38.102 
32.633  95.049  39.144 
29.189  93.518  40.516 
29.119  93.717  40.002 
30.348  93.791  38.870 
31.506  92.667  36.471 
29.689  90.869  35.165 
26.857  90.289  39.035 
26.983  91.595  39.068 
26.325  89.753  38.570 
25.417  87.199  36.421 
27.874  89.105  35.708 
27.277  89.722  37.247 
26.231  87.987  36.471 
26.828  86.238  33.011 
23.718  85.756  38.003 
24.008  87.386  38.460 
24.673  87.242  36.623 
21.986  84.431  39.430 
22.485  85.855  39.833 
21.758  83.117  38.365 
21.177  81.673  39.206 
20.814  81.459  39.534 
20.107  80.958  39.908 
20.581  80.651  39.592 
20.286  79.001  38.727 
19.658  77.635  38.652 
19.233  77.927  39.388 
19.477  77.007  39.108 
19.635  77.249  37.897 
19.367  75.435  37.960 
19.101  73.867  35.092 
17.949  73.996  38.765 
17.716  74.023  39.289 
16.595  71.761  39.405 
17.625  68.394  36.569 
16.046  69.836  39.223 
19.090  69.707  34.670 
17.123  71.011  37.935 
18.128  71.096  37.020 
16.236  70.598  38.795 
16.884  67.825  39.081 
15.525  67.393  39.865 
15.922  66.465  38.845 
16.338  65.904  38.345 
16.355  65.048  38.276 
15.908  64.693  38.911 
16.140  64.049  38.531 
15.687  63.879  38.924 
17.390  64.009  36.935 
16.572  61.852  36.786 
15.553  62.226  38.961 
15.598  61.396  38.812 
15.514  59.119  37.704 
16.029  59.942  37.977 
15.244  59.526  41.163 
15.178  58.816  39.677 
17.904  57.266  32.805 
16.819  54.647  36.794 
15.873  49.532  41.027 
16.227  50.828  37.922 
15.002  50.558  41.432 
15.273  51.764  40.056 
15.552  50.143  40.540 
14.917  52.296  40.715 
16.521  49.703  38.870 
15.307  49.623  41.170 
15.035  50.203  41.749 
16.376  48.189  41.073 
19.231  45.202  38.204 
18.568  45.659  38.391 
18.307  46.846  37.588 
18.870  44.837  38.093 
19.286  43.995  38.103 
19.853  42.406  38.052 
19.670  43.230  38.111 
19.769  41.354  38.900 
20.001  41.558  38.101 
20.956  40.800  38.777 
20.941  39.971  38.931 
20.968  39.641  38.544 
21.254  39.408  37.706 
22.646  37.900  37.816 
22.137  37.495  38.852 
24.552  31.556  39.625 
23.974  35.373  37.776 
26.480  30.063  38.827 
25.580  32.236  38.110 
23.873  33.015  40.465 
24.874  34.468  38.417 
24.333  32.658  39.541 
26.666  32.260  36.517 
25.791  31.149  39.613 
26.987  33.948  34.466 
26.544  31.327  38.095 
24.231  30.644  42.143 
30.698  26.869  38.809 
29.430  27.910  38.709 
27.883  28.685  40.175 
30.983  25.962  38.649 
27.968  31.539  35.324 
28.555  29.213  37.172 
31.611  28.608  34.770 
31.882  27.544  35.782 
30.638  25.838  39.774 
33.303  24.606  38.706 
33.103  24.580  40.317 
33.455  25.187  37.024 
32.865  25.152  39.647 
35.450  23.922  37.964 
37.090  23.202  37.932 
38.058  24.165  36.400 
36.436  23.635  37.151 
35.811  24.317  37.737 
37.599  23.013  37.236 
38.266  23.376  37.477 
40.964  24.011  33.308 
41.466  22.058  37.257 
41.641  22.780  35.007 
44.310  18.757  37.697 
39.851  21.384  38.628 
46.661  18.294  37.769 
42.979  19.809  37.836 
45.261  19.814  35.521 
47.866  18.332  37.879 
47.008  19.458  36.025 
49.451  18.234  36.553 
50.701  17.649  36.616 
48.982  18.141  36.803 
51.205  17.357  37.040 
50.655  17.093  38.139 
51.012  16.893  38.466 
52.163  17.331  37.356 
52.148  18.165  35.793 
53.481  17.392  36.821 
54.904  16.476  37.588 
53.339  17.859  36.178 
52.771  19.054  34.232 
54.426  17.037  36.536 
59.702  13.825  39.905 
60.859  15.806  37.411 
62.645  14.974  40.980 
58.222  16.145  35.962 
61.888  14.469  40.676 
62.963  15.669  39.071 
62.636  16.274  37.708 
64.116  16.407  37.677 
63.882  16.186  38.243 
64.913  16.571  37.545 
65.201  16.931  37.730 
66.813  16.607  37.864 
67.791  16.994  38.040 
67.252  16.993  37.240 
68.975  17.808  37.944 
68.893  17.446  38.234 
69.498  17.795  37.460 
72.129  18.275  38.152 
72.993  18.949  36.693 
72.907  18.176  38.384 
73.598  19.559  37.274 
73.106  19.232  35.687 
74.116  19.879  36.515 
76.665  20.012  35.697 
76.494  20.205  36.437 
77.837  20.031  37.093 
77.906  21.773  33.267 
80.827  22.313  35.918 
75.609  21.155  33.266 
80.711  22.152  34.455 
85.805  23.294  38.602 
83.749  23.299  35.829 
82.811  22.098  37.329 
82.944  24.163  33.344 
82.904  24.006  33.904 
88.392  25.737  37.665 
86.033  25.131  35.492 
84.643  23.115  37.810 
87.504  25.834  37.110 
88.144  25.613  36.860 
88.246  27.022  34.216 
86.276  28.222  32.103 
85.795  25.884  33.703 
85.134  28.883  30.509 
87.172  26.846  33.066 
89.768  28.247  35.851 
90.941  30.966  33.626 
91.783  29.956  38.032 
91.266  30.369  34.893 
93.029  31.387  36.306 
93.173  32.756  35.093 
93.510  33.996  34.272 
93.140  32.018  36.987 
92.341  31.584  35.407 
93.236  32.170  35.620 
94.769  33.515  37.781 
95.131  34.342  37.896 
95.690  36.922  36.080 
95.491  36.636  36.947 
95.811  39.595  34.151 
96.621  39.065  35.609 
97.542  39.116  37.524 
97.343  38.578  37.497 
95.931  39.363  35.122 
98.263  41.930  36.920 
97.516  43.426  35.626 
97.188  41.772  35.551 
98.388  43.344  35.785 
99.010  43.794  36.324 
99.004  44.490  35.910 
99.878  45.336  36.318 
100.392  46.142  36.906 
100.102  46.788  37.195 
100.023  46.954  35.834 
100.690  48.594  35.839 
101.159  48.664  36.721 
102.273  49.024  37.688 
102.075  49.728  37.053 
101.229  50.100  35.407 
104.399  51.404  40.472 
103.191  50.965  39.163 
102.012  50.680  36.380 
103.391  50.744  38.580 
102.104  50.426  37.203 
101.657  50.443  36.776 
105.399  55.488  40.770 
102.966  54.628  38.111 
103.092  52.689  37.411 
104.651  55.758  39.230 
102.579  61.361  35.180 
105.156  58.832  39.149 
103.671  60.065  37.055 
104.549  58.231  37.785 
103.561  59.390  35.008 
102.427  67.964  37.094 
102.137  65.732  34.529 
102.576  67.158  37.383 
103.108  66.595  36.935 
104.610  64.560  39.770 
104.067  65.185  38.969 
102.337  67.952  35.900 
102.430  65.929  35.644 
105.517  64.186  40.640 
101.511  71.249  36.005 
103.969  69.782  40.132 
101.054  70.139  34.624 
99.889  72.542  33.556 
102.745  69.565  37.448 
101.452  75.800  38.794 
102.288  71.325  37.447 
100.817  77.051  39.742 
99.991  76.223  37.642 
99.281  75.523  35.086 
99.796  77.026  37.763 
98.896  77.686  37.354 
99.418  79.157  37.642 
98.650  79.504  38.049 
98.912  79.785  37.245 
98.509  80.408  37.726 
98.281  81.033  36.939 
97.818  82.610  37.745 
97.851  82.416  36.828 
97.022  84.703  37.891 
96.496  84.039  36.575 
94.215  86.571  35.267 
92.161  85.602  31.249 
93.785  87.112  35.043 
93.769  85.579  33.433 
93.554  87.510  36.552 
94.447  88.610  38.023 
89.559  85.889  29.547 
90.466  88.989  35.301 
90.380  88.449  34.750 
89.731  91.977  36.637 
89.959  91.863  37.333 
89.350  92.397  36.574 
89.220  92.530  37.373 
89.220  91.527  35.772 
88.530  92.027  36.189 
87.350  92.729  35.960 
86.666  93.754  34.934 
86.109  94.846  35.782 
85.601  94.833  36.506 
85.204  95.727  35.954 
84.691  96.007  35.721 
84.254  96.188  36.854 
83.046  97.304  36.800 
83.065  97.092  36.318 
82.537  97.387  37.240 
81.228  97.918  36.337 
81.871  97.604  36.503 
80.288  98.379  36.444 
76.841  101.843  37.485 
80.354  99.050  36.876 
79.812  98.258  35.283 
76.266  100.874  36.209 
79.328  100.927  39.339 
71.506  101.783  35.944 
76.422  99.059  34.649 
75.307  102.737  38.985 
72.845  103.107  37.955 
72.925  101.247  35.819 
74.666  100.891  35.809 
70.722  103.667  38.709 
69.133  102.766  36.487 
68.081  103.892  38.133 
68.114  104.073  38.576 
67.433  103.821  37.441 
66.233  103.113  36.095 
66.524  103.688  37.164 
66.791  103.703  38.016 
65.120  103.802  38.516 
65.889  103.639  37.741 
63.956  103.599  36.854 
63.800  104.084  37.825 
60.747  103.501  37.605 
60.068  103.050  37.262 
59.753  102.977  37.851 
58.791  103.877  38.142 
57.625  103.599  37.444 
57.266  103.723  37.918 
57.002  103.290  38.647 
55.876  103.016  37.861 
55.610  103.530  38.620 
54.678  103.550  38.440 
54.141  103.679  38.404 
53.286  103.423  37.820 
52.575  103.040  38.210 
52.397  103.650  39.042 
51.686  103.430  38.280 
50.922  103.353  39.182 
49.477  103.575  39.542 
46.220  102.917  40.201 
45.248  101.723  39.930 
48.838  101.607  35.877 
44.972  101.873  39.251 
47.056  101.906  39.353 
44.311  101.122  37.001 
45.462  101.415  38.605 
43.205  101.463  39.159 
43.177  99.317  35.852 
42.467  99.632  36.466 
42.641  98.628  36.066 
40.909  99.557  37.507 
41.500  98.977  37.061 
41.050  97.490  35.733 
38.837  98.547  38.539 
38.985  98.008  37.468 
38.347  97.958  38.059 
36.805  96.799  37.413 
37.044  97.094  38.234 
35.758  95.962  38.188 
34.802  95.084  37.917 
33.880  94.926  37.909 
33.572  94.351  38.308 
33.169  94.447  37.592 
32.521  93.817  37.429 
32.374  95.745  39.821 
32.770  95.489  40.097 
31.925  91.599  34.624 
31.096  93.423  39.064 
27.982  91.115  37.850 
28.831  90.788  36.503 
29.069  90.441  35.137 
27.525  90.051  36.951 
26.157  87.047  34.926 
28.702  89.421  34.289 
25.753  86.355  34.794 
25.734  88.139  36.417 
24.739  87.006  35.835 
25.685  86.787  35.723 
23.312  85.504  38.861 
23.541  86.024  36.976 
21.931  82.501  37.718 
21.409  83.990  39.876 
22.162  82.321  36.963 
21.890  81.884  36.950 
20.513  81.842  38.676 
20.237  81.259  39.062 
20.687  80.875  38.432 
20.841  78.612  37.531 
19.814  79.683  38.875 
20.353  78.321  38.068 
20.147  77.144  38.243 
20.304  74.718  33.836 
19.268  76.384  37.608 
19.332  75.097  35.898 
19.357  74.684  35.567 
16.172  72.029  40.720 
19.751  69.646  33.565 
18.902  71.051  35.323 
16.778  72.423  40.322 
18.533  71.740  36.256 
16.941  69.249  38.006 
19.014  67.809  34.324 
16.386  69.637  38.857 
16.635  67.292  37.594 
16.451  68.384  39.173 
16.350  66.701  38.272 
16.821  66.227  37.836 
16.604  64.756  37.761 
16.383  64.562  38.528 
16.387  63.513  38.412 
15.914  63.066  38.868 
16.131  62.619  37.887 
17.375  62.978  35.262 
15.904  60.329  37.199 
16.043  61.023  37.748 
16.023  59.235  36.448 
15.274  58.259  38.066 
15.822  57.810  39.202 
15.691  56.903  37.848 
15.227  58.301  38.929 
15.223  55.374  37.945 
15.598  55.974  39.418 
17.608  53.178  34.127 
17.007  53.924  35.784 
16.992  51.018  36.505 
15.686  51.496  38.185 
17.526  50.486  35.568 
14.786  53.128  40.479 
16.387  48.580  40.091 
16.543  52.508  36.049 
15.170  49.053  42.384 
15.615  48.613  42.028 
18.049  46.730  38.915 
19.235  45.945  37.467 
19.807  46.170  36.253 
19.891  46.423  35.524 
19.204  45.096  37.417 
18.946  44.395  38.708 
20.513  42.742  38.084 
20.309  42.055  37.540 
20.472  40.924  37.719 
20.728  40.463  38.058 
20.767  40.059  37.779 
21.939  39.135  37.368 
22.402  38.790  37.540 
21.879  36.150  39.968 
24.515  35.963  37.319 
23.359  36.175  38.024 
24.328  36.519  37.881 
24.981  33.837  37.186 
25.433  31.505  38.741 
26.076  31.938  37.764 
25.869  30.305  40.156 
24.540  35.088  37.298 
27.365  30.131  37.648 
27.473  32.380  34.880 
28.180  32.965  34.193 
29.053  29.564  36.575 
27.302  31.762  36.787 
28.783  28.865  38.166 
32.549  27.083  35.590 
31.393  28.066  35.838 
34.801  26.710  34.191 
29.189  28.891  36.669 
33.380  24.197  40.297 
33.972  24.407  38.616 
32.641  25.541  36.988 
32.987  25.173  38.035 
31.433  25.194  40.451 
33.771  24.756  37.939 
34.284  26.626  34.966 
34.568  23.957  38.473 
34.053  25.922  35.642 
36.511  23.376  37.795 
36.225  24.172  36.483 
32.074  25.981  37.774 
36.738  24.919  35.570 
38.021  22.497  38.069 
40.588  22.924  34.462 
40.235  23.094  34.931 
40.055  23.775  33.613 
39.905  21.726  37.783 
43.695  19.932  37.980 
47.752  21.260  32.753 
44.347  21.098  34.863 
46.549  19.395  35.893 
44.837  21.409  34.368 
48.389  18.353  36.998 
48.597  19.238  36.065 
45.954  20.406  35.143 
48.720  18.579  36.160 
50.721  18.162  36.798 
50.717  18.717  35.272 
53.273  15.880  39.314 
51.713  19.246  34.701 
52.390  17.765  36.492 
51.463  17.799  36.299 
53.286  18.511  35.514 
53.536  16.470  38.066 
56.930  17.747  35.498 
58.289  17.108  35.788 
57.518  15.840  38.033 
58.711  15.727  37.709 
61.717  15.413  38.552 
61.436  15.066  39.511 
63.498  15.153  39.564 
61.997  16.161  37.927 
62.046  16.106  36.949 
63.413  16.643  37.541 
64.658  16.694  37.060 
65.162  16.981  37.023 
65.942  17.293  37.215 
67.186  17.448  37.337 
66.524  17.189  36.742 
68.359  17.515  36.309 
68.039  17.565  35.975 
70.065  18.807  36.427 
70.039  18.014  37.553 
68.702  18.190  35.681 
70.699  18.201  37.273 
72.646  18.775  37.173 
73.445  18.630  37.026 
70.907  18.854  35.241 
73.234  19.963  33.300 
78.297  20.389  36.357 
75.598  21.197  34.579 
76.241  20.769  34.279 
77.856  21.508  32.815 
77.418  22.142  32.546 
80.486  21.828  35.321 
81.168  21.915  36.055 
85.826  23.863  37.694 
83.727  23.679  34.938 
82.641  22.333  36.466 
85.229  24.409  36.410 
88.614  27.736  34.567 
82.371  24.475  33.300 
84.675  24.210  35.488 
87.541  26.108  36.086 
89.222  29.870  32.397 
89.454  29.882  33.232 
86.977  27.568  32.503 
87.760  24.889  39.606 
87.571  29.904  31.892 
89.352  29.603  34.264 
92.154  31.408  34.978 
90.079  28.638  36.683 
88.750  27.077  35.180 
90.553  29.850  34.613 
92.767  32.062  35.001 
90.375  28.977  36.150 
91.382  30.028  36.790 
92.701  32.857  33.896 
93.533  35.330  33.639 
93.846  32.932  37.130 
94.726  35.279  35.038 
94.958  34.923  36.490 
95.027  35.703  36.735 
95.021  36.930  35.478 
95.715  37.280  36.463 
96.296  38.410  35.885 
96.939  38.687  36.849 
97.329  39.592  36.938 
96.918  39.832  35.578 
97.982  41.172  37.002 
96.519  42.422  34.588 
96.818  42.706  33.488 
98.232  44.207  35.416 
98.625  44.390  36.761 
98.861  44.010  35.917 
99.038  45.148  36.329 
99.846  45.860  36.391 
100.341  46.437  36.524 
99.642  46.585  36.091 
99.729  47.638  36.350 
100.349  49.089  34.885 
100.327  49.154  35.758 
101.671  49.826  36.323 
100.463  48.051  36.493 
102.896  50.029  38.179 
104.550  51.739  40.117 
101.371  54.347  33.828 
99.848  52.160  31.849 
101.664  54.588  34.533 
102.099  51.432  37.381 
105.661  56.893  40.240 
102.107  52.608  36.253 
100.902  55.781  33.480 
103.586  55.471  36.558 
103.957  57.515  37.624 
104.434  57.786  38.468 
102.225  53.836  36.226 
103.335  63.507  35.136 
103.093  65.408  36.056 
101.752  68.485  35.279 
103.310  66.017  38.244 
103.498  68.608  38.698 
99.747  65.972  31.938 
100.707  67.962  33.701 
103.729  62.654  35.915 
102.216  68.559  35.392 
101.021  71.373  35.079 
102.008  70.651  36.446 
103.299  70.980  38.867 
100.778  71.003  34.258 
100.902  72.904  34.869 
100.321  72.655  34.317 
100.969  73.872  36.008 
101.332  73.222  36.940 
101.443  75.731  38.289 
99.160  76.162  34.745 
100.103  76.520  36.638 
100.514  76.851  37.639 
99.636  77.870  37.643 
99.058  78.377  37.269 
98.537  79.009  36.990 
98.659  79.559  36.814 
98.072  80.229  36.685 
98.419  80.692  37.309 
97.932  81.739  37.569 
98.273  81.808  37.247 
97.169  82.971  37.414 
92.992  84.360  32.066 
95.324  83.127  33.332 
96.396  84.139  37.006 
95.207  84.034  34.672 
94.828  85.855  35.095 
95.641  85.802  36.694 
96.359  86.414  38.080 
91.673  87.890  34.271 
90.691  89.312  35.050 
91.855  87.500  33.511 
90.958  89.667  36.195 
89.547  90.828  35.622 
88.400  91.104  35.583 
89.233  90.778  35.261 
89.716  91.237  36.347 
88.593  92.597  35.940 
87.801  92.975  35.726 
86.744  93.254  35.560 
86.460  93.821  35.696 
85.633  95.022  35.658 
85.395  94.744  35.172 
84.682  95.734  34.882 
83.856  96.822  36.515 
83.563  96.768  35.651 
83.176  96.598  36.288 
82.658  97.127  35.395 
82.179  97.024  37.014 
79.755  97.575  35.755 
80.774  97.704  36.382 
79.870  99.134  36.626 
79.317  98.352  36.241 
79.852  98.674  36.009 
77.660  99.638  36.475 
79.134  98.366  35.326 
78.517  100.871  38.220 
79.091  100.579  38.604 
77.151  100.919  36.436 
76.089  101.638  37.360 
72.171  102.085  36.011 
75.719  102.090  37.001 
74.868  102.687  38.062 
71.680  102.924  36.596 
71.807  102.428  36.439 
70.104  104.034  38.139 
68.911  103.689  37.668 
67.883  101.457  34.226 
68.881  102.580  35.648 
66.993  103.199  36.677 
64.961  103.581  36.870 
65.224  103.114  36.449 
63.346  103.580  37.614 
62.566  103.002  36.758 
61.872  103.106  37.332 
61.476  102.780  35.879 
61.217  103.238  36.916 
59.088  103.586  37.736 
58.960  103.269  36.723 
57.697  103.223  37.977 
56.868  103.095  37.469 
56.350  103.620  38.040 
54.844  103.272  37.975 
54.085  103.155  37.827 
53.596  102.902  37.205 
53.289  103.368  38.475 
51.917  102.777  38.232 
51.863  103.263  38.783 
50.963  102.736  37.879 
49.586  102.724  38.412 
48.702  102.871  38.764 
43.927  101.499  37.913 
48.264  101.084  36.361 
45.815  101.804  38.677 
43.771  100.787  37.819 
45.735  101.948  39.203 
43.783  100.358  36.540 
44.032  99.913  36.392 
46.118  99.660  33.754 
45.419  99.460  34.251 
42.602  99.043  35.342 
43.383  99.160  34.942 
42.052  99.188  36.554 
40.967  99.902  38.395 
40.213  97.691  35.995 
40.057  97.618  36.500 
37.753  96.211  37.040 
37.913  97.547  37.406 
36.956  96.307  37.513 
36.334  96.556  38.209 
34.923  95.718  37.849 
35.225  95.577  37.478 
34.753  94.538  37.104 
33.798  94.435  37.221 
32.709  93.750  37.918 
30.662  94.348  39.503 
32.877  93.367  36.326 
30.855  94.168  39.064 
28.635  89.500  35.662 
31.514  91.687  35.355 
28.366  88.162  33.182 
27.184  88.069  34.976 
27.994  89.069  36.475 
27.522  90.599  38.579 
27.045  89.374  36.450 
26.654  88.633  36.187 
24.487  86.037  35.424 
26.513  87.259  33.926 
26.214  88.981  37.991 
25.695  85.039  33.012 
25.244  86.623  35.180 
22.258  84.650  39.781 
23.827  83.964  35.219 
21.448  83.786  39.398 
21.084  83.128  38.881 
20.762  82.522  39.059 
20.638  81.583  38.239 
21.108  81.590  37.333 
20.479  80.365  37.666 
20.063  80.452  38.848 
19.982  78.029  38.006 
19.795  76.564  37.457 
20.573  76.752  36.849 
19.623  75.774  37.039 
19.154  74.955  36.935 
18.694  75.058  38.115 
18.752  74.905  36.429 
20.006  72.388  34.405 
20.095  69.098  33.253 
16.913  72.022  37.935 
18.518  73.717  36.919 
17.849  70.856  36.236 
16.322  72.379  39.919 
15.953  70.425  40.220 
16.772  69.033  38.833 
17.420  70.680  36.838 
18.416  69.651  35.823 
16.619  67.602  38.053 
17.635  69.181  37.672 
17.270  64.666  37.444 
16.615  63.898  37.729 
16.187  63.684  37.676 
16.355  62.670  37.326 
16.681  63.878  37.181 
16.727  61.150  36.273 
15.340  57.640  41.284 
17.359  64.201  35.958 
17.135  62.733  34.875 
15.501  54.610  38.363 
15.572  59.904  38.838 
15.610  54.597  39.352 
16.314  58.619  36.763 
14.554  56.649  40.032 
17.060  58.503  34.079 
15.808  55.882  37.756 
15.499  52.852  38.325 
17.355  54.868  34.050 
17.187  51.652  36.855 
17.272  54.931  35.997 
18.157  48.332  36.617 
17.413  47.503  39.156 
15.531  50.961  40.462 
17.890  47.714  38.917 
16.979  48.217  39.444 
16.882  50.589  38.225 
17.924  48.157  37.981 
19.546  45.944  36.916 
19.401  44.364  37.662 
20.350  43.060  37.684 
20.220  43.379  36.919 
20.478  41.264  37.391 
20.579  41.878  36.742 
20.919  41.505  36.657 
21.508  39.901  37.112 
22.321  40.885  36.164 
22.328  39.585  37.010 
22.908  37.281  38.265 
21.859  37.565  39.466 
22.740  36.521  39.339 
24.034  37.157  36.539 
24.647  35.504  36.471 
24.388  34.336  38.489 
26.793  33.072  35.394 
27.373  31.388  35.866 
24.681  34.307  38.888 
25.390  34.678  36.368 
26.932  33.030  36.257 
25.659  30.600  39.471 
27.179  32.023  35.054 
27.991  29.902  38.389 
30.201  27.672  37.569 
29.431  30.829  35.630 
29.095  30.579  36.294 
33.775  28.415  34.096 
33.236  26.723  34.966 
36.123  26.450  33.174 
35.153  25.861  34.482 
34.861  24.783  37.692 
34.356  24.812  37.172 
31.501  28.030  35.286 
33.444  27.023  35.283 
35.043  25.051  36.106 
33.930  27.022  33.999 
36.341  23.796  38.487 
35.601  23.473  38.769 
32.095  26.338  37.041 
37.498  23.762  36.392 
37.491  24.116  36.675 
38.467  23.349  36.377 
40.831  23.052  33.763 
39.884  23.035  35.291 
41.759  24.321  32.045 
44.220  20.489  36.671 
44.145  19.153  37.377 
42.384  22.216  35.210 
40.197  21.810  37.292 
43.939  20.618  35.455 
44.486  19.990  36.010 
46.842  20.145  34.900 
44.637  19.135  36.543 
48.750  19.085  35.433 
50.369  18.500  36.065 
49.882  19.696  35.541 
51.703  17.765  36.796 
51.224  18.194  36.001 
55.038  19.729  32.977 
54.488  17.178  37.027 
55.858  16.854  36.392 
54.702  17.972  36.347 
53.668  17.673  35.446 
56.088  16.414  37.712 
60.233  15.293  37.859 
57.450  16.241  37.248 
57.267  14.908  38.613 
58.267  15.252  38.374 
63.118  17.315  35.393 
62.300  15.286  39.162 
62.339  17.475  35.260 
63.328  16.144  37.369 
63.784  16.481  36.826 
64.389  17.147  37.098 
66.204  17.629  36.368 
65.536  17.261  36.783 
66.080  17.214  36.120 
67.397  17.232  36.412 
67.852  17.317  36.817 
68.916  18.079  36.636 
69.735  18.163  36.888 
69.267  18.912  35.590 
71.292  18.068  37.783 
72.728  18.975  36.232 
73.532  19.281  36.483 
71.958  19.921  34.301 
77.874  21.239  34.561 
75.461  21.561  33.816 
76.416  20.717  35.139 
76.323  21.424  33.889 
80.980  23.067  33.698 
82.135  22.391  34.769 
78.501  22.160  33.337 
82.190  23.655  33.760 
83.341  22.751  36.849 
85.023  23.584  36.695 
82.368  23.062  34.276 
83.162  22.642  35.958 
87.212  29.194  31.655 
87.476  27.849  32.812 
88.010  26.188  35.294 
87.163  26.195  34.652 
88.885  27.465  34.308 
88.672  28.884  34.066 
85.692  28.898  30.505 
89.836  29.651  34.049 
90.367  31.523  32.468 
91.621  30.959  35.166 
88.350  27.799  33.713 
92.168  32.140  34.212 
89.669  28.570  35.048 
90.454  28.408  38.149 
92.442  35.109  32.548 
91.571  35.508  30.650 
91.368  34.488  30.975 
91.036  32.310  32.367 
94.318  33.102  36.548 
92.719  33.273  34.368 
93.711  33.429  35.284 
94.915  36.094  35.170 
94.225  36.315  34.399 
95.125  35.430  35.951 
95.070  37.994  34.679 
95.468  38.718  35.453 
96.507  39.162  36.126 
96.981  41.111  34.974 
97.981  42.299  36.378 
96.600  40.489  35.454 
97.520  41.278  36.388 
96.693  44.990  31.246 
97.782  42.918  34.957 
98.278  43.458  35.249 
98.005  44.119  34.466 
98.640  44.362  34.704 
99.224  45.427  35.812 
99.612  46.106  35.646 
98.831  46.330  35.521 
100.291  47.794  35.714 
99.774  48.423  35.760 
99.070  46.551  34.453 
101.562  51.605  35.378 
100.114  48.916  34.070 
101.857  51.691  36.036 
102.635  51.593  37.672 
101.797  53.324  35.081 
103.186  53.276  37.504 
101.426  52.354  36.039 
102.305  53.281  36.205 
104.355  56.128  37.847 
104.410  55.065  39.870 
102.728  54.455  36.168 
102.453  53.162  37.073 
102.775  54.076  37.464 
101.870  54.922  34.044 
104.323  56.867  37.377 
103.699  62.113  35.974 
102.842  65.740  36.846 
104.379  64.017  38.228 
101.716  65.545  34.580 
101.320  66.857  34.542 
103.048  65.070  35.306 
100.325  67.061  32.757 
102.633  66.763  35.924 
101.282  70.142  35.120 
101.083  70.490  35.562 
101.086  72.453  35.568 
100.221  75.773  36.973 
101.292  72.710  36.945 
103.968  69.322  39.247 
100.044  73.668  34.063 
101.375  74.982  39.339 
100.652  76.100  37.179 
98.510  76.676  34.078 
98.842  74.510  32.731 
99.635  75.808  36.379 
99.940  75.644  35.995 
99.480  77.778  36.617 
98.804  78.758  36.320 
98.265  78.584  36.082 
97.906  79.366  36.180 
97.598  80.079  36.607 
97.617  80.796  36.136 
97.561  80.861  36.904 
97.898  81.695  36.713 
97.538  81.662  36.268 
97.229  83.882  37.247 
96.453  82.788  36.084 
93.986  83.755  32.276 
94.957  86.414  35.825 
93.808  86.370  34.500 
91.932  86.720  33.136 
92.642  87.382  35.027 
91.099  87.926  34.494 
88.142  87.856  29.780 
89.514  89.384  35.341 
90.089  89.266  34.386 
89.888  90.073  35.493 
88.224  91.624  34.913 
87.882  91.833  35.179 
88.530  92.181  35.688 
87.687  92.522  35.485 
87.308  92.979  34.984 
86.041  93.706  34.390 
85.906  93.320  35.139 
84.939  94.144  34.886 
85.253  94.142  34.475 
84.958  94.987  35.055 
84.686  96.267  36.457 
83.931  96.372  35.942 
82.788  96.632  35.192 
81.969  96.849  35.158 
82.278  97.263  36.035 
81.364  96.351  33.628 
80.165  97.580  35.089 
80.263  99.813  38.180 
77.935  97.223  31.922 
76.210  97.595  31.899 
79.556  98.154  34.578 
76.903  101.281  37.868 
74.662  100.558  35.173 
74.323  101.960  37.141 
74.362  101.815  37.990 
74.566  101.384  36.526 
72.359  101.184  35.239 
70.921  102.598  36.708 
72.217  102.688  37.363 
72.056  103.375  38.366 
68.252  103.082  36.179 
71.203  103.292  37.099 
71.346  104.792  40.026 
68.556  100.392  33.614 
66.339  103.211  35.414 
67.480  103.531  36.838 
63.981  103.169  36.610 
66.709  102.800  34.990 
63.582  103.246  36.872 
61.851  102.922  35.607 
61.240  102.712  36.818 
59.629  102.986  36.487 
58.685  102.278  35.893 
59.478  103.646  37.439 
58.202  102.661  36.264 
57.819  102.884  36.890 
56.607  102.470  37.229 
55.429  103.466  37.829 
54.643  102.285  36.839 
53.921  102.440  37.269 
53.129  102.206  37.233 
52.634  102.708  37.476 
52.283  102.829  37.067 
51.130  103.135  38.241 
48.436  102.077  38.493 
48.910  102.710  39.525 
49.875  101.830  37.257 
49.186  102.268  37.789 
49.902  102.300  37.051 
46.546  101.003  35.547 
45.440  100.120  35.641 
44.659  99.875  35.503 
45.093  99.948  34.838 
43.878  98.578  35.284 
46.540  101.449  36.630 
45.106  101.063  37.345 
45.039  100.501  37.007 
41.821  98.284  35.289 
40.452  99.267  38.146 
40.546  98.039  36.894 
39.720  98.159  37.111 
38.318  97.148  36.884 
37.526  96.962  37.111 
37.031  96.556  36.530 
36.112  96.225  37.522 
36.032  95.645  37.830 
35.729  95.222  37.264 
34.439  95.058  37.149 
34.244  94.000  36.607 
33.493  94.075  37.455 
32.973  93.303  36.949 
32.771  92.633  35.719 
29.508  92.077  38.538 
32.121  93.186  36.850 
31.918  92.132  35.831 
29.541  93.274  38.402 
29.796  91.561  37.240 
30.112  89.801  33.860 
26.253  88.894  37.235 
27.308  87.609  33.952 
25.396  86.202  34.282 
26.168  86.097  33.629 
27.976  88.536  34.901 
24.937  86.099  35.778 
22.101  84.052  38.377 
23.621  85.328  37.206 
22.818  84.802  37.975 
23.587  85.444  36.689 
23.204  83.052  36.770 
22.232  82.781  35.988 
21.757  80.154  35.769 
21.588  82.745  38.048 
21.511  82.105  37.682 
20.733  81.022  37.570 
20.619  79.504  37.939 
20.434  78.489  37.080 
20.330  76.019  36.173 
20.689  78.892  36.683 
20.556  74.437  34.568 
18.236  74.112  37.936 
19.215  75.415  36.632 
19.314  71.979  34.825 
19.110  73.660  35.864 
18.254  72.694  36.101 
17.416  72.170  37.238 
20.348  73.945  34.400 
17.074  69.580  38.357 
19.189  71.478  35.183 
18.490  69.377  35.386 
18.723  66.848  34.031 
17.633  66.725  35.139 
16.565  67.449  36.740 
16.483  67.145  38.476 
16.570  66.536  37.351 
17.235  67.732  36.431 
17.421  66.524  36.965 
17.852  64.996  35.334 
16.109  63.176  38.042 
16.712  63.350  36.910 
17.838  68.919  36.444 
17.215  62.783  36.205 
16.628  59.793  34.987 
15.876  61.723  38.018 
17.091  62.232  35.593 
15.150  59.156  39.129 
15.349  55.788  37.478 
15.246  55.207  39.623 
16.167  60.860  35.926 
15.004  51.099  40.569 
16.127  54.916  37.282 
17.692  56.262  33.790 
17.374  56.540  35.218 
17.846  50.912  35.459 
16.578  47.894  40.507 
16.200  49.372  39.565 
17.217  48.634  37.843 
16.579  50.140  37.646 
17.120  47.950  38.632 
18.510  48.921  35.903 
17.933  47.414  37.963 
19.757  45.715  35.898 
20.085  44.629  37.422 
20.206  44.733  36.174 
19.429  45.179  36.946 
19.932  43.843  37.369 
20.251  42.551  37.189 
21.309  41.198  37.346 
22.402  40.286  36.957 
21.737  41.345  35.266 
22.508  39.676  36.302 
23.234  39.404  36.159 
23.164  38.303  37.449 
22.660  36.835  38.531 
23.391  36.698  37.913 
23.924  35.857  37.506 
23.504  37.449  36.701 
24.614  35.903  36.773 
25.749  33.885  36.356 
23.432  35.431  38.605 
26.034  34.412  35.988 
27.959  29.872  37.109 
26.108  32.776  36.734 
27.518  34.504  33.290 
26.627  31.353  37.521 
28.406  31.849  34.341 
26.967  29.624  38.271 
31.485  27.273  36.422 
35.005  26.931  33.796 
32.086  27.941  34.668 
32.751  27.804  34.903 
33.621  29.036  33.344 
36.939  27.653  31.430 
32.687  27.101  34.744 
35.441  26.361  34.373 
35.357  25.365  35.293 
34.233  24.345  37.493 
33.690  26.297  36.362 
35.151  24.350  38.526 
35.303  24.550  37.174 
37.333  25.047  34.460 
37.201  24.064  37.474 
38.484  25.180  33.674 
37.234  25.556  34.449 
38.663  24.903  33.002 
42.133  21.850  34.952 
39.643  22.402  37.162 
39.912  23.411  34.441 
40.424  23.861  34.266 
43.704  20.298  36.258 
44.998  23.050  31.419 
46.522  18.764  37.861 
46.423  18.938  36.582 
42.287  20.655  36.760 
48.503  20.198  34.996 
49.965  18.718  35.483 
48.566  19.784  34.348 
45.077  24.520  29.667 
49.991  19.380  34.757 
50.692  20.020  33.439 
51.158  19.715  35.007 
52.266  19.183  34.693 
54.559  17.759  35.338 
58.601  17.408  34.775 
54.220  17.352  36.197 
58.165  16.288  36.830 
55.529  16.859  37.172 
54.387  18.156  35.665 
58.881  19.022  32.837 
60.549  16.667  35.650 
57.200  16.853  37.320 
58.897  15.866  36.815 
62.041  16.817  36.486 
62.889  16.415  36.871 
64.169  17.230  36.400 
63.578  16.679  36.102 
65.078  17.556  36.078 
65.410  17.223  35.931 
66.166  17.473  35.542 
66.923  17.336  36.156 
67.795  18.341  36.045 
68.072  18.601  35.304 
69.795  19.707  32.002 
70.331  18.642  35.792 
71.959  18.844  36.428 
71.399  18.434  36.957 
75.023  19.633  36.246 
74.267  20.016  34.647 
73.215  20.391  33.489 
74.959  20.746  32.821 
75.235  20.361  34.959 
78.273  22.233  32.732 
75.444  20.531  34.098 
78.310  21.111  35.300 
83.855  23.434  36.916 
81.444  22.225  34.791 
83.045  23.254  35.256 
80.044  22.033  33.812 
79.058  22.655  32.997 
84.922  24.942  35.314 
81.021  23.854  31.962 
85.530  24.896  36.131 
87.112  28.543  31.972 
89.001  27.959  34.187 
86.140  28.890  31.146 
90.365  30.645  34.312 
88.957  28.088  35.719 
92.779  31.880  36.178 
86.719  27.504  33.298 
86.787  29.408  31.493 
90.380  27.805  37.016 
90.351  32.185  31.782 
90.380  28.152  36.124 
91.723  32.589  33.030 
91.611  30.638  36.083 
88.921  30.210  31.620 
93.898  34.858  34.195 
93.697  32.522  36.293 
93.143  33.787  33.935 
93.905  34.234  34.879 
94.235  33.284  36.037 
93.981  34.213  35.920 
94.681  34.780  35.697 
94.770  37.646  33.882 
95.883  37.737  36.083 
94.851  39.693  33.383 
95.744  37.978  35.309 
97.398  41.692  36.764 
95.426  38.988  33.909 
96.529  39.596  35.439 
97.470  40.448  36.667 
97.314  43.289  33.880 
97.224  42.749  34.190 
98.470  43.940  35.085 
97.532  43.696  34.275 
98.731  45.647  34.263 
99.312  44.872  35.719 
98.784  44.953  34.995 
98.342  46.708  34.217 
100.234  47.178  36.331 
99.476  47.753  34.299 
99.831  47.341  34.976 
101.366  50.601  35.179 
101.246  50.504  36.040 
103.350  51.331  38.468 
102.796  51.072  37.762 
102.609  53.779  36.635 
100.981  53.329  34.530 
102.534  52.161  36.958 
100.856  51.422  34.931 
102.792  57.156  34.796 
104.202  58.614  36.900 
104.005  56.148  37.039 
103.859  56.825  36.609 
103.582  54.343  37.592 
102.980  54.610  37.048 
102.645  56.732  35.311 
102.559  64.286  34.553 
103.893  61.046  35.960 
101.593  66.039  34.093 
101.575  60.940  32.739 
103.451  68.265  38.146 
100.765  63.555  32.649 
101.310  67.785  34.199 
100.392  67.199  33.392 
100.314  70.434  33.815 
101.451  71.220  36.804 
101.709  69.999  35.826 
100.431  68.732  34.258 
102.215  67.146  35.370 
100.143  75.379  36.736 
99.816  74.663  35.103 
97.039  77.591  33.295 
100.549  75.569  36.515 
99.054  74.908  34.342 
98.159  74.846  32.033 
99.264  73.402  33.455 
99.123  75.422  34.217 
98.888  77.807  35.972 
97.725  78.551  35.393 
97.685  79.440  35.381 
97.715  79.675  35.819 
97.293  80.737  35.118 
97.342  81.219  36.340 
96.875  81.564  34.555 
97.050  82.398  36.314 
97.371  82.690  37.056 
94.221  84.902  33.034 
96.902  83.254  36.674 
93.343  85.021  32.557 
91.699  87.457  32.800 
93.045  86.375  34.181 
93.018  86.828  34.408 
91.086  87.105  33.190 
89.919  88.985  33.496 
93.820  83.218  32.098 
89.138  89.423  34.031 
88.760  88.850  31.836 
89.908  89.756  34.799 
89.393  90.182  34.704 
88.820  90.192  34.587 
87.469  91.458  33.871 
87.258  91.816  34.553 
87.135  92.657  34.517 
86.456  92.999  34.424 
85.677  93.572  34.653 
85.028  94.628  34.201 
84.308  94.613  34.445 
84.304  95.212  34.374 
83.771  96.228  34.932 
83.153  96.483  35.578 
83.354  96.007  34.734 
81.478  96.919  34.396 
82.506  96.407  34.859 
81.081  97.091  35.324 
80.829  98.040  37.230 
79.858  97.502  33.694 
78.806  98.202  33.376 
78.097  98.876  33.569 
78.629  100.879  37.671 
77.796  100.472  36.782 
74.138  101.002  35.683 
73.732  101.002  36.300 
72.846  102.313  37.108 
71.738  101.442  34.927 
72.949  101.888  36.260 
72.708  102.502  37.505 
70.202  102.155  35.530 
70.668  103.070  36.473 
69.052  102.535  36.954 
69.707  102.089  35.978 
68.980  101.439  34.925 
68.388  100.962  33.152 
66.244  101.709  34.319 
68.551  102.700  36.346 
62.977  102.335  36.090 
62.678  103.499  37.025 
60.692  102.528  35.887 
58.680  102.457  36.397 
60.379  103.024  36.730 
59.208  102.758  36.023 
58.167  103.098  36.623 
57.404  102.983  36.282 
57.401  102.678  36.745 
56.565  102.794  36.187 
55.276  102.827  37.243 
54.889  102.693  36.530 
52.962  102.491  35.926 
52.900  102.708  36.400 
52.724  102.822  36.890 
51.608  102.385  36.679 
50.781  102.912  37.395 
51.577  103.151  37.503 
50.243  102.360  37.966 
50.817  101.863  37.562 
45.999  100.859  36.395 
47.591  100.733  36.070 
47.962  102.558  38.122 
47.704  100.216  34.522 
49.572  101.237  35.142 
44.162  100.051  35.515 
44.156  100.561  37.224 
46.858  99.895  35.079 
45.851  100.458  35.368 
43.551  98.180  33.329 
42.686  98.213  35.311 
40.372  98.357  36.589 
40.265  97.149  34.735 
39.336  97.679  37.363 
38.903  97.404  36.587 
38.204  96.663  36.327 
36.626  95.984  36.872 
36.752  95.747  36.092 
35.392  95.033  36.629 
36.152  95.346  36.414 
34.601  94.770  36.635 
34.462  93.763  35.919 
33.813  94.029  36.394 
33.476  93.980  36.755 
31.894  94.109  38.269 
32.779  92.150  35.891 
30.424  89.206  32.730 
26.499  87.953  35.165 
29.710  91.932  36.461 
30.223  91.225  35.463 
27.824  88.308  34.170 
26.933  88.218  35.878 
29.652  89.701  34.199 
28.428  87.471  32.815 
25.843  86.257  34.030 
24.094  82.376  32.847 
24.156  83.787  33.951 
26.293  87.607  35.425 
22.123  83.750  37.980 
22.489  82.749  36.969 
24.525  86.500  36.204 
24.561  83.022  33.924 
23.583  84.097  36.127 
22.382  84.509  38.298 
21.322  82.017  38.200 
22.605  82.000  35.699 
20.341  79.947  38.223 
21.049  79.917  36.562 
21.376  79.396  37.453 
21.337  80.099  36.162 
20.968  78.337  36.555 
20.379  77.660  37.400 
21.099  75.101  34.582 
18.451  74.488  36.540 
21.883  74.473  32.326 
21.670  73.378  32.701 
18.549  73.106  35.774 
19.603  69.788  34.176 
20.932  72.465  32.933 
17.341  71.337  37.537 
18.261  68.745  34.677 
18.345  68.009  35.773 
17.289  69.943  37.146 
17.784  70.369  37.356 
17.031  68.542  36.878 
16.917  68.387  37.969 
17.384  68.949  37.168 
18.530  65.188  33.819 
16.810  67.770  37.360 
18.372  61.866  32.783 
17.840  64.146  35.261 
17.007  60.509  35.130 
15.579  60.344  37.800 
17.615  59.012  33.011 
16.410  60.322  36.335 
15.986  57.489  35.836 
16.316  59.552  36.237 
16.590  58.891  34.597 
15.093  56.327  38.096 
15.695  58.698  37.531 
16.170  57.963  35.572 
18.601  54.666  32.156 
19.343  50.718  33.599 
19.121  48.337  35.376 
20.105  49.075  34.012 
17.500  54.135  34.380 
16.641  53.800  35.412 
17.004  49.399  37.455 
17.639  48.587  37.302 
15.928  49.649  40.393 
18.938  48.606  36.630 
20.092  46.098  35.167 
20.586  46.059  35.436 
19.766  44.858  36.191 
20.431  44.100  36.585 
20.436  42.779  36.315 
20.598  42.658  36.807 
21.539  41.668  36.160 
21.475  41.036  35.907 
22.075  41.709  35.106 
21.966  40.605  35.329 
22.458  39.935  35.756 
23.593  38.624  36.543 
23.011  37.222  37.369 
23.357  37.873  36.802 
23.908  38.938  35.964 
23.841  37.861  36.020 
23.726  36.742  37.244 
25.767  35.653  35.080 
26.288  34.942  34.553 
28.145  30.664  36.457 
27.190  32.851  34.233 
27.073  31.760  35.988 
26.482  33.490  36.820 
30.156  32.248  33.789 
28.827  31.152  35.139 
29.657  31.201  34.654 
27.371  28.814  39.030 
27.607  30.496  36.898 
32.874  25.928  36.844 
31.854  29.398  34.810 
32.366  29.341  34.185 
36.217  25.667  35.062 
33.960  28.207  33.412 
33.441  25.747  35.919 
34.057  25.423  36.385 
36.618  24.497  35.906 
34.908  25.985  34.921 
36.728  24.140  37.251 
33.357  26.215  35.676 
37.348  24.563  35.430 
39.730  23.469  35.836 
41.598  25.632  31.518 
40.667  22.259  36.111 
40.335  22.610  36.837 
41.507  22.952  34.108 
38.210  23.433  36.826 
39.578  23.013  36.680 
42.753  19.938  38.749 
46.114  19.939  35.362 
41.806  21.012  37.538 
45.334  21.985  33.854 
44.796  19.611  35.628 
45.944  19.219  36.067 
44.665  21.656  33.738 
46.994  19.619  35.044 
48.038  19.244  35.281 
49.450  20.855  32.690 
49.494  19.931  34.073 
50.851  19.383  34.504 
52.360  20.174  33.684 
49.369  19.775  34.861 
51.502  19.004  35.358 
54.515  18.310  34.979 
54.068  16.744  37.442 
55.979  17.329  36.230 
57.688  14.856  38.933 
60.933  18.087  33.789 
59.090  15.183  39.133 
60.329  17.377  34.586 
57.558  17.346  35.628 
59.527  16.780  36.047 
60.618  17.239  34.964 
62.030  17.699  34.657 
62.914  17.272  36.747 
63.032  16.983  36.028 
64.397  18.096  35.388 
65.501  17.752  35.124 
64.840  17.654  35.460 
66.520  17.942  35.128 
67.328  17.979  34.897 
68.128  17.910  35.414 
69.830  18.819  35.051 
69.569  18.238  36.293 
74.416  19.968  35.630 
70.707  18.776  36.554 
73.622  19.453  35.586 
71.667  19.556  33.533 
78.875  20.902  34.952 
74.134  21.632  32.259 
77.502  22.977  31.383 
79.508  24.149  31.943 
76.489  21.721  33.107 
77.445  24.028  30.199 
76.895  20.839  34.154 
80.663  26.569  28.594 
81.842  21.957  36.380 
82.148  22.866  35.250 
84.947  25.809  33.684 
79.208  22.255  32.788 
84.320  27.029  31.487 
83.454  24.164  35.118 
79.219  21.784  33.422 
85.371  26.116  32.963 
87.570  25.448  35.320 
86.231  29.739  30.291 
87.974  30.317  30.842 
87.969  31.055  30.557 
88.768  29.425  33.197 
87.677  28.838  32.419 
91.996  30.635  35.379 
91.837  33.654  32.443 
90.857  29.832  35.317 
89.116  31.784  30.712 
92.096  34.895  31.508 
89.836  30.971  33.200 
92.150  30.742  36.270 
91.948  31.898  33.673 
93.376  34.507  33.642 
93.001  36.391  31.606 
94.280  34.658  34.773 
94.430  34.091  36.273 
94.553  35.870  34.449 
94.801  37.072  34.527 
93.739  37.136  32.809 
94.648  38.168  33.142 
95.774  40.216  34.217 
94.959  38.161  33.751 
95.797  41.649  32.763 
96.443  41.289  35.760 
96.598  40.915  33.992 
96.722  40.484  34.502 
96.755  41.996  33.893 
96.992  40.267  35.162 
96.484  42.973  32.901 
98.715  45.162  34.531 
98.961  46.077  34.249 
99.062  47.006  33.950 
99.200  46.938  35.308 
99.846  47.877  35.124 
98.053  46.046  33.621 
99.683  50.147  33.250 
100.842  49.334  35.129 
101.541  51.014  35.554 
101.184  49.319  35.800 
100.887  50.567  34.742 
101.658  54.054  34.710 
103.167  55.950  36.015 
103.804  55.640  38.403 
101.548  52.453  34.987 
102.005  54.027  35.171 
103.608  55.067  37.237 
102.708  56.245  36.312 
102.856  55.195  35.465 
103.999  59.875  36.081 
104.528  59.699  38.360 
102.466  58.061  34.977 
102.995  64.173  35.106 
102.034  64.642  34.483 
101.142  66.169  34.113 
100.511  64.525  31.770 
102.856  65.874  35.291 
101.768  68.039  34.809 
101.511  68.973  34.769 
101.766  64.993  34.172 
100.503  66.017  32.830 
101.161  69.374  34.807 
100.290  71.803  34.118 
100.215  73.355  35.176 
100.532  69.666  34.517 
99.659  70.731  33.581 
100.062  74.171  34.681 
101.694  74.913  38.424 
101.344  75.302  38.067 
99.553  73.195  34.503 
98.514  76.051  34.548 
99.060  76.562  35.475 
99.260  74.393  33.470 
99.523  76.479  36.589 
97.884  78.999  35.209 
97.084  78.571  34.767 
97.610  79.395  34.466 
97.241  81.311  35.447 
97.025  82.062  35.831 
96.183  82.550  35.083 
96.495  83.308  35.618 
94.896  84.389  33.986 
95.069  84.765  34.249 
91.571  86.137  31.593 
91.810  87.887  35.031 
92.612  84.947  31.609 
91.868  83.983  30.912 
91.359  87.889  33.511 
88.811  89.168  32.468 
88.867  87.804  31.440 
92.907  86.257  32.469 
89.417  89.263  33.361 
89.559  89.777  33.968 
87.744  90.683  34.333 
88.813  89.693  33.731 
87.699  90.880  33.363 
87.053  92.197  33.960 
86.451  92.480  34.529 
86.203  92.627  33.600 
85.077  92.921  34.017 
85.265  93.899  33.882 
84.284  94.191  34.076 
83.776  94.764  33.800 
83.238  95.485  34.162 
84.187  95.611  34.977 
82.899  95.760  33.947 
82.805  96.233  34.473 
82.174  95.917  33.773 
78.011  99.224  34.649 
77.176  98.590  33.619 
80.664  96.838  33.411 
76.171  99.282  32.790 
78.696  98.685  34.640 
79.199  99.139  35.570 
77.251  99.918  35.002 
77.101  99.906  35.533 
73.493  101.755  36.692 
73.820  100.879  35.036 
72.986  100.549  34.780 
