23.355  92.856  71.695 
24.944  93.937  70.827 
23.880  93.387  70.428 
22.270  90.152  75.423 
19.749  89.339  69.229 
21.000  89.118  71.583 
18.931  84.906  70.318 
19.678  88.752  67.343 
18.928  85.500  70.569 
19.194  85.867  72.469 
19.462  85.784  74.486 
19.290  86.312  71.218 
17.967  85.564  68.702 
18.220  86.052  68.510 
18.240  84.317  72.396 
17.389  82.958  70.452 
16.833  82.319  70.247 
16.291  81.438  70.038 
16.130  80.463  71.131 
16.142  81.131  71.086 
15.643  80.280  69.914 
15.523  78.892  70.492 
15.681  78.086  71.368 
15.067  78.204  70.770 
15.267  77.641  70.161 
15.185  76.825  71.068 
14.266  76.295  70.546 
12.615  72.802  69.166 
13.316  74.424  70.137 
12.190  73.264  66.870 
12.981  73.281  70.829 
11.761  73.312  65.095 
13.431  72.461  72.203 
12.831  73.671  68.972 
13.214  73.039  69.997 
12.409  70.022  72.255 
12.753  70.475  70.639 
11.637  66.638  70.692 
11.243  65.515  67.734 
11.355  65.579  70.584 
11.091  60.821  70.112 
10.952  61.976  66.092 
11.387  62.978  70.087 
11.599  61.290  71.005 
11.387  63.595  70.474 
11.701  59.207  72.227 
11.849  61.532  70.078 
11.983  57.329  71.647 
11.169  60.184  70.834 
11.790  57.676  73.634 
11.697  55.017  71.330 
11.397  54.344  70.952 
12.298  52.814  71.833 
12.029  53.864  70.733 
11.771  53.295  70.274 
14.023  48.667  77.530 
12.514  51.332  69.340 
12.185  50.590  68.681 
12.513  49.086  68.247 
12.479  49.836  69.054 
11.997  51.697  70.519 
13.914  48.472  74.213 
12.073  51.313  72.482 
12.558  46.793  66.767 
12.554  48.405  69.933 
12.989  44.580  66.262 
12.808  46.557  65.957 
13.962  43.265  66.502 
12.643  45.602  66.942 
15.366  41.521  71.835 
14.386  40.788  66.642 
16.091  36.967  69.847 
16.674  35.227  65.963 
15.385  41.893  74.063 
16.509  39.861  73.139 
15.086  42.027  72.388 
18.553  32.381  67.478 
17.836  33.976  68.036 
19.521  30.539  68.873 
18.785  30.528  63.132 
19.295  30.917  69.113 
18.116  31.678  63.204 
19.753  29.529  64.977 
19.871  32.635  73.587 
21.453  29.116  69.277 
20.465  31.546  72.833 
19.729  33.671  75.667 
21.804  30.083  74.366 
21.627  30.980  76.102 
18.502  31.806  66.330 
21.768  28.775  69.751 
22.421  26.501  65.448 
27.503  24.398  70.870 
23.919  26.775  70.852 
24.997  26.286  70.979 
28.068  23.200  68.823 
27.539  23.801  68.640 
27.625  23.490  68.178 
27.343  23.937  69.493 
30.825  22.040  69.380 
28.005  23.520  71.004 
30.926  21.278  69.809 
30.387  21.309  69.037 
31.997  21.156  68.291 
31.865  20.523  68.113 
32.624  20.599  68.789 
33.669  19.703  69.053 
34.669  18.890  68.696 
35.451  18.887  69.241 
35.543  18.662  68.685 
36.049  17.814  69.531 
36.306  18.273  69.131 
37.434  16.980  68.850 
37.459  17.229  68.238 
37.346  16.360  67.141 
39.049  16.180  69.237 
38.182  16.485  68.843 
39.026  17.581  72.622 
38.912  16.287  68.208 
41.720  14.792  68.337 
40.675  15.923  71.156 
45.357  14.685  75.880 
41.781  15.193  69.218 
45.478  12.420  66.551 
42.827  14.599  70.061 
46.532  13.338  71.041 
44.190  14.283  68.637 
44.231  13.065  66.314 
44.266  14.080  69.668 
45.066  13.318  67.883 
47.320  13.010  69.656 
49.797  11.246  67.417 
51.191  10.567  66.537 
52.919  10.216  68.389 
51.934  10.612  68.128 
52.744  10.108  66.418 
51.840  11.183  68.813 
52.507  10.152  65.268 
58.679  10.419  67.316 
56.673  9.972  65.983 
58.805  10.137  69.516 
59.135  10.251  70.196 
59.889  10.535  67.947 
60.737  10.524  66.794 
61.594  10.114  67.964 
62.351  10.177  67.242 
61.554  10.548  69.199 
62.607  10.588  67.990 
65.023  11.010  67.357 
64.148  10.640  68.893 
65.955  11.051  68.325 
67.138  11.068  68.500 
66.928  11.115  67.688 
67.453  11.053  69.300 
68.336  11.346  68.914 
68.767  11.386  68.381 
71.409  11.423  67.706 
71.962  12.693  71.801 
68.657  10.757  64.978 
69.861  11.759  70.057 
73.972  11.801  65.658 
72.281  11.336  64.272 
70.092  12.062  71.048 
72.134  11.103  63.230 
79.443  13.744  64.538 
80.795  14.135  67.629 
75.860  12.674  66.792 
76.932  13.816  71.057 
77.268  14.389  69.897 
80.210  15.074  70.421 
81.692  15.468  66.535 
80.397  14.123  66.453 
80.131  14.468  64.870 
83.470  16.299  68.799 
83.537  16.461  66.720 
85.304  17.246  62.948 
79.814  13.780  61.338 
82.778  16.225  69.956 
82.086  16.108  71.664 
84.527  17.085  62.801 
84.137  17.375  69.656 
89.630  20.963  69.551 
88.094  19.375  69.943 
85.869  18.080  68.297 
91.508  21.888  67.562 
91.569  22.033  66.939 
87.957  18.953  65.652 
91.551  21.129  63.195 
92.970  23.543  67.972 
89.059  22.271  75.455 
90.047  20.249  63.903 
91.648  23.257  71.942 
94.008  24.777  69.310 
91.592  21.746  63.888 
95.433  24.838  64.667 
96.778  27.041  67.794 
95.339  25.966  68.676 
96.500  26.517  67.791 
96.828  27.743  68.487 
95.667  27.283  70.325 
97.801  28.431  69.152 
100.960  32.630  66.078 
101.043  33.039  68.909 
98.789  30.147  68.602 
99.779  31.064  70.082 
100.686  31.628  64.161 
101.943  33.399  67.659 
102.144  34.368  69.757 
100.118  31.481  67.686 
103.296  36.546  68.400 
103.632  36.827  67.888 
102.819  35.684  68.111 
103.245  37.014  70.068 
105.720  42.041  68.929 
101.853  34.771  71.215 
104.130  39.880  73.171 
103.439  38.352  73.138 
104.430  40.685  67.177 
105.491  42.454  67.635 
105.992  42.200  63.474 
103.890  39.369  65.826 
104.356  39.916  70.379 
106.981  44.665  63.445 
105.517  41.143  69.086 
106.806  44.803  65.155 
107.171  47.264  70.314 
106.828  45.238  63.592 
107.379  46.712  66.915 
107.150  46.699  68.598 
107.242  48.208  65.547 
107.981  51.119  71.959 
107.986  47.304  67.391 
108.079  49.789  65.095 
108.048  49.267  67.428 
108.077  51.048  71.113 
108.582  51.490  65.700 
110.143  57.079  65.470 
108.592  51.932  67.531 
109.760  58.248  68.498 
109.137  57.516  65.479 
109.684  56.451  65.453 
110.362  58.531  62.542 
109.726  59.763  62.375 
108.259  67.735  66.069 
108.799  62.362  64.104 
109.112  63.146  66.255 
109.439  62.132  63.815 
108.432  65.094  66.675 
108.189  64.352  70.168 
108.594  66.004  68.511 
108.331  71.108  65.300 
107.174  69.704  70.128 
107.958  66.408  67.925 
108.460  70.159  65.219 
106.886  73.319  67.175 
108.464  69.867  64.356 
107.955  69.912  68.887 
108.111  68.308  67.780 
107.799  67.031  69.245 
106.259  73.280  70.884 
106.476  74.236  69.455 
105.919  76.837  68.299 
106.757  74.141  67.978 
106.413  73.886  67.668 
104.947  77.724  68.415 
104.143  79.826  70.451 
104.388  79.211  70.087 
103.008  82.200  65.381 
103.455  80.867  67.200 
101.127  86.402  67.019 
103.047  80.893  69.905 
101.832  83.017  69.487 
101.885  84.687  66.995 
102.656  82.999  68.490 
101.744  85.133  67.481 
100.269  87.783  67.134 
99.808  86.867  70.115 
102.415  84.016  67.595 
97.482  89.042  70.286 
100.095  86.836  68.693 
95.934  90.995  68.451 
99.511  89.403  63.699 
98.977  88.040  69.902 
96.793  90.369  69.327 
96.512  89.723  69.061 
96.699  89.124  69.749 
97.231  89.850  68.730 
95.227  91.121  70.801 
96.156  91.299  69.227 
94.423  93.407  68.984 
95.771  93.005  68.391 
93.124  95.687  68.185 
91.964  97.883  66.049 
92.287  95.530  69.331 
93.269  94.288  69.292 
92.226  96.038  68.586 
90.959  96.467  69.330 
91.207  97.787  66.341 
88.944  99.430  67.283 
89.629  98.776  67.150 
91.514  96.775  68.801 
89.573  99.060  67.533 
88.450  101.331  65.836 
86.280  101.607  67.931 
85.684  101.504  67.977 
86.058  101.091  69.989 
86.857  100.345  69.840 
85.870  100.848  70.861 
84.817  101.784  68.539 
82.718  103.526  68.430 
85.205  102.049  69.241 
83.143  103.239  67.719 
83.755  102.974  69.136 
80.971  103.940  67.543 
81.961  102.734  69.699 
79.616  103.747  68.597 
78.114  104.585  69.498 
78.798  104.344  69.310 
77.433  105.094  69.796 
77.566  105.069  68.816 
76.434  105.235  68.497 
76.067  105.576  68.451 
74.463  106.336  67.911 
73.673  106.989  68.698 
72.952  106.799  69.670 
71.757  107.657  68.072 
70.891  108.773  65.521 
70.277  109.453  63.866 
69.367  109.122  66.040 
71.006  109.088  63.316 
67.475  109.148  67.167 
69.747  109.147  64.399 
66.414  108.336  69.097 
66.058  108.398  72.828 
60.994  109.403  67.114 
62.855  108.526  73.020 
66.996  109.438  65.104 
62.992  109.346  68.859 
59.533  109.258  70.425 
64.417  108.843  69.825 
62.111  109.990  66.932 
59.919  108.642  72.860 
57.742  108.050  74.110 
57.975  109.460  66.823 
62.006  110.050  64.959 
55.412  109.270  68.367 
55.767  108.724  67.627 
57.355  109.415  64.792 
55.773  109.195  67.277 
51.844  108.525  67.491 
49.729  108.626  68.042 
44.976  106.249  71.427 
50.926  108.476  70.281 
50.659  109.068  66.525 
46.587  108.565  62.286 
48.062  108.339  66.972 
46.806  107.698  67.201 
47.560  107.629  68.829 
45.978  107.792  66.058 
39.956  105.497  69.701 
41.760  106.681  64.231 
45.238  107.169  70.795 
42.114  107.059  65.924 
45.404  106.593  69.292 
39.441  105.243  68.295 
42.940  105.792  70.790 
37.483  103.241  72.337 
41.780  106.668  68.956 
36.121  102.471  69.425 
36.722  104.347  66.484 
36.516  103.818  66.542 
38.240  104.301  71.093 
35.668  101.082  74.381 
35.257  101.911  68.621 
35.575  101.967  70.023 
38.322  104.361  68.837 
35.469  102.084  67.668 
33.724  101.279  67.772 
34.895  102.317  68.888 
36.105  101.836  70.954 
33.327  100.284  69.512 
32.162  100.631  68.049 
31.367  99.511  69.821 
30.816  98.522  69.678 
30.505  98.194  70.330 
29.344  97.612  69.941 
28.422  97.094  69.123 
28.678  97.032  69.944 
27.127  96.035  68.921 
27.974  96.253  69.118 
27.006  95.526  70.337 
25.357  94.103  69.703 
25.606  94.150  70.842 
23.468  92.911  70.215 
22.913  92.978  68.490 
21.704  91.416  68.883 
20.478  88.509  71.177 
23.555  92.172  70.724 
21.152  89.749  70.413 
21.696  89.932  72.483 
19.746  86.595  73.340 
19.928  87.896  70.266 
20.277  88.708  69.990 
18.948  86.696  71.395 
20.362  86.934  75.757 
19.411  88.174  68.170 
22.029  89.966  74.701 
16.962  84.472  67.306 
18.748  84.633  71.861 
16.998  82.896  70.836 
18.078  83.428  69.975 
16.663  82.080  69.676 
15.934  81.075  69.403 
16.520  81.643  70.876 
16.184  81.048  70.315 
15.107  78.475  69.818 
15.835  79.562  70.418 
15.370  78.949  68.953 
14.841  78.081  69.000 
13.841  75.837  69.467 
14.108  77.196  68.390 
13.702  75.157  68.251 
14.261  75.883  68.202 
12.603  72.112  69.688 
13.077  75.708  66.957 
12.341  70.557  71.299 
12.073  71.617  69.049 
12.119  71.318  70.209 
12.096  67.359  70.722 
12.956  73.588  69.838 
10.841  62.283  69.071 
10.746  61.714  66.870 
11.501  64.898  69.910 
11.562  65.187  71.219 
11.461  64.621  69.477 
11.001  63.936  68.119 
10.680  61.640  67.386 
11.336  62.396  69.800 
12.093  58.946  71.736 
11.678  58.265  72.850 
11.347  59.320  70.422 
10.804  58.254  67.355 
12.656  54.731  73.451 
11.810  60.314  70.154 
12.548  56.374  74.972 
11.317  56.378  70.810 
11.789  56.185  69.639 
11.258  54.673  70.073 
11.862  53.211  69.680 
11.767  53.092  71.377 
12.102  52.428  70.675 
12.240  50.564  69.338 
12.227  51.565  68.472 
12.554  47.858  67.877 
12.694  47.589  69.560 
12.773  48.244  68.610 
12.911  49.478  72.327 
12.654  48.942  69.322 
13.824  43.503  68.708 
13.408  44.810  68.005 
13.083  47.285  70.806 
13.488  44.503  68.654 
12.819  44.848  67.223 
14.938  39.595  70.902 
15.613  37.794  69.351 
14.033  41.826  65.362 
14.303  41.395  70.942 
17.369  36.504  71.810 
17.307  36.835  73.155 
17.083  37.236  71.562 
16.162  38.893  70.036 
16.697  35.418  67.581 
18.780  33.032  69.858 
19.493  34.253  75.224 
16.439  34.602  67.472 
19.062  30.780  66.208 
19.383  30.528  68.045 
21.061  29.773  69.576 
18.612  32.388  69.890 
20.997  30.926  72.046 
20.199  30.718  70.060 
19.328  30.205  65.102 
22.623  27.368  70.632 
19.938  31.128  70.923 
20.391  30.957  71.674 
22.141  28.545  68.626 
20.348  29.285  65.548 
21.972  27.768  69.019 
23.660  26.426  69.212 
27.179  23.673  67.828 
26.450  24.070  67.127 
22.572  27.213  64.777 
27.177  24.011  70.754 
29.052  22.615  70.141 
30.203  21.890  69.651 
31.136  21.148  69.090 
30.984  21.458  68.206 
31.699  20.652  67.561 
31.501  21.055  67.079 
33.019  19.526  68.344 
33.919  19.129  69.000 
34.339  19.787  68.219 
34.399  19.569  67.775 
34.366  18.939  68.312 
35.121  18.146  68.127 
35.980  18.365  68.178 
36.377  17.604  68.621 
36.688  17.470  67.918 
38.170  16.664  67.039 
39.579  16.718  68.371 
40.227  16.081  70.480 
40.368  15.732  68.527 
40.435  16.475  71.849 
40.479  15.736  66.969 
39.897  16.162  69.642 
41.037  15.544  70.283 
42.183  15.211  67.647 
42.162  14.554  69.614 
42.432  14.123  67.232 
44.031  13.258  64.397 
43.704  13.165  65.331 
48.143  11.947  68.643 
45.681  13.059  71.266 
46.542  12.785  68.774 
46.258  12.220  64.964 
48.081  12.555  68.992 
43.726  14.566  70.035 
49.369  11.389  63.508 
54.575  9.848  65.314 
53.678  10.410  64.205 
54.307  11.070  69.452 
57.759  9.279  64.639 
55.715  10.461  65.673 
57.347  9.730  68.061 
57.865  9.538  63.858 
55.086  9.913  66.110 
60.110  10.179  67.164 
59.560  9.950  66.533 
60.086  9.964  65.855 
57.218  10.512  67.325 
61.276  10.246  68.628 
62.732  10.708  67.194 
63.265  10.418  67.243 
64.220  11.043  69.671 
67.373  11.242  67.772 
64.586  10.709  68.135 
65.805  10.988  67.641 
67.795  11.568  69.500 
65.113  10.564  66.622 
67.874  11.352  68.565 
67.275  11.220  64.452 
71.802  12.014  67.208 
70.146  11.394  66.928 
73.427  11.955  64.863 
71.842  11.395  65.910 
70.887  12.329  70.324 
73.963  11.987  66.411 
75.220  13.090  71.525 
73.463  12.102  66.286 
75.294  13.424  69.307 
72.169  11.135  64.961 
73.313  11.958  68.015 
80.655  14.915  69.152 
80.195  14.262  68.688 
79.354  14.586  69.032 
80.320  14.629  69.522 
78.446  13.431  65.125 
83.276  16.160  64.722 
85.300  17.333  63.744 
83.492  15.767  65.907 
83.718  16.558  61.499 
83.393  16.295  63.193 
84.980  17.039  65.294 
85.718  17.418  68.092 
87.756  18.889  66.342 
87.359  18.709  64.992 
88.651  19.479  69.248 
90.236  20.904  64.827 
87.152  18.248  66.847 
87.538  19.365  63.529 
87.789  19.552  68.105 
89.944  20.613  67.147 
91.055  20.817  65.245 
91.998  22.832  70.294 
94.044  24.003  66.010 
93.979  23.745  65.346 
89.741  20.538  69.175 
94.657  24.346  64.014 
95.433  24.653  62.977 
95.934  25.539  65.816 
97.122  28.059  66.777 
96.728  27.294  68.352 
97.574  28.007  67.584 
99.030  29.570  67.500 
99.525  30.323  65.454 
97.708  28.989  67.598 
99.674  29.370  65.472 
102.540  33.966  68.958 
101.630  32.997  66.371 
102.542  35.542  64.478 
100.905  31.865  66.017 
100.594  32.016  70.148 
101.808  33.388  68.992 
102.809  35.416  67.693 
103.677  36.908  65.295 
104.288  38.708  66.827 
103.297  37.429  67.241 
102.712  36.110  68.810 
103.656  37.359  68.503 
101.482  35.018  74.731 
104.458  39.064  70.491 
104.373  38.426  68.245 
102.681  35.822  70.095 
104.577  40.479  65.285 
102.442  37.255  73.577 
104.895  40.716  66.209 
106.746  44.612  66.691 
107.223  45.550  63.416 
107.024  45.859  68.456 
107.754  47.676  65.838 
107.776  47.761  66.743 
107.475  46.982  66.088 
107.356  46.515  67.368 
108.500  48.907  68.383 
108.426  49.423  65.928 
106.713  46.986  70.111 
106.975  48.938  71.583 
107.683  49.701  71.677 
107.780  48.327  68.822 
108.280  48.447  68.535 
108.568  51.626  66.614 
108.707  51.771  65.029 
109.589  54.548  66.480 
108.966  52.841  66.423 
108.847  53.533  67.085 
109.123  53.830  65.722 
109.071  53.786  68.525 
110.233  59.160  59.955 
109.734  58.124  67.722 
109.550  62.253  64.669 
109.228  64.788  65.961 
107.989  62.963  70.286 
107.410  63.466  72.700 
107.145  71.181  70.860 
109.160  60.939  69.619 
108.366  71.767  64.260 
108.402  64.405  69.494 
108.591  69.361  63.564 
107.128  69.985  69.181 
107.471  71.842  66.241 
108.056  70.624  66.863 
107.114  73.525  67.508 
106.605  73.623  72.002 
107.265  74.162  66.244 
107.540  68.909  67.572 
106.178  73.869  69.268 
106.527  73.930  70.096 
106.673  74.588  68.232 
103.767  80.157  69.855 
105.587  77.176  68.447 
104.172  79.643  69.397 
103.798  80.403  66.542 
102.718  84.074  66.259 
103.399  81.199  65.829 
104.050  79.498  66.389 
105.069  78.204  66.432 
103.109  82.015  67.694 
102.703  82.414  69.764 
100.542  87.633  65.677 
102.252  83.660  68.437 
99.066  89.304  66.170 
99.741  87.352  67.840 
100.687  87.044  62.680 
98.614  88.034  70.274 
102.086  84.356  65.735 
100.675  85.750  68.320 
99.573  87.368  69.717 
101.128  87.699  65.185 
96.076  90.672  69.281 
97.706  89.893  67.655 
95.036  92.562  69.752 
96.095  90.153  70.467 
96.089  89.921  71.344 
100.147  87.590  67.670 
94.475  92.344  70.005 
94.300  92.800  69.083 
90.626  99.038  66.138 
92.952  97.106  64.719 
93.567  94.525  68.468 
91.745  96.420  68.597 
91.170  97.212  68.802 
90.022  96.901  69.212 
93.512  96.442  64.434 
90.747  98.183  67.531 
88.049  100.380  67.230 
90.313  97.973  68.863 
89.221  99.198  68.165 
87.073  100.450  67.876 
89.046  98.377  68.247 
87.501  100.079  67.752 
88.638  99.469  66.738 
85.350  100.472  72.043 
84.805  100.887  72.596 
86.004  101.624  69.408 
85.907  102.440  63.588 
84.661  101.060  70.439 
79.221  104.404  68.675 
85.685  102.326  66.778 
82.800  102.911  67.952 
78.436  104.412  68.662 
78.214  103.938  68.998 
80.126  104.268  67.465 
80.191  103.662  70.096 
78.131  104.561  68.332 
77.207  105.009  68.044 
77.304  105.489  68.483 
76.240  105.577  67.502 
75.433  106.046  68.299 
73.235  107.578  67.447 
73.553  107.271  68.065 
72.505  107.052  66.930 
71.510  108.054  66.465 
73.367  107.228  67.042 
68.924  108.622  65.832 
67.413  109.411  66.326 
67.118  109.801  64.269 
69.994  109.062  63.062 
70.542  108.217  66.630 
62.254  109.910  67.886 
66.076  108.535  71.949 
68.200  108.563  67.997 
64.473  109.365  67.512 
66.572  109.084  66.875 
64.311  109.176  69.041 
63.829  108.256  74.122 
66.932  108.767  68.428 
60.040  109.928  68.957 
58.858  108.708  71.400 
58.662  109.757  66.539 
56.766  109.115  69.098 
57.819  109.138  65.941 
56.933  108.912  71.975 
59.363  110.016  64.716 
53.900  109.852  66.383 
51.033  107.958  70.148 
55.517  109.681  65.908 
51.315  108.523  69.596 
55.335  110.250  62.014 
54.186  109.306  63.939 
51.399  109.222  65.851 
47.679  108.571  63.434 
48.380  108.404  63.655 
47.650  107.617  67.954 
45.967  107.805  65.099 
47.802  108.183  64.461 
49.041  107.982  69.397 
47.333  108.303  65.686 
44.063  107.248  66.529 
44.774  107.791  65.698 
42.103  106.497  67.634 
41.159  106.271  63.873 
40.903  106.528  67.202 
42.416  105.277  72.840 
40.289  105.000  71.297 
39.118  105.525  66.664 
37.928  104.670  68.384 
36.898  103.337  68.492 
39.388  105.007  69.823 
36.304  104.208  65.173 
36.552  103.047  70.350 
35.492  102.425  69.203 
34.229  102.750  64.967 
35.812  100.333  76.845 
34.583  102.033  69.079 
32.872  100.836  68.358 
33.007  100.457  68.041 
32.595  100.338  69.141 
31.842  99.832  69.510 
31.228  99.390  69.278 
30.622  98.059  69.253 
29.768  98.267  69.707 
29.126  97.566  69.346 
27.781  96.671  68.879 
27.330  96.173  68.447 
25.774  95.300  68.811 
25.851  94.600  68.976 
26.023  95.052  69.770 
24.742  93.603  69.786 
24.247  94.092  68.361 
22.790  92.312  69.034 
22.137  91.788  67.137 
23.111  93.216  67.171 
24.377  91.916  73.441 
23.396  92.037  72.465 
21.387  92.227  63.601 
23.425  92.650  69.393 
22.279  90.903  71.225 
18.733  87.398  66.503 
17.133  85.912  65.297 
18.644  86.148  71.968 
19.513  88.267  66.601 
18.283  84.392  71.052 
18.252  87.975  64.905 
18.484  85.560  69.359 
18.352  84.740  70.311 
17.674  83.383  69.754 
17.125  82.738  69.918 
16.662  82.307  68.747 
15.975  80.901  68.680 
16.237  80.729  69.728 
16.008  80.370  69.072 
15.592  79.526  69.687 
15.888  78.741  70.138 
14.556  77.393  70.533 
14.731  76.902  70.334 
14.149  77.826  66.166 
13.513  72.728  70.297 
13.690  75.952  67.147 
11.166  72.121  64.939 
13.657  74.627  71.977 
12.848  72.548  68.314 
11.320  70.389  68.967 
12.306  72.625  65.408 
11.899  72.655  67.379 
11.875  68.339  70.082 
11.623  69.250  70.072 
11.724  66.269  69.906 
12.218  72.624  66.771 
11.651  68.531  70.494 
12.402  65.365  72.129 
11.119  65.262  69.075 
10.877  64.251  67.191 
10.478  62.419  64.517 
11.075  62.483  68.150 
10.607  61.998  68.132 
11.806  55.028  73.195 
11.109  61.451  69.609 
11.839  57.794  72.496 
11.515  59.507  69.893 
11.297  58.316  70.257 
11.371  57.792  70.333 
11.362  54.979  70.566 
11.968  55.919  68.748 
11.622  55.906  70.480 
11.430  53.971  69.658 
11.862  52.136  69.356 
11.817  52.138  68.267 
12.570  51.906  68.746 
12.477  51.578  67.792 
12.983  49.969  68.389 
12.223  49.982  68.236 
12.792  49.057  69.776 
12.975  48.940  68.262 
13.070  47.730  67.730 
13.061  44.978  63.309 
13.015  46.643  71.432 
12.725  45.705  64.059 
14.791  40.056  66.934 
13.832  42.277  64.398 
14.722  40.351  65.670 
14.960  38.623  65.938 
14.439  39.931  65.323 
13.966  41.342  68.079 
17.809  33.927  69.770 
18.488  32.885  69.151 
16.376  36.266  70.343 
16.295  36.693  70.562 
16.888  38.002  71.887 
18.037  33.632  68.911 
18.262  31.545  61.791 
19.187  31.617  67.004 
20.604  30.386  70.008 
23.215  27.698  72.800 
18.193  33.184  70.196 
20.165  30.527  70.732 
22.551  28.561  69.828 
23.068  28.026  73.242 
21.321  29.793  71.826 
17.991  36.608  73.720 
20.857  29.374  68.746 
23.579  25.552  64.897 
23.073  26.066  65.738 
20.474  29.757  65.102 
26.867  24.353  71.567 
23.107  27.974  71.974 
22.578  26.768  66.246 
27.806  23.577  70.112 
23.487  27.134  67.509 
23.830  26.255  66.911 
28.943  22.395  68.197 
30.128  21.425  68.209 
29.895  22.040  70.171 
30.747  21.102  67.585 
30.528  21.824  68.231 
32.383  19.985  68.579 
33.542  19.529  68.260 
31.925  20.111  67.792 
32.631  19.731  67.325 
34.551  18.856  67.402 
34.360  18.499  67.842 
35.750  18.585  67.401 
35.982  17.602  67.726 
36.022  17.334  67.229 
36.545  16.904  67.402 
38.002  16.091  66.755 
39.383  15.927  67.666 
38.755  16.552  67.721 
40.873  15.816  69.405 
40.622  15.023  66.909 
41.265  15.662  68.123 
40.606  15.566  67.696 
42.430  14.782  68.760 
41.412  14.924  68.941 
43.015  14.344  67.155 
46.322  13.021  67.871 
44.352  12.911  65.890 
42.987  14.218  68.056 
46.316  12.797  70.373 
47.156  12.742  67.903 
48.520  12.054  67.125 
44.609  13.471  69.226 
51.721  11.591  70.366 
47.701  12.269  69.307 
50.414  11.161  66.628 
55.918  9.374  61.689 
56.625  9.918  68.197 
55.782  9.611  60.638 
52.448  10.607  69.161 
55.110  9.990  65.325 
57.331  10.089  65.038 
57.886  10.433  69.310 
52.999  10.265  63.360 
57.698  10.089  65.947 
60.304  10.132  64.614 
59.150  9.938  66.875 
61.368  10.551  67.641 
62.196  10.473  68.309 
63.530  10.439  68.118 
66.058  11.428  67.517 
63.738  10.918  68.162 
66.801  10.859  65.994 
65.942  10.913  65.708 
66.574  10.852  67.511 
64.286  10.809  67.676 
69.779  11.695  67.778 
67.193  10.768  65.135 
69.369  11.093  65.040 
70.603  11.466  68.201 
70.462  10.853  64.036 
71.773  11.744  65.440 
74.362  11.721  63.632 
71.476  11.259  66.724 
74.926  12.646  65.197 
74.920  11.823  64.135 
73.109  11.159  63.168 
78.561  13.208  64.552 
74.868  12.252  67.572 
77.258  13.505  67.094 
78.843  13.317  64.051 
79.915  13.684  63.855 
77.958  14.618  70.091 
81.289  14.907  65.734 
80.885  14.608  64.909 
84.367  16.552  65.598 
82.793  15.674  63.829 
85.513  17.370  62.522 
87.317  18.374  65.746 
86.132  18.645  63.189 
83.106  15.955  65.527 
84.107  16.856  63.536 
85.861  17.425  70.491 
84.127  16.993  70.385 
85.098  17.173  69.249 
85.068  17.104  66.076 
88.113  19.311  63.025 
90.117  20.287  62.718 
89.909  20.381  66.178 
90.883  21.057  66.056 
91.790  22.120  64.871 
93.306  24.712  72.085 
92.269  23.007  66.894 
90.841  20.560  64.845 
93.772  23.932  64.081 
95.295  24.933  65.444 
97.148  27.474  65.940 
96.382  27.082  66.540 
96.419  27.640  67.554 
97.961  28.275  67.409 
96.199  27.069  69.542 
98.696  28.819  67.034 
99.912  30.410  66.038 
99.805  30.115  64.345 
100.604  31.424  66.034 
99.268  28.975  62.057 
99.404  31.517  71.707 
101.250  32.660  70.109 
103.723  37.608  66.595 
99.269  30.973  70.792 
103.490  36.748  66.650 
100.491  31.078  63.488 
103.442  36.414  63.531 
104.307  42.125  72.145 
103.194  36.191  67.522 
103.834  39.338  66.818 
102.761  34.930  66.901 
104.195  39.776  70.844 
103.331  36.655  62.480 
104.552  39.282  69.773 
103.820  38.348  70.894 
104.800  39.504  67.276 
105.750  43.800  65.473 
104.262  39.639  72.419 
105.990  43.506  69.222 
104.965  43.962  74.112 
105.915  43.350  68.284 
107.194  45.501  64.372 
106.706  46.038  67.068 
107.710  47.883  69.707 
106.921  46.421  65.589 
108.729  50.691  66.443 
106.887  48.419  71.915 
107.851  51.366  65.424 
106.159  45.274  71.611 
108.358  53.635  71.223 
109.178  55.562  67.259 
109.217  52.442  64.079 
109.156  57.656  67.322 
108.732  51.185  64.235 
108.852  52.461  65.090 
109.208  54.687  64.297 
109.531  56.937  61.947 
109.942  56.238  63.572 
109.528  56.936  68.472 
109.989  58.367  64.501 
109.401  62.798  62.506 
108.539  64.787  67.696 
109.057  61.537  67.523 
109.519  59.692  68.374 
109.165  63.559  66.592 
108.092  67.851  70.630 
109.386  59.375  67.658 
109.349  60.577  66.225 
108.165  67.876  68.081 
108.103  68.543  69.597 
107.586  68.680  69.201 
107.238  70.542  70.902 
107.839  73.077  65.956 
106.659  72.330  72.112 
108.032  71.868  66.889 
106.038  74.876  67.936 
106.373  75.122  66.234 
107.814  72.084  62.069 
103.922  80.568  68.276 
105.913  73.962  70.894 
105.839  75.769  66.601 
103.926  81.327  66.533 
106.474  76.079  65.452 
104.240  80.357  67.322 
105.394  78.057  66.874 
104.207  79.615  64.930 
104.264  79.957  66.493 
105.068  78.903  65.067 
105.054  78.425  64.479 
102.275  84.729  64.801 
101.724  82.529  69.955 
102.548  84.643  63.391 
101.305  86.434  65.490 
101.472  85.923  67.695 
99.025  87.544  68.410 
100.610  86.956  67.098 
102.798  83.654  67.791 
100.269  86.674  68.084 
99.708  87.865  66.160 
96.146  90.773  69.832 
99.665  88.171  67.560 
97.755  89.645  68.081 
95.429  91.137  69.490 
96.073  89.433  70.878 
95.549  91.454  70.402 
96.361  91.329  67.669 
95.499  91.964  69.525 
93.846  94.374  67.016 
97.398  92.368  63.772 
95.096  94.713  65.390 
93.284  95.097  67.968 
93.335  94.941  68.695 
94.391  94.335  66.739 
91.432  97.481  67.627 
91.752  97.223  67.197 
91.075  97.528  67.190 
90.567  99.144  64.447 
89.507  100.287  65.963 
85.922  102.533  63.108 
86.420  100.922  68.394 
86.827  102.110  65.014 
86.590  102.325  66.484 
87.224  100.460  68.785 
86.892  101.051  68.543 
86.053  100.954  69.161 
83.867  102.925  67.744 
84.910  102.302  65.584 
84.763  102.102  69.675 
83.682  102.640  69.965 
81.395  103.611  67.168 
80.771  104.333  66.868 
80.484  103.488  67.602 
82.117  104.002  66.029 
78.434  105.126  68.044 
78.966  104.714  68.382 
77.903  105.294  67.929 
77.555  105.233  67.536 
76.579  106.179  66.943 
76.019  106.294  67.638 
75.172  106.518  67.763 
74.677  106.914  67.192 
71.882  107.121  68.675 
70.922  108.300  65.270 
71.085  107.809  65.031 
71.721  108.809  63.082 
65.037  109.628  63.378 
71.663  108.502  64.852 
67.851  109.209  65.106 
67.937  108.389  67.463 
61.582  109.038  71.140 
67.108  109.565  63.769 
66.930  108.200  73.105 
68.905  109.796  63.887 
69.982  107.671  67.698 
65.267  109.954  61.234 
65.367  109.712  67.424 
64.979  108.787  69.272 
60.987  109.714  69.361 
59.796  109.477  67.449 
60.697  108.541  72.083 
60.147  110.094  65.879 
59.720  109.661  64.783 
54.340  108.276  69.513 
58.503  109.822  66.090 
57.574  109.837  70.021 
55.408  108.453  70.345 
55.948  110.134  65.104 
51.404  108.787  68.156 
52.283  109.327  65.603 
50.801  108.014  69.226 
51.770  109.554  64.573 
49.414  109.053  59.925 
46.796  108.472  64.853 
49.793  108.922  66.631 
48.979  108.329  66.603 
44.299  107.451  64.042 
46.132  108.297  62.973 
47.163  108.881  61.526 
50.183  108.674  67.263 
45.964  108.213  63.590 
43.110  107.188  68.458 
38.634  104.767  69.858 
41.382  106.068  65.606 
41.781  105.947  70.486 
43.390  106.794  67.089 
41.474  105.899  68.880 
37.617  104.280  67.600 
36.925  103.185  72.265 
37.633  104.169  69.238 
34.869  102.692  67.458 
37.323  103.222  70.966 
35.786  102.694  68.566 
35.510  103.391  66.499 
33.186  101.350  67.978 
36.523  103.354  69.439 
33.377  101.282  66.932 
33.427  100.598  68.894 
32.068  99.682  68.018 
31.701  100.113  67.732 
31.476  99.363  68.749 
30.044  98.717  68.288 
30.244  98.746  68.880 
29.012  97.733  67.840 
28.375  97.324  68.650 
29.289  97.234  68.827 
27.690  96.919  68.221 
26.846  95.458  69.141 
26.896  95.566  68.138 
25.019  94.233  68.657 
24.598  94.059  69.130 
24.162  93.962  67.652 
23.585  93.557  68.119 
21.742  92.512  64.223 
22.833  92.645  66.520 
21.361  91.777  65.725 
21.292  90.708  69.290 
21.478  91.037  67.157 
19.638  87.426  68.342 
20.560  89.117  70.485 
20.552  89.469  69.008 
17.486  84.356  68.074 
20.885  90.154  67.549 
20.052  86.690  72.105 
18.557  87.517  65.709 
16.768  84.460  66.560 
17.880  87.283  66.166 
17.064  85.630  65.951 
17.161  83.830  67.833 
17.069  82.777  69.329 
16.322  81.532  69.180 
15.778  81.084  68.080 
16.032  80.592  68.324 
15.379  79.443  68.594 
16.084  78.999  69.231 
14.728  78.045  69.802 
14.565  76.428  69.544 
14.754  78.626  67.761 
14.363  77.427  65.746 
13.362  73.933  71.414 
12.576  74.583  67.566 
13.288  75.770  67.811 
13.101  74.001  68.096 
13.073  74.042  63.324 
12.564  73.066  66.206 
11.641  72.206  66.501 
12.077  72.158  68.585 
12.596  72.369  67.961 
11.211  68.681  68.904 
10.570  67.705  66.668 
11.792  69.933  70.553 
11.087  63.742  69.484 
10.525  60.296  62.039 
10.845  60.303  66.064 
10.445  59.684  65.011 
10.965  59.166  68.969 
11.552  57.204  70.953 
10.860  58.677  66.338 
11.513  58.350  69.284 
11.145  57.594  69.522 
11.762  58.279  71.852 
12.144  56.684  72.255 
12.261  55.950  72.907 
11.312  55.947  68.471 
12.109  55.717  71.460 
11.305  55.512  69.784 
11.831  54.269  68.979 
12.129  53.287  68.809 
11.600  53.434  68.662 
11.974  52.531  68.568 
12.010  51.262  68.099 
12.458  50.545  67.550 
12.279  49.828  67.704 
12.406  48.895  67.417 
11.969  49.020  66.650 
12.689  46.873  67.303 
12.536  47.778  67.114 
13.012  46.729  68.929 
12.308  45.787  64.991 
12.881  46.602  65.095 
12.583  45.786  66.381 
13.699  42.467  63.074 
13.526  41.574  62.991 
13.416  42.784  66.146 
14.428  39.900  66.382 
15.850  37.437  68.226 
14.193  41.224  67.444 
16.766  35.470  70.570 
15.466  38.370  68.923 
17.816  35.869  72.463 
19.004  34.117  72.283 
18.946  31.341  68.472 
18.141  31.029  62.463 
17.626  34.212  68.453 
21.322  29.511  68.452 
20.579  28.586  62.998 
19.404  32.304  69.431 
20.812  29.839  70.482 
19.991  31.800  72.768 
20.118  30.166  69.023 
24.286  27.502  74.091 
20.853  30.387  73.072 
23.780  25.821  63.562 
21.370  28.025  61.765 
24.489  25.933  66.188 
22.729  27.131  68.767 
22.504  27.380  66.730 
26.271  25.592  69.050 
25.413  24.696  66.876 
25.229  25.373  68.963 
24.899  25.197  68.079 
27.211  24.633  69.203 
28.863  22.994  71.053 
28.825  22.697  68.770 
28.890  22.214  67.271 
29.669  22.283  67.716 
31.197  20.963  68.378 
31.720  20.340  66.812 
32.366  20.054  66.454 
31.995  19.871  66.953 
33.355  19.837  66.790 
33.708  18.989  67.583 
34.987  18.576  67.111 
35.020  18.065  67.181 
36.704  16.801  66.659 
36.036  17.315  66.673 
37.259  16.945  67.368 
37.143  17.233  65.124 
37.813  16.457  64.741 
40.508  16.143  67.940 
39.895  16.013  68.454 
39.827  16.096  67.706 
41.919  15.123  66.726 
43.574  13.782  67.434 
42.378  14.442  67.966 
43.364  14.032  66.777 
44.079  13.659  67.896 
42.842  14.157  66.184 
44.017  12.880  64.933 
47.329  12.184  68.537 
44.519  13.551  67.379 
45.131  12.503  65.744 
49.849  10.871  64.093 
50.568  10.993  68.178 
47.806  11.757  67.274 
50.115  11.702  70.131 
56.877  10.048  67.353 
51.727  10.647  69.603 
54.592  9.809  63.414 
55.349  10.213  63.711 
54.064  10.408  65.481 
52.247  10.460  64.325 
56.161  9.463  63.950 
56.787  9.478  60.220 
57.735  9.619  61.091 
58.877  10.128  65.308 
58.048  10.071  67.953 
59.988  10.304  65.099 
60.528  9.991  65.664 
62.328  10.161  65.568 
62.221  10.397  64.943 
63.564  10.865  66.402 
61.621  9.950  66.973 
64.117  10.573  66.983 
64.346  10.894  65.478 
67.646  10.904  67.090 
67.618  11.520  63.537 
66.268  11.262  66.518 
68.186  11.150  64.693 
66.984  10.854  66.621 
70.557  11.326  61.477 
72.701  11.848  65.278 
70.524  11.653  62.882 
71.267  11.060  63.553 
71.480  11.278  62.833 
72.936  11.046  64.510 
75.501  12.799  67.680 
75.609  12.202  63.635 
76.856  13.592  67.827 
79.430  14.064  69.260 
80.363  14.920  68.106 
75.699  12.215  65.533 
82.174  15.071  62.273 
79.961  13.886  67.159 
82.553  15.733  65.043 
80.120  13.880  62.113 
82.859  16.035  68.561 
81.529  15.032  64.476 
85.714  17.491  65.841 
84.938  16.930  64.319 
83.448  16.277  67.603 
85.790  17.583  64.597 
83.745  16.430  68.211 
88.488  19.323  66.870 
85.087  17.842  64.156 
89.817  20.286  65.404 
87.725  19.100  68.387 
88.894  20.068  67.579 
87.914  19.305  64.650 
86.922  18.420  64.947 
86.556  18.661  63.968 
91.154  21.343  65.187 
92.388  23.980  69.021 
91.143  22.500  68.144 
89.487  20.779  66.971 
93.435  23.549  65.015 
95.181  24.987  63.653 
95.671  25.233  63.785 
97.519  27.808  66.693 
97.807  27.575  65.379 
97.855  28.519  66.296 
98.898  29.807  66.496 
98.856  29.014  65.382 
98.484  29.256  63.966 
100.807  32.430  63.572 
101.040  32.424  64.481 
100.196  32.365  66.463 
101.360  32.394  65.433 
101.166  32.754  63.188 
102.044  33.873  67.017 
102.880  35.156  65.277 
102.666  34.296  65.594 
101.000  32.031  65.310 
101.227  32.799  67.569 
103.005  34.900  63.889 
103.196  35.606  64.966 
102.796  36.985  71.401 
102.150  37.205  74.785 
104.538  39.213  66.034 
102.037  37.599  76.039 
104.935  40.906  69.143 
104.248  38.082  61.665 
103.401  35.477  66.613 
105.034  41.594  64.886 
106.259  43.593  66.837 
104.327  40.887  72.410 
104.715  40.230  69.520 
106.435  43.995  62.491 
106.923  45.106  64.242 
106.225  44.884  70.296 
107.241  44.681  64.324 
107.898  47.599  64.463 
107.636  46.958  65.322 
107.334  46.236  66.375 
108.173  48.681  64.642 
107.556  47.274  67.630 
107.687  47.659  68.799 
108.044  47.990  67.543 
108.742  50.317  66.035 
108.031  48.411  65.901 
108.935  50.904  68.511 
108.080  50.595  67.129 
108.928  51.618  64.429 
109.812  55.447  63.384 
110.373  57.898  62.191 
109.594  58.978  59.407 
110.227  57.700  61.502 
110.528  58.889  62.219 
109.917  60.531  63.239 
108.190  67.405  68.204 
108.254  61.256  71.927 
109.492  65.116  63.206 
109.604  64.871  64.762 
109.144  64.766  63.153 
108.922  63.019  69.256 
108.254  67.740  69.065 
108.343  69.266  66.987 
108.584  70.080  67.218 
108.239  69.134  63.073 
108.492  68.318  63.251 
108.063  70.462  68.142 
107.256  70.102  72.569 
105.999  74.421  70.630 
107.819  71.697  65.583 
107.612  71.784  63.762 
106.258  75.711  67.449 
106.398  75.486  67.021 
105.500  76.818  65.920 
106.638  75.917  64.507 
105.776  76.130  68.270 
104.238  79.652  67.873 
105.065  78.444  65.874 
105.087  77.662  65.601 
103.338  82.745  65.289 
102.835  82.804  66.461 
105.151  78.974  67.412 
103.087  83.547  64.911 
101.928  85.230  65.459 
103.009  83.229  65.377 
101.009  86.473  66.112 
101.023  85.007  69.462 
101.052  87.116  64.933 
101.331  85.532  67.941 
100.609  88.054  63.591 
101.634  84.286  69.084 
100.438  87.503  64.539 
100.849  85.362  68.778 
99.245  87.382  69.275 
100.004  89.295  61.640 
99.984  88.066  65.273 
95.635  91.886  67.838 
95.884  92.838  67.315 
94.762  95.357  65.359 
99.318  88.196  66.748 
97.387  90.497  67.457 
97.419  89.471  69.710 
94.515  95.398  63.627 
92.703  96.437  66.805 
94.871  93.246  68.744 
91.319  97.217  68.066 
92.272  97.661  65.591 
90.345  98.485  67.378 
90.772  97.576  68.081 
90.241  97.927  68.154 
90.300  99.634  65.124 
88.706  100.211  66.610 
87.184  101.802  66.852 
87.617  101.130  67.172 
85.704  101.340  68.447 
86.031  102.049  66.246 
85.954  102.183  67.577 
85.312  102.675  61.510 
83.843  102.952  65.731 
86.130  102.511  64.904 
81.958  103.837  67.600 
83.330  102.962  64.576 
85.102  102.482  64.151 
80.029  103.645  70.820 
82.602  103.436  66.016 
79.486  104.260  67.776 
79.127  104.485  67.464 
78.959  104.989  66.893 
78.232  105.429  66.931 
77.254  105.749  67.600 
77.275  105.893  66.811 
75.738  106.447  66.764 
75.086  106.834  66.837 
73.307  106.862  66.059 
72.252  106.879  68.230 
72.479  107.710  67.410 
70.122  109.326  62.568 
71.463  108.013  65.838 
69.432  109.381  63.584 
69.134  108.898  59.369 
67.463  109.185  62.408 
63.367  109.791  66.546 
63.628  109.032  69.675 
67.678  108.870  68.776 
65.880  109.785  65.081 
63.181  109.454  64.134 
66.421  109.915  63.383 
66.420  109.504  63.091 
62.315  109.004  71.854 
57.238  109.991  63.871 
62.193  109.033  70.950 
60.488  109.839  66.488 
65.433  109.330  68.837 
61.403  109.741  65.111 
57.407  109.614  68.528 
56.826  109.217  66.158 
58.010  109.242  68.644 
58.978  109.691  67.650 
54.395  109.810  63.368 
54.496  108.998  68.430 
49.113  107.910  68.008 
54.520  109.759  64.848 
49.117  108.716  63.155 
50.272  109.192  65.006 
47.845  108.137  66.480 
49.332  108.882  62.381 
46.040  107.395  69.244 
48.461  107.946  68.632 
44.907  107.401  64.727 
46.957  108.037  63.440 
49.582  108.827  63.477 
41.264  106.254  67.840 
42.219  107.092  66.799 
45.905  107.583  67.274 
40.795  106.302  67.922 
43.020  106.974  64.303 
43.927  106.877  68.364 
40.047  105.745  64.805 
37.508  104.963  65.363 
40.474  105.823  67.180 
36.908  104.776  64.920 
36.471  103.784  68.592 
37.421  103.782  71.708 
37.748  103.517  71.329 
36.388  103.149  67.017 
34.577  102.142  68.045 
34.297  101.668  67.753 
33.310  100.929  66.258 
33.900  102.492  65.833 
32.646  100.677  65.778 
33.148  100.530  66.980 
31.475  99.269  67.774 
31.093  98.961  68.419 
30.877  98.780  67.492 
29.387  98.346  67.902 
29.904  97.947  67.485 
29.157  97.498  67.070 
28.553  97.500  68.125 
27.329  97.160  67.323 
27.013  96.413  68.121 
26.472  95.752  68.367 
25.278  95.067  68.527 
25.371  94.872  69.358 
24.725  94.487  68.201 
23.819  93.245  67.663 
22.507  92.321  68.462 
22.451  92.960  64.833 
21.773  91.781  67.891 
22.107  92.298  65.675 
21.239  91.169  68.079 
19.778  88.609  69.175 
19.116  89.047  64.448 
20.860  90.573  68.387 
19.867  88.094  69.328 
17.191  83.332  69.257 
19.318  89.747  65.204 
18.746  88.629  65.329 
18.461  87.965  66.026 
16.869  85.056  66.015 
17.680  86.630  67.316 
17.361  85.860  67.044 
16.480  83.932  67.101 
17.154  82.672  68.141 
15.728  81.232  67.193 
15.452  80.295  68.321 
15.519  80.055  68.954 
15.570  79.269  67.791 
15.072  78.827  68.040 
15.814  80.350  66.421 
14.759  77.217  69.585 
13.517  75.218  69.602 
14.764  77.899  68.252 
14.022  75.920  70.239 
12.745  74.750  67.095 
13.352  73.485  69.113 
10.364  69.790  65.526 
11.590  70.780  68.734 
12.706  71.988  70.624 
11.476  71.043  60.160 
11.027  68.414  67.153 
11.189  68.239  68.120 
12.113  69.808  69.523 
11.550  66.969  70.100 
11.124  69.578  68.581 
10.541  60.005  67.545 
11.005  64.548  68.629 
10.436  66.307  66.625 
10.730  63.687  64.567 
11.121  57.085  69.751 
10.555  62.421  67.324 
10.941  58.052  68.668 
10.654  61.609  64.809 
10.877  59.371  66.284 
11.473  56.812  69.079 
11.630  55.861  71.534 
11.533  56.579  67.778 
10.801  58.309  67.903 
11.345  54.694  69.225 
11.373  54.998  69.731 
11.743  54.060  68.078 
11.968  53.660  67.296 
11.956  51.967  67.027 
11.662  51.744  67.382 
12.050  50.365  66.939 
11.957  50.487  67.504 
12.363  49.900  66.908 
12.154  48.469  66.417 
12.265  47.838  66.350 
12.568  47.414  65.071 
12.560  47.553  68.918 
13.361  46.086  66.692 
12.926  46.616  68.466 
12.469  45.132  63.900 
13.623  43.822  67.836 
13.086  46.221  70.733 
13.552  41.189  63.315 
14.928  38.839  67.751 
15.059  39.003  64.505 
14.326  41.396  63.603 
16.147  36.232  68.186 
16.886  35.996  69.757 
20.246  29.734  69.349 
17.459  33.352  64.759 
18.573  32.088  68.981 
20.130  32.097  71.868 
17.562  33.270  67.599 
18.975  30.940  65.499 
20.041  30.210  67.416 
23.168  27.129  70.281 
20.464  29.937  68.777 
21.289  28.400  65.053 
21.423  29.594  67.395 
21.634  27.817  64.381 
24.388  25.262  63.481 
20.887  29.279  71.878 
20.886  28.665  62.173 
22.265  27.728  67.451 
22.326  26.385  64.678 
23.401  26.386  65.132 
20.696  28.755  65.611 
22.165  28.179  66.106 
21.875  28.105  68.173 
21.630  28.317  66.442 
22.508  27.896  70.610 
26.316  23.893  66.346 
29.071  22.857  68.011 
29.073  23.142  68.649 
30.408  21.189  65.923 
31.101  21.447  66.269 
31.814  20.625  66.190 
31.796  19.980  65.897 
31.330  20.655  65.355 
33.233  18.982  66.212 
33.891  18.614  66.221 
33.455  18.986  66.627 
34.976  18.074  66.054 
35.509  17.950  66.691 
35.734  17.994  67.362 
36.559  16.753  66.105 
35.630  17.653  66.042 
38.388  16.029  65.984 
39.798  16.100  69.114 
39.306  15.745  66.973 
38.724  16.184  67.390 
39.849  15.738  65.530 
40.037  15.612  67.100 
41.830  14.626  67.263 
42.724  13.579  66.112 
41.077  15.192  66.995 
42.375  14.358  65.459 
42.862  14.054  64.791 
45.550  13.308  67.160 
44.997  14.051  68.071 
46.963  12.193  64.978 
47.103  12.408  66.943 
47.653  11.704  64.583 
49.275  11.050  65.737 
49.494  11.152  63.083 
51.091  11.502  67.747 
54.686  10.210  67.603 
54.126  9.953  61.838 
51.859  10.673  63.149 
57.218  10.083  64.514 
57.718  9.785  66.347 
53.698  10.039  62.554 
50.937  10.714  64.934 
57.843  10.138  66.998 
58.441  9.605  64.065 
59.337  9.901  67.321 
58.520  10.065  66.336 
61.843  10.663  66.112 
61.030  9.940  67.227 
62.792  10.521  66.090 
62.443  10.139  66.668 
63.949  10.185  65.762 
64.093  10.296  66.583 
72.329  11.546  66.814 
63.652  10.257  65.344 
67.828  10.771  65.421 
69.287  10.945  66.437 
65.804  11.500  65.084 
67.772  11.316  66.744 
68.749  11.072  64.033 
68.368  10.955  63.706 
69.019  10.884  64.475 
70.672  10.870  62.061 
70.080  11.242  63.755 
68.998  10.585  59.363 
74.143  11.214  62.816 
75.858  11.943  59.383 
69.889  11.351  64.524 
76.346  12.973  68.021 
77.334  13.003  66.968 
77.463  12.865  63.654 
82.504  15.835  66.674 
77.611  13.414  65.823 
78.893  13.977  66.579 
80.521  14.410  65.614 
83.147  15.567  63.439 
82.541  15.498  62.746 
79.055  13.499  60.830 
84.272  16.240  64.358 
79.053  13.590  63.639 
86.077  18.432  64.001 
85.824  17.724  66.827 
85.330  17.558  68.859 
86.080  17.307  68.899 
86.474  18.211  66.614 
87.708  19.122  67.261 
88.597  19.293  64.087 
89.189  20.034  62.006 
88.781  20.168  63.089 
92.769  22.552  63.674 
92.628  22.536  64.388 
90.473  20.723  65.902 
90.840  21.312  63.610 
94.937  24.274  63.539 
92.731  24.572  70.930 
92.130  21.978  65.670 
96.374  26.367  65.833 
95.754  25.275  65.325 
96.162  25.917  63.356 
96.989  27.130  64.002 
98.527  28.414  65.766 
99.175  29.411  66.518 
98.537  29.130  66.232 
99.948  30.448  63.775 
100.016  31.493  63.668 
100.466  31.696  66.937 
98.637  28.677  62.125 
101.711  33.408  65.269 
102.523  34.783  68.935 
103.014  35.618  63.392 
98.757  28.261  61.492 
101.505  33.129  58.410 
100.609  31.700  68.388 
102.175  34.049  63.475 
101.308  33.351  69.726 
105.148  39.941  68.518 
103.614  38.253  71.607 
101.962  35.352  70.579 
103.764  37.121  63.164 
103.201  37.665  72.043 
105.301  40.966  66.854 
105.251  40.411  61.703 
105.833  43.108  64.670 
104.571  39.441  64.051 
104.051  38.518  69.998 
103.399  38.251  69.309 
105.621  43.663  67.394 
107.213  46.077  65.009 
106.001  42.763  62.081 
106.667  44.390  68.306 
104.710  40.804  71.110 
106.788  46.341  63.224 
106.222  44.480  65.197 
108.128  48.617  65.330 
108.483  49.955  65.322 
108.600  51.301  70.346 
108.335  48.530  67.288 
108.375  49.180  64.623 
108.586  50.535  64.907 
108.406  49.649  68.335 
108.807  52.283  65.831 
108.537  51.020  65.041 
108.393  52.684  67.626 
109.835  57.281  63.591 
109.920  55.967  65.687 
109.827  57.673  60.213 
108.501  51.964  64.328 
110.002  60.467  61.480 
109.363  64.296  63.640 
109.114  64.246  66.949 
108.865  67.184  65.996 
108.462  61.782  66.404 
107.803  64.023  70.827 
109.623  63.838  62.360 
107.983  66.601  68.598 
108.120  69.963  67.512 
107.917  72.535  64.281 
108.737  67.710  66.821 
107.470  72.618  63.569 
108.285  68.364  66.791 
107.162  72.437  71.610 
106.645  74.759  67.203 
107.973  72.468  63.325 
107.440  73.622  63.168 
106.645  74.461  65.635 
107.196  72.755  67.974 
106.497  74.365  66.475 
105.719  75.993  66.148 
106.629  75.299  65.498 
105.325  77.207  66.668 
105.598  77.318  67.558 
105.821  77.438  65.506 
104.398  79.357  66.969 
104.766  79.283  64.226 
104.591  79.844  65.747 
104.766  79.763  65.009 
104.273  80.661  64.082 
103.988  81.376  65.341 
103.833  82.131  63.952 
102.049  85.687  65.577 
101.741  85.927  66.569 
102.603  84.042  66.848 
101.137  87.360  66.151 
101.751  85.594  67.006 
99.386  90.374  61.837 
98.931  90.513  63.322 
100.602  86.310  68.853 
98.772  88.806  67.837 
100.378  87.285  66.305 
98.695  90.589  65.348 
98.075  88.803  68.132 
99.434  88.399  64.829 
95.825  90.622  70.729 
98.836  88.958  67.086 
95.883  91.992  68.613 
94.485  94.446  67.664 
94.367  94.992  66.104 
93.463  96.495  65.773 
91.832  96.300  67.268 
92.734  97.170  65.689 
92.573  96.250  68.009 
90.776  99.472  65.766 
93.436  95.288  67.438 
92.558  96.992  66.875 
91.629  98.191  65.582 
89.302  99.298  66.440 
88.963  100.651  66.150 
86.982  101.387  64.909 
87.577  100.129  68.555 
86.023  102.623  65.679 
84.103  103.376  64.408 
85.481  102.260  67.300 
85.057  102.696  60.223 
85.889  102.639  66.459 
84.679  103.515  62.977 
84.678  102.776  66.230 
83.372  103.588  65.407 
81.880  103.169  67.995 
81.488  104.316  64.493 
79.942  103.928  66.755 
80.262  104.701  66.307 
79.371  105.050  66.220 
78.113  104.961  66.687 
77.747  105.439  66.214 
76.879  106.237  65.995 
75.358  106.351  65.787 
74.191  106.995  66.458 
74.293  107.220  65.606 
73.855  107.489  65.831 
72.950  107.704  66.636 
73.859  107.183  67.227 
72.930  107.325  64.767 
72.670  108.084  63.640 
70.367  108.010  67.279 
70.886  108.889  62.501 
67.812  109.576  65.682 
64.957  109.335  67.238 
64.976  109.382  63.876 
69.032  108.971  61.990 
66.087  109.909  64.262 
62.525  109.641  65.522 
64.226  109.974  64.882 
65.673  109.816  62.694 
63.572  109.558  67.947 
64.174  109.322  63.505 
62.278  109.699  68.981 
62.842  109.765  67.344 
63.532  109.301  62.855 
56.001  109.037  69.838 
59.261  109.789  65.878 
54.212  108.102  71.003 
52.974  109.313  62.821 
56.362  109.830  64.097 
54.849  107.844  71.478 
57.113  109.523  69.972 
50.615  108.631  67.963 
52.991  109.254  64.112 
53.905  109.518  65.102 
55.090  109.000  69.066 
55.045  109.627  63.927 
45.366  107.912  60.998 
47.625  108.691  61.804 
48.004  108.569  59.523 
48.125  107.806  67.297 
42.310  106.718  64.249 
43.654  107.702  63.460 
44.268  107.678  62.075 
40.818  106.219  68.756 
41.878  107.109  67.625 
40.311  106.035  62.843 
39.473  105.516  65.255 
39.341  106.044  66.028 
39.672  105.128  68.750 
37.596  104.506  66.213 
38.783  105.171  63.567 
38.013  104.876  66.254 
39.243  105.784  63.240 
38.549  105.105  64.545 
38.235  105.101  66.672 
36.211  102.496  71.023 
33.291  101.540  66.077 
34.211  101.856  66.221 
33.516  101.882  66.360 
34.333  101.698  68.786 
32.064  99.716  66.467 
32.713  100.979  67.469 
32.138  100.161  67.310 
