59.379  109.169  55.362 
59.974  109.187  55.198 
58.439  108.975  56.640 
55.408  108.546  55.360 
54.523  108.626  55.408 
55.872  109.432  56.297 
53.843  108.714  55.295 
53.176  108.945  55.971 
52.740  108.903  56.348 
52.438  108.551  56.579 
52.223  108.792  56.036 
49.126  108.403  56.974 
46.965  108.037  55.759 
45.220  107.025  54.006 
48.596  108.804  56.395 
46.675  107.722  57.731 
43.441  106.606  54.284 
45.041  106.879  54.979 
43.522  106.881  55.403 
41.545  105.989  55.294 
41.020  105.410  55.911 
41.042  105.914  54.539 
42.354  106.550  58.286 
39.669  105.252  56.035 
39.778  105.200  55.116 
39.062  104.647  53.906 
38.698  103.957  53.615 
37.764  104.047  54.566 
36.894  103.750  54.411 
36.557  102.875  54.121 
35.585  102.713  54.543 
34.684  102.267  53.901 
33.818  101.963  52.393 
32.456  101.333  54.832 
31.552  100.647  51.609 
30.449  100.156  57.065 
31.712  101.267  57.523 
28.101  98.183  57.459 
30.648  100.587  59.143 
30.935  100.950  55.099 
30.529  99.840  55.957 
28.694  99.190  59.344 
30.358  100.635  54.630 
26.163  97.383  52.447 
25.721  96.288  54.371 
25.629  96.245  61.414 
26.345  96.749  54.900 
26.015  96.292  60.675 
26.152  96.946  56.285 
27.580  98.019  54.042 
24.571  95.914  57.164 
23.183  93.849  55.543 
23.471  94.077  53.802 
21.890  92.636  53.902 
21.780  92.231  51.955 
20.997  91.756  54.745 
20.903  91.059  53.074 
19.842  90.656  55.434 
20.103  90.523  56.115 
18.948  87.060  51.930 
17.425  87.088  57.798 
18.557  87.399  55.549 
17.518  86.379  56.096 
20.568  90.074  53.045 
16.867  85.037  57.604 
16.917  84.870  55.582 
16.993  85.194  56.472 
17.018  83.309  55.379 
16.623  83.031  55.849 
15.768  81.966  55.055 
15.378  80.676  55.745 
15.043  80.317  55.581 
14.707  79.530  55.282 
14.649  79.013  55.407 
14.170  78.304  55.724 
13.972  77.434  56.063 
14.066  77.799  55.455 
13.989  76.748  55.601 
13.194  76.458  56.695 
12.600  74.998  56.071 
12.724  75.313  57.764 
11.264  72.405  56.509 
12.215  73.987  56.082 
12.504  74.698  56.458 
11.092  70.510  54.173 
10.223  65.126  60.248 
10.602  68.115  57.377 
11.534  70.645  51.271 
11.600  65.812  52.021 
10.518  69.777  57.902 
10.229  66.546  60.139 
10.875  69.708  54.439 
10.686  70.035  57.137 
11.046  66.787  53.581 
10.933  63.464  52.894 
10.376  62.873  56.441 
9.940  62.285  54.636 
10.837  63.362  51.780 
11.120  61.351  53.086 
10.200  61.075  59.126 
11.048  57.887  54.337 
10.448  61.920  52.979 
11.026  54.452  54.880 
10.906  55.850  57.592 
10.518  57.857  55.552 
11.098  53.748  61.540 
11.828  52.758  52.387 
10.485  54.590  56.184 
11.114  51.868  51.604 
12.067  50.800  52.170 
11.019  51.776  59.757 
10.504  53.850  56.553 
10.976  49.207  55.958 
10.619  53.206  53.296 
10.791  51.222  56.068 
11.523  49.579  56.751 
11.118  50.342  56.362 
12.346  47.902  53.630 
13.549  43.083  52.217 
12.796  46.133  55.361 
13.138  44.179  54.567 
12.444  46.482  55.429 
14.704  40.824  54.272 
13.226  42.954  54.431 
15.224  40.245  52.859 
15.154  38.652  54.831 
14.575  41.304  54.535 
16.092  36.413  57.677 
15.318  38.435  60.789 
16.388  35.502  58.853 
16.164  38.988  52.542 
16.303  37.071  53.656 
16.517  35.834  56.603 
17.183  36.030  54.415 
19.185  33.207  53.809 
18.352  32.595  55.080 
19.360  32.454  55.597 
19.254  31.101  55.344 
19.459  31.556  52.832 
18.397  33.084  53.631 
22.505  27.573  53.750 
19.808  30.895  53.442 
20.737  29.103  53.607 
20.084  29.889  54.182 
23.564  26.327  54.096 
23.648  25.747  56.632 
21.946  27.978  49.942 
26.447  23.423  52.050 
28.172  22.472  53.398 
24.101  26.034  51.642 
21.481  29.559  49.606 
28.053  22.212  51.568 
26.089  24.193  52.155 
29.840  22.357  50.693 
29.017  22.033  50.705 
30.662  20.447  52.227 
30.580  19.587  58.006 
31.344  19.713  54.603 
29.544  21.353  54.591 
31.872  18.499  59.275 
30.015  20.366  54.640 
33.230  18.508  54.252 
34.314  17.204  57.137 
39.482  14.253  55.549 
34.904  17.148  55.841 
35.170  17.054  54.984 
35.457  17.732  50.494 
35.154  18.091  50.798 
38.688  16.274  50.130 
37.822  17.203  49.066 
43.462  14.778  48.420 
38.222  16.523  49.528 
42.706  13.994  53.364 
42.609  14.529  51.503 
41.665  14.628  50.519 
42.019  14.723  52.126 
42.105  13.999  53.396 
41.490  14.433  54.379 
43.335  14.014  54.396 
45.340  13.398  52.938 
46.275  13.651  54.780 
46.905  13.371  53.815 
46.854  12.743  53.763 
47.409  12.671  54.500 
48.160  12.328  54.171 
48.689  12.200  53.854 
50.034  12.691  53.830 
50.791  12.364  54.983 
51.760  11.892  54.267 
51.451  12.040  55.501 
52.753  11.663  53.632 
52.694  11.044  55.323 
54.528  11.695  53.903 
54.413  10.795  54.994 
55.073  10.886  54.796 
58.287  10.147  58.039 
59.977  10.358  53.817 
65.229  10.750  51.874 
56.273  11.161  52.263 
57.278  11.577  50.366 
57.210  10.771  53.267 
62.034  11.316  50.794 
62.579  10.175  54.056 
62.980  10.146  56.846 
65.119  10.315  53.723 
64.537  11.499  48.305 
66.071  10.959  51.668 
66.966  10.215  55.716 
66.380  10.816  50.938 
66.593  11.385  48.502 
68.463  10.622  52.513 
69.072  10.519  53.698 
69.578  11.646  51.052 
71.751  11.051  54.583 
76.488  13.023  55.375 
76.728  13.198  54.593 
73.090  11.891  51.617 
75.620  13.999  49.567 
76.296  13.390  52.396 
79.334  15.118  51.906 
76.622  14.117  50.095 
77.316  15.039  47.918 
78.563  15.693  50.280 
77.734  13.982  52.778 
79.095  15.115  51.382 
79.659  14.550  55.879 
80.536  16.140  51.884 
81.419  16.499  53.244 
80.346  15.698  54.220 
82.483  17.308  52.991 
83.438  16.770  54.910 
84.413  17.782  54.767 
83.760  17.434  55.400 
85.205  18.605  54.681 
85.742  19.822  52.157 
86.863  19.430  53.188 
86.351  18.843  53.307 
87.551  20.725  53.041 
88.606  21.262  52.309 
88.776  21.232  52.942 
89.702  21.548  53.338 
90.412  22.746  53.755 
91.497  23.135  52.083 
91.604  23.181  53.338 
92.830  24.103  53.087 
92.351  24.467  53.297 
92.737  23.943  52.263 
93.390  24.471  52.258 
93.545  25.676  51.801 
94.273  25.753  50.805 
93.926  24.047  56.421 
95.296  27.018  52.362 
94.585  25.278  54.047 
95.724  26.978  52.664 
98.934  29.840  53.496 
97.555  29.793  48.989 
96.820  28.498  54.102 
96.877  28.935  50.516 
97.734  30.102  52.905 
99.127  30.493  53.877 
100.857  33.399  54.172 
98.117  31.265  49.197 
100.287  33.368  50.603 
100.473  32.787  54.586 
99.965  32.898  54.287 
101.140  35.916  51.756 
100.971  35.531  52.557 
101.720  36.874  52.226 
101.956  37.377  52.623 
102.591  38.571  52.804 
103.581  39.774  53.012 
103.638  39.832  54.548 
104.088  40.698  52.665 
104.074  41.905  52.697 
104.902  41.690  53.727 
105.124  43.702  53.485 
105.200  45.434  51.578 
104.549  43.960  51.361 
106.223  46.767  53.172 
105.970  45.219  55.106 
105.421  45.288  52.929 
105.982  45.634  54.735 
105.692  46.076  52.762 
106.262  47.545  52.550 
107.169  49.789  53.206 
107.347  49.634  54.165 
107.463  50.745  54.887 
107.290  50.804  53.043 
107.560  50.684  53.838 
107.648  51.274  54.309 
107.226  52.520  54.718 
107.300  53.264  54.953 
107.858  54.352  55.183 
108.450  55.480  54.942 
108.576  56.476  54.924 
108.502  57.295  56.337 
108.944  59.919  55.610 
108.775  58.345  55.821 
108.458  59.922  54.473 
108.841  56.784  56.252 
109.136  60.471  56.435 
108.419  61.401  52.868 
107.988  62.453  54.788 
108.385  63.041  53.213 
108.468  64.279  54.068 
107.150  67.297  50.450 
108.020  66.476  52.348 
108.385  65.705  55.046 
108.412  66.461  53.980 
108.282  67.360  55.411 
107.683  67.951  55.045 
108.006  68.885  54.744 
107.618  69.268  54.665 
107.837  70.000  55.609 
107.535  70.872  54.186 
107.386  70.762  55.048 
107.014  71.405  53.959 
106.545  72.393  53.362 
105.584  77.964  51.064 
105.830  74.244  53.534 
105.140  79.277  52.555 
106.228  75.162  53.583 
105.724  78.240  54.038 
105.298  78.673  52.286 
104.994  79.013  55.429 
105.362  78.657  56.601 
104.888  79.273  54.137 
103.848  81.367  50.587 
103.263  82.111  50.891 
103.557  83.015  54.982 
103.429  83.875  53.907 
103.326  82.941  53.129 
103.092  84.375  55.922 
101.973  86.636  52.958 
103.079  83.893  56.258 
103.446  83.135  52.158 
102.564  84.938  52.866 
100.684  85.601  50.335 
97.957  92.601  54.103 
97.246  93.378  54.143 
100.016  90.194  54.738 
97.636  92.792  53.326 
97.817  94.055  57.986 
98.034  89.859  46.736 
96.703  93.597  54.727 
95.610  95.952  57.420 
98.630  92.082  54.325 
92.489  96.066  47.996 
93.987  96.971  55.796 
95.585  94.713  51.575 
91.629  96.621  49.712 
89.893  98.211  47.904 
96.591  93.341  52.492 
94.762  94.238  50.071 
94.255  95.896  52.875 
93.624  96.491  51.262 
92.203  97.063  50.145 
89.129  99.070  48.660 
90.743  100.295  57.433 
90.459  99.684  58.671 
86.645  101.651  51.414 
91.068  98.750  55.320 
89.361  100.011  54.208 
83.785  102.526  48.633 
83.653  103.628  53.537 
84.406  103.270  55.013 
82.178  104.557  54.735 
81.487  105.230  53.454 
84.412  103.996  57.283 
78.530  105.559  54.026 
79.938  106.007  57.804 
75.046  106.418  54.640 
78.506  105.620  50.477 
79.518  105.439  52.794 
81.189  104.960  54.740 
77.932  105.412  50.393 
71.317  108.478  57.924 
70.530  108.150  50.295 
79.006  106.804  56.489 
70.589  108.694  55.337 
71.174  107.056  49.066 
71.252  108.633  55.885 
67.522  107.696  51.298 
70.219  107.893  52.078 
64.962  108.703  51.427 
67.361  106.937  46.303 
65.440  108.263  51.982 
69.648  107.744  51.316 
67.435  108.569  54.911 
66.880  108.524  52.848 
64.612  109.346  52.638 
65.059  108.850  53.685 
63.773  109.176  54.234 
63.118  108.728  53.813 
61.953  109.247  53.901 
61.528  108.765  53.938 
61.149  109.205  54.244 
59.715  109.363  54.521 
58.725  108.638  55.391 
58.511  109.468  56.366 
57.190  108.754  55.628 
55.337  108.810  54.557 
57.134  108.702  54.562 
55.015  108.980  57.247 
52.962  108.521  54.034 
53.275  108.095  55.076 
52.020  108.754  55.484 
51.401  108.427  54.643 
49.579  109.080  55.200 
50.115  108.615  57.078 
46.412  107.948  56.390 
48.871  108.021  55.625 
47.545  108.005  57.237 
44.750  107.232  55.253 
45.181  107.305  54.681 
45.321  107.467  55.628 
42.966  105.906  53.897 
45.225  106.690  53.086 
42.780  106.337  53.695 
41.687  106.238  54.527 
41.014  105.541  53.753 
40.520  105.028  53.595 
42.159  106.339  54.256 
40.315  105.380  54.364 
38.360  104.219  54.258 
37.514  103.730  53.817 
35.817  103.007  54.114 
36.309  103.218  53.334 
35.239  102.728  53.621 
35.115  102.274  53.407 
34.841  102.119  51.687 
33.008  100.857  52.568 
28.715  99.446  54.949 
32.881  101.578  55.960 
31.904  101.695  58.938 
27.956  98.166  58.461 
27.430  97.584  52.564 
30.197  100.278  58.300 
29.066  99.798  56.161 
26.721  97.972  53.546 
27.497  98.330  53.614 
29.050  98.964  52.731 
27.896  98.668  54.374 
27.713  98.228  55.992 
27.418  97.649  55.188 
25.656  96.873  53.318 
25.882  97.151  55.169 
23.710  94.674  56.121 
23.277  93.701  57.865 
22.563  93.088  53.389 
22.921  93.129  53.887 
22.749  93.116  52.130 
23.463  94.237  55.531 
21.466  91.747  53.851 
20.714  90.604  55.133 
20.682  90.523  53.924 
18.668  86.537  52.112 
17.798  87.334  54.331 
18.415  88.214  54.396 
18.313  87.212  57.729 
17.507  85.166  52.502 
17.785  86.506  57.359 
16.343  83.603  57.004 
17.232  84.280  55.025 
16.656  84.339  56.284 
16.487  82.250  54.419 
16.302  82.759  55.046 
15.700  81.533  54.771 
15.656  81.172  54.062 
15.467  80.679  54.826 
14.986  79.946  55.072 
14.855  78.968  54.586 
14.412  78.164  54.895 
14.636  77.516  54.291 
13.299  76.616  55.220 
13.114  75.936  54.803 
12.525  74.454  54.762 
12.734  75.668  55.589 
12.541  75.099  54.937 
12.473  74.391  57.138 
12.035  72.641  58.012 
12.097  73.345  55.214 
12.072  72.971  53.791 
12.017  70.758  50.672 
13.146  72.553  48.521 
10.737  68.582  56.976 
10.318  68.537  56.630 
12.084  65.829  49.855 
11.927  66.838  51.175 
11.141  65.441  52.962 
10.585  64.878  53.717 
10.124  64.695  55.550 
11.498  68.090  52.237 
10.217  61.534  55.305 
10.427  67.592  56.496 
10.960  58.934  54.858 
10.560  57.186  55.466 
10.659  65.912  57.417 
10.352  58.429  54.610 
11.396  58.914  51.369 
10.497  56.002  53.170 
10.672  56.842  54.671 
10.908  56.454  57.053 
10.767  50.905  56.892 
10.817  56.707  53.585 
11.157  51.787  57.402 
10.840  53.268  60.096 
11.620  50.043  53.995 
12.159  50.563  50.123 
11.149  49.887  57.871 
10.813  51.678  56.754 
10.583  53.778  54.144 
11.357  48.857  53.173 
11.927  49.200  53.690 
12.494  45.506  55.487 
12.923  45.680  54.163 
14.015  42.343  52.049 
13.081  46.715  57.569 
12.706  46.956  51.450 
13.623  44.188  54.013 
12.743  46.612  52.954 
14.492  40.828  55.995 
16.449  37.439  55.686 
13.226  43.184  55.615 
15.765  37.900  55.568 
13.943  41.266  56.184 
15.712  38.644  56.427 
14.818  39.426  55.374 
14.037  41.006  55.356 
16.502  35.947  54.875 
16.446  36.454  54.173 
17.970  33.986  55.912 
18.390  33.068  52.448 
18.864  32.591  55.280 
17.151  35.030  54.548 
17.953  33.841  53.815 
18.341  32.621  52.883 
21.402  27.978  55.395 
19.780  30.708  52.371 
21.797  28.062  52.300 
21.649  28.914  49.822 
20.783  30.570  52.935 
21.952  29.649  48.597 
27.115  22.282  57.229 
22.555  27.686  49.825 
24.923  25.105  52.637 
27.863  23.301  49.562 
26.067  23.624  51.745 
25.420  23.840  55.110 
29.669  21.295  52.111 
33.279  18.856  51.234 
33.012  20.046  49.900 
30.175  21.272  51.831 
29.406  20.955  53.483 
29.149  21.557  53.799 
31.086  21.505  50.514 
30.567  20.594  53.017 
31.683  19.298  56.370 
32.322  18.880  52.716 
32.971  18.233  57.493 
32.829  18.728  53.739 
36.410  16.420  57.895 
33.602  17.445  56.795 
33.465  19.203  50.391 
37.985  15.113  55.665 
38.016  15.961  54.752 
42.645  15.418  48.310 
37.980  16.178  51.681 
41.410  14.382  55.524 
42.841  14.161  51.842 
43.709  13.950  50.828 
38.697  16.036  53.283 
38.533  15.748  54.209 
41.922  14.220  54.785 
43.787  14.109  52.971 
43.736  13.724  53.604 
46.317  13.337  53.350 
45.138  13.498  52.141 
46.033  13.861  52.651 
46.262  13.023  52.518 
47.833  12.434  53.297 
48.019  12.747  52.698 
49.511  12.107  53.290 
50.065  12.136  52.895 
50.280  11.911  53.509 
51.254  12.276  54.192 
52.170  11.790  53.450 
52.797  11.644  54.866 
53.000  11.151  54.592 
52.771  11.326  54.186 
55.001  11.516  53.365 
54.739  11.530  54.603 
54.544  10.721  56.543 
56.007  10.669  55.159 
57.532  10.712  52.455 
56.313  11.209  54.577 
57.544  10.972  51.140 
56.021  11.995  49.815 
58.352  10.921  49.021 
67.018  10.813  51.500 
60.803  10.279  53.620 
58.884  11.820  45.658 
62.702  9.824  55.777 
63.590  9.972  56.556 
64.495  10.250  54.174 
63.656  11.331  49.105 
63.587  11.089  49.843 
71.516  11.584  53.174 
71.812  11.891  50.479 
74.163  11.752  52.762 
74.563  12.854  51.742 
76.367  12.637  55.040 
77.010  15.046  49.379 
71.876  11.442  54.782 
79.313  14.952  54.588 
81.072  16.713  49.731 
75.609  13.617  52.121 
79.066  15.603  49.426 
78.233  14.078  52.612 
78.386  15.432  51.263 
81.279  16.796  51.735 
81.489  16.940  50.962 
80.057  15.380  51.551 
80.560  17.651  46.828 
82.257  16.581  52.930 
83.130  17.408  52.819 
82.819  16.787  54.152 
82.478  17.180  53.467 
85.515  18.339  53.440 
85.310  19.038  52.389 
84.170  18.161  52.281 
84.992  18.770  52.689 
87.080  20.208  52.223 
87.546  20.427  52.342 
87.188  21.277  52.183 
88.933  21.966  52.335 
89.110  21.400  53.398 
89.361  22.316  53.022 
89.933  21.927  52.331 
90.400  22.418  52.419 
91.865  23.585  52.462 
92.350  23.704  53.765 
92.199  23.771  50.943 
92.306  23.768  51.893 
92.784  24.208  50.495 
94.101  26.297  49.600 
96.794  28.246  52.100 
94.532  27.692  48.264 
94.672  27.021  48.758 
93.684  25.087  50.686 
95.553  27.210  51.115 
94.904  25.465  53.570 
96.712  29.725  49.071 
96.332  29.130  49.422 
98.821  31.515  50.750 
97.853  29.876  50.306 
97.707  29.897  51.353 
95.767  29.130  48.690 
98.470  30.506  51.068 
99.739  33.354  49.832 
101.433  36.304  51.105 
100.756  35.158  51.747 
101.203  35.266  52.061 
101.156  36.790  51.812 
101.187  36.287  52.125 
101.527  36.627  52.844 
102.785  38.890  52.434 
103.648  40.248  53.207 
103.977  41.335  51.880 
104.503  41.687  52.589 
103.748  41.068  52.751 
104.054  41.896  51.224 
103.507  42.586  51.043 
104.600  43.787  51.891 
105.833  44.975  54.334 
104.283  42.702  51.265 
104.604  45.039  51.249 
104.071  42.977  50.354 
104.885  44.850  52.455 
105.069  45.620  51.164 
106.486  48.034  53.808 
106.116  48.447  52.640 
106.816  49.010  53.123 
106.700  50.142  54.251 
107.178  50.339  53.501 
107.765  51.581  53.284 
107.204  51.399  53.963 
107.546  52.890  54.042 
107.908  52.988  54.428 
108.326  54.980  54.958 
107.471  54.147  53.850 
108.949  55.442  56.902 
108.973  57.282  58.454 
109.085  57.857  53.231 
108.488  59.098  53.392 
109.375  58.762  56.720 
108.699  60.253  53.636 
108.175  56.693  54.161 
108.080  61.906  53.156 
108.543  56.584  53.406 
107.811  64.586  53.096 
108.375  65.400  53.271 
108.514  64.047  54.537 
106.556  66.406  49.028 
107.765  67.165  52.820 
108.271  65.568  54.260 
107.992  67.531  54.292 
108.270  67.642  54.743 
107.561  68.223  54.641 
107.921  69.679  54.620 
107.306  70.138  54.232 
107.093  70.406  53.717 
106.647  71.177  53.352 
106.911  71.988  54.344 
106.820  72.066  52.923 
106.212  72.918  53.223 
106.096  75.396  53.013 
106.433  74.611  52.970 
105.412  78.491  52.732 
105.508  79.453  54.715 
104.664  80.242  53.082 
104.876  80.945  52.697 
106.048  76.523  54.871 
104.240  82.009  53.149 
103.839  82.740  52.910 
104.005  82.264  53.926 
99.672  89.601  53.227 
103.470  79.417  47.648 
103.600  83.389  52.598 
101.999  83.682  48.345 
101.641  83.248  46.790 
102.941  85.200  55.992 
100.972  88.521  54.704 
101.713  86.089  51.268 
100.251  88.670  54.469 
98.402  91.242  53.087 
100.282  90.254  57.220 
99.786  89.682  51.977 
97.238  93.061  53.259 
96.464  93.957  53.175 
96.617  94.701  56.562 
99.051  91.254  53.583 
94.974  95.945  52.327 
96.143  95.253  59.019 
94.794  95.710  51.007 
95.285  95.491  53.904 
94.438  96.160  55.386 
95.361  95.357  52.568 
92.022  98.200  52.565 
95.789  93.563  48.217 
90.904  99.783  55.991 
95.541  95.181  54.849 
91.797  97.718  51.829 
91.902  98.448  53.554 
92.286  97.182  55.418 
91.621  98.137  50.983 
88.176  100.006  52.075 
86.903  101.764  54.216 
86.606  102.242  54.024 
86.483  100.935  49.836 
85.540  102.201  50.085 
82.223  104.712  51.824 
81.407  104.787  51.648 
82.411  104.668  57.624 
80.632  105.177  53.928 
81.627  104.567  55.762 
83.427  104.429  56.788 
80.070  105.633  55.590 
77.005  105.110  52.939 
83.381  104.110  52.439 
79.650  106.260  58.333 
80.747  104.498  49.537 
79.804  105.659  53.720 
69.981  107.453  52.869 
74.096  107.552  54.639 
79.693  105.290  54.178 
76.127  106.648  53.729 
72.251  107.220  53.072 
75.035  107.162  52.276 
74.022  107.634  55.287 
67.838  107.760  50.495 
66.851  108.036  49.086 
67.843  108.496  52.666 
65.779  108.723  51.502 
65.528  108.791  52.384 
67.242  108.735  53.163 
64.775  109.165  53.109 
64.014  108.753  52.761 
63.625  108.812  53.552 
63.475  109.038  53.166 
62.603  109.273  53.270 
61.962  108.689  53.128 
61.287  108.895  53.419 
60.087  109.042  53.226 
60.212  109.056  53.918 
58.790  109.170  54.771 
58.481  109.124  55.573 
58.053  109.072  54.817 
55.094  108.701  53.708 
56.817  108.823  53.109 
55.909  108.207  54.675 
53.794  108.339  55.731 
50.598  108.694  54.403 
50.155  108.782  52.128 
51.108  108.938  55.057 
50.019  108.421  54.039 
50.934  108.456  52.550 
49.247  109.070  56.221 
49.033  108.490  58.254 
50.323  109.085  54.450 
46.575  107.436  55.204 
46.151  107.246  54.935 
44.539  107.332  55.962 
43.415  106.224  54.575 
44.216  106.756  54.650 
41.729  105.131  52.517 
40.365  104.842  52.345 
40.460  105.021  54.696 
39.910  105.035  53.635 
40.358  104.631  52.830 
39.604  104.874  52.804 
39.398  104.805  53.473 
36.922  103.684  53.472 
37.295  103.486  53.027 
36.549  103.356  52.584 
35.308  102.483  52.092 
35.882  102.879  52.688 
35.165  102.650  53.110 
33.658  101.943  57.161 
34.460  101.534  52.969 
31.593  100.867  56.265 
31.050  99.646  51.146 
30.152  99.201  50.748 
29.140  99.359  54.303 
30.158  99.927  55.036 
31.117  101.146  56.074 
29.677  99.490  52.361 
28.256  98.520  53.443 
26.265  96.925  54.145 
27.065  98.266  54.156 
30.610  100.091  53.967 
25.986  96.861  51.947 
27.819  98.512  55.230 
24.487  95.438  53.095 
26.665  97.779  52.989 
23.369  93.790  56.337 
24.083  94.209  52.424 
24.030  95.282  56.763 
23.532  93.952  52.691 
20.857  90.268  51.674 
21.556  92.030  52.867 
22.180  91.594  50.556 
17.891  86.898  53.627 
20.931  90.515  51.145 
20.492  88.305  47.561 
17.338  85.697  55.843 
18.281  85.866  51.583 
16.822  85.166  54.466 
17.811  86.536  55.649 
17.808  86.050  57.018 
17.790  85.353  56.320 
16.602  84.025  55.378 
16.734  83.223  54.234 
16.255  83.054  54.158 
16.106  81.241  54.642 
15.311  80.446  54.304 
15.343  79.665  54.189 
14.837  79.738  54.317 
14.659  78.325  54.090 
15.008  78.557  54.933 
14.261  77.439  55.119 
14.024  76.304  54.771 
14.336  77.472  53.573 
13.153  76.009  55.625 
12.857  74.356  54.246 
11.350  70.622  53.168 
10.816  70.092  56.412 
11.787  72.779  54.734 
11.614  73.103  56.562 
11.029  68.319  54.953 
11.697  69.939  52.034 
11.766  73.645  59.468 
11.560  66.585  52.046 
11.516  69.493  52.712 
10.331  65.870  55.122 
10.453  62.344  54.718 
10.318  66.562  54.683 
10.665  64.998  56.191 
11.026  63.988  51.995 
10.622  63.546  53.718 
10.966  65.853  55.795 
10.450  59.543  58.758 
10.109  60.901  53.898 
11.605  60.711  50.621 
10.254  59.262  55.046 
11.284  58.330  53.883 
10.240  62.457  56.742 
11.332  56.458  50.769 
10.371  58.313  55.437 
10.758  55.356  55.070 
11.101  55.515  50.967 
10.775  54.538  57.597 
10.559  54.104  54.882 
11.145  53.018  56.766 
11.918  50.435  51.397 
11.050  53.611  55.993 
11.131  51.129  53.450 
11.575  47.596  56.016 
11.438  51.706  50.971 
12.176  49.354  52.733 
13.047  45.104  53.035 
12.540  47.574  49.530 
14.792  40.797  52.150 
13.673  42.989  53.181 
14.730  39.414  54.873 
13.006  44.905  54.172 
13.415  42.658  55.022 
13.861  41.061  53.885 
14.238  44.088  50.596 
12.906  45.054  55.806 
16.354  36.800  55.373 
15.915  38.608  54.534 
14.153  40.765  53.351 
17.001  36.860  54.747 
15.865  37.123  57.019 
14.403  40.384  54.047 
17.270  34.338  56.331 
16.567  36.226  52.745 
18.238  33.280  55.266 
17.851  35.219  54.833 
18.884  32.296  54.768 
18.574  32.395  53.733 
18.957  32.717  52.187 
18.920  32.421  53.027 
19.505  32.390  53.084 
20.146  31.370  51.179 
21.353  29.998  51.088 
20.767  28.584  56.211 
20.582  30.165  52.261 
20.229  30.713  51.731 
25.106  24.161  53.486 
21.449  28.588  50.722 
25.046  24.922  51.877 
25.207  25.297  49.844 
24.655  25.810  49.718 
24.914  25.206  50.672 
26.602  24.879  48.206 
30.451  21.400  51.038 
32.542  19.459  51.542 
32.270  18.612  55.350 
31.573  20.171  51.488 
32.553  19.009  52.317 
32.282  19.805  50.193 
29.705  20.724  52.588 
33.551  18.426  53.436 
31.949  18.817  56.966 
31.886  19.053  53.710 
35.113  17.375  54.175 
33.744  18.236  56.867 
33.857  18.047  55.045 
38.112  16.571  51.263 
39.842  15.055  52.029 
38.338  17.525  48.542 
41.543  15.553  49.028 
37.535  16.009  54.035 
41.464  15.124  51.839 
38.953  15.782  52.566 
42.238  15.295  47.715 
41.527  14.478  51.355 
44.789  13.446  51.771 
41.098  14.988  50.972 
44.224  13.536  52.428 
44.703  13.794  52.780 
44.081  13.654  53.191 
45.627  13.405  52.091 
47.043  12.992  52.188 
47.125  12.585  51.713 
47.932  12.939  53.149 
48.001  13.127  52.303 
48.548  12.459  52.614 
49.843  12.560  52.346 
51.328  11.912  53.412 
50.902  12.430  52.671 
52.066  12.419  52.533 
52.569  11.773  52.814 
53.573  11.499  53.804 
53.551  11.794  54.294 
55.336  10.817  53.887 
55.611  10.696  55.425 
56.089  10.828  54.309 
57.519  10.447  54.682 
57.090  11.103  52.500 
58.812  11.088  49.709 
59.115  11.193  48.192 
59.888  11.381  46.927 
60.843  11.547  51.093 
63.804  10.453  51.698 
64.492  9.865  52.718 
64.247  10.851  50.185 
66.527  10.723  52.960 
66.268  11.182  49.993 
67.499  10.783  53.674 
70.914  11.065  54.774 
69.461  10.746  52.517 
67.915  11.046  52.444 
69.566  11.440  49.316 
71.467  10.866  55.560 
70.131  11.032  51.161 
73.104  11.986  52.696 
76.805  14.794  48.820 
77.912  15.215  49.679 
72.236  13.030  49.261 
77.373  13.617  54.459 
77.084  14.005  51.756 
77.276  14.033  51.109 
78.573  15.700  48.721 
79.270  15.676  50.856 
80.853  16.305  51.088 
79.840  16.501  47.383 
80.940  17.217  50.609 
82.522  17.976  49.207 
82.309  16.940  52.138 
81.441  17.812  48.900 
82.291  17.943  50.570 
84.127  18.714  49.775 
83.792  18.099  53.685 
82.988  18.318  50.996 
84.548  17.974  53.277 
84.212  18.888  51.955 
86.371  19.618  51.859 
86.976  20.192  51.705 
88.275  21.102  51.320 
88.603  21.480  51.583 
89.588  21.632  52.619 
90.266  22.442  51.445 
90.877  23.480  51.270 
91.217  23.319  51.646 
91.503  24.173  51.158 
92.538  24.150  51.301 
92.434  24.368  52.251 
93.387  25.741  49.980 
94.022  25.908  50.356 
93.409  24.644  50.667 
94.218  27.520  47.668 
95.104  26.567  50.901 
94.746  28.080  48.989 
93.882  25.056  51.907 
95.350  28.412  47.609 
94.675  26.430  50.075 
95.909  27.214  51.992 
96.733  28.115  52.947 
97.590  29.471  52.575 
98.559  31.455  48.531 
100.631  34.489  51.158 
99.875  32.205  53.952 
98.518  32.070  49.379 
97.915  30.600  48.550 
100.424  34.316  50.398 
100.864  34.251  51.972 
101.509  37.195  51.187 
100.596  36.558  49.293 
102.219  38.123  52.130 
102.001  39.109  49.588 
103.140  39.250  53.403 
103.493  40.126  52.387 
102.708  39.881  51.364 
103.257  41.005  51.469 
104.298  42.112  51.935 
103.316  41.667  49.525 
103.770  43.555  50.616 
103.698  41.186  51.122 
103.176  42.679  48.702 
103.858  42.405  50.233 
106.165  45.864  53.323 
105.706  45.111  53.557 
105.252  46.390  51.154 
105.473  46.334  51.927 
106.443  47.574  53.057 
106.326  48.004  53.322 
106.983  48.386  52.989 
107.162  49.502  52.256 
107.402  50.269  52.570 
107.382  51.162  52.651 
107.628  52.700  53.366 
107.580  51.976  53.558 
107.304  53.251  53.811 
108.334  53.964  54.565 
108.130  55.390  54.459 
108.740  57.066  54.178 
108.338  55.941  56.509 
108.517  58.408  53.811 
108.742  57.208  52.770 
109.201  57.505  57.582 
108.805  58.990  53.031 
108.056  57.551  48.367 
108.362  58.096  50.741 
108.439  60.944  51.090 
108.230  62.034  52.336 
108.514  61.463  53.688 
107.972  64.656  52.276 
106.808  67.548  49.608 
107.539  65.305  52.826 
107.658  66.312  53.094 
107.584  68.123  52.008 
107.464  67.684  53.620 
108.093  68.553  53.990 
108.006  67.920  53.428 
107.825  69.521  53.715 
107.523  70.458  53.492 
107.211  70.832  52.861 
106.905  71.419  52.603 
106.407  71.985  51.941 
106.399  73.744  53.309 
106.094  73.096  51.752 
105.257  79.483  53.385 
105.806  75.636  49.715 
105.594  74.390  51.552 
105.328  79.936  55.512 
102.910  82.016  48.795 
101.819  83.233  48.242 
103.303  82.496  49.542 
105.052  80.378  54.748 
104.853  80.588  55.264 
102.468  83.578  54.805 
101.337  86.763  51.742 
103.506  82.895  54.282 
101.571  87.182  55.326 
102.839  83.836  50.325 
103.376  83.572  53.257 
102.221  86.504  55.373 
102.783  84.205  55.473 
100.374  89.009  53.591 
100.681  89.616  58.741 
98.411  91.769  51.929 
95.311  95.307  55.901 
100.841  87.182  50.569 
97.135  92.853  54.528 
99.557  91.257  55.802 
97.424  91.093  48.812 
97.760  91.974  49.879 
97.311  92.924  51.408 
95.788  94.629  54.185 
96.017  93.703  54.790 
97.160  94.275  61.216 
91.560  96.881  48.240 
91.247  98.211  48.997 
91.164  97.854  50.152 
89.884  98.823  49.207 
91.906  98.115  54.277 
88.132  99.095  49.409 
92.196  98.598  57.427 
92.519  97.443  51.022 
89.305  99.775  52.725 
91.575  97.727  49.904 
89.238  100.350  53.655 
86.161  101.681  51.885 
86.964  102.545  57.340 
83.159  103.651  52.368 
80.286  105.063  49.983 
87.301  101.183  49.812 
81.214  104.647  52.426 
78.969  105.792  52.317 
78.290  107.079  57.057 
81.675  105.082  56.579 
77.331  105.072  51.173 
74.864  106.513  52.867 
80.459  105.211  55.848 
77.450  105.993  54.400 
78.232  105.799  52.009 
76.694  106.252  52.927 
70.715  107.435  50.251 
76.335  106.581  53.264 
69.807  108.770  55.586 
68.708  107.305  51.908 
73.469  107.921  54.672 
70.108  108.068  53.056 
69.597  107.935  48.848 
68.390  108.001  51.302 
70.874  108.098  54.089 
66.346  108.213  47.524 
67.012  108.440  49.565 
66.421  108.528  51.999 
64.603  108.209  51.577 
63.843  109.254  51.159 
64.196  108.899  51.888 
63.267  109.320  52.757 
62.807  109.073  52.176 
62.445  108.907  53.011 
61.642  108.708  52.754 
60.661  109.075  53.058 
59.612  109.081  53.726 
59.004  108.783  53.998 
58.101  108.665  53.993 
57.908  108.619  54.503 
57.600  109.018  53.476 
56.364  108.714  55.858 
56.515  108.799  52.495 
56.065  108.665  53.952 
53.416  108.558  53.685 
52.193  108.054  54.040 
52.782  108.710  55.387 
50.594  108.207  48.988 
50.404  108.618  52.678 
47.851  108.470  54.247 
48.821  108.428  53.224 
50.114  109.067  53.489 
48.059  108.373  54.756 
45.822  107.472  53.280 
45.736  107.515  53.811 
44.199  106.809  53.882 
45.391  107.175  53.027 
41.976  105.930  53.523 
43.610  106.358  53.502 
42.060  105.692  55.290 
41.893  105.150  53.206 
41.162  104.936  52.642 
40.054  104.819  51.867 
39.227  103.970  53.661 
38.756  104.471  53.050 
37.224  103.686  52.349 
37.144  102.835  52.583 
35.812  102.401  50.239 
36.335  102.634  52.152 
35.106  102.249  50.712 
33.169  101.270  50.783 
31.094  100.696  54.398 
31.023  100.246  57.794 
32.833  100.465  48.927 
31.135  100.204  55.636 
32.095  100.805  52.784 
30.692  98.891  48.032 
31.948  100.735  53.367 
31.623  100.274  51.303 
27.931  97.690  50.937 
30.142  100.242  53.797 
29.060  98.734  53.711 
28.266  98.883  54.642 
29.089  98.691  52.062 
25.025  96.036  55.993 
26.300  97.283  53.685 
26.671  97.349  52.575 
25.035  94.441  54.111 
23.959  95.504  55.038 
24.452  95.834  57.935 
22.085  92.603  52.683 
21.374  92.244  54.633 
21.657  91.772  52.233 
22.414  92.531  50.712 
21.095  92.069  53.838 
19.750  89.915  54.751 
20.487  90.207  54.370 
18.206  86.807  52.775 
18.909  88.366  54.641 
18.138  85.816  52.429 
17.284  85.419  53.724 
17.610  86.586  54.914 
16.979  85.162  55.123 
17.020  85.186  55.966 
16.721  83.737  54.119 
16.782  82.525  53.678 
16.747  81.815  54.462 
16.164  81.718  53.922 
15.321  80.351  53.723 
14.917  79.139  53.735 
15.210  79.512  53.394 
15.247  78.323  53.368 
14.153  77.487  54.245 
14.732  76.816  53.414 
13.905  76.850  53.579 
13.539  76.650  54.225 
12.649  74.626  53.437 
13.045  74.909  53.074 
12.400  74.691  55.608 
12.166  68.433  52.720 
12.518  73.585  51.306 
12.043  71.544  53.791 
12.389  72.789  51.591 
10.600  67.035  55.419 
11.044  68.654  55.580 
12.102  71.682  50.976 
11.682  66.532  53.716 
10.148  64.132  55.921 
10.632  66.528  55.507 
10.273  67.184  57.631 
10.902  64.426  55.242 
10.243  63.429  54.077 
10.732  58.946  53.562 
10.469  65.036  57.452 
10.960  61.549  52.093 
11.321  63.004  50.417 
11.191  62.846  51.143 
10.510  60.106  56.090 
10.516  58.959  57.239 
11.096  62.381  52.734 
11.545  54.523  50.090 
11.061  54.352  50.815 
10.383  56.186  59.085 
10.803  54.905  53.473 
10.983  54.991  52.551 
11.018  54.564  51.518 
10.557  55.000  59.908 
10.674  54.311  52.613 
11.255  53.518  50.705 
11.421  51.720  53.067 
12.743  49.525  48.766 
11.992  47.977  52.825 
12.491  47.471  50.746 
12.825  46.236  54.741 
12.193  47.541  52.138 
12.101  45.756  56.722 
14.172  42.070  54.260 
12.568  51.510  46.853 
13.154  44.108  51.770 
14.263  41.161  52.484 
14.180  42.872  50.750 
13.176  43.567  52.833 
16.563  36.596  56.022 
14.497  40.383  55.560 
16.511  37.288  52.840 
14.353  40.386  52.779 
16.486  39.544  51.125 
15.990  37.833  56.592 
16.895  38.749  50.588 
17.472  36.080  51.584 
17.815  34.233  53.064 
18.439  33.353  53.206 
17.368  35.174  51.451 
17.020  36.367  53.202 
18.622  33.980  50.341 
19.451  32.298  51.630 
20.764  30.464  51.322 
19.369  31.969  52.424 
20.139  30.341  53.720 
21.380  28.591  52.348 
21.685  29.116  50.379 
21.042  30.923  49.308 
25.434  26.188  49.472 
24.118  25.792  55.276 
24.680  24.685  58.076 
22.985  27.323  49.938 
27.039  23.265  54.347 
26.082  23.812  52.863 
27.515  22.731  52.118 
26.280  23.434  51.187 
34.012  18.433  51.536 
31.009  21.114  50.104 
32.957  19.559  49.744 
36.213  17.445  50.309 
35.704  17.900  51.493 
31.337  19.739  52.192 
32.819  18.778  56.568 
31.094  19.863  53.215 
31.984  19.352  54.130 
32.954  18.367  54.943 
39.178  16.606  48.340 
36.441  17.082  52.695 
37.941  15.539  54.244 
36.486  16.658  53.424 
38.742  16.494  48.692 
39.527  16.893  47.602 
41.041  15.842  50.774 
41.155  15.209  48.890 
44.289  14.002  49.048 
41.762  15.812  47.370 
42.259  14.240  50.808 
42.652  13.993  52.279 
43.215  13.844  51.330 
42.989  13.969  50.461 
43.623  14.425  51.266 
44.647  13.293  51.139 
44.105  13.728  51.609 
46.175  13.369  52.170 
47.653  12.589  52.233 
47.558  13.233  51.500 
48.691  12.522  51.378 
49.414  12.401  52.639 
49.407  12.360  51.734 
50.225  12.220  51.955 
51.193  12.237  51.018 
51.675  12.136  51.720 
52.395  11.975  52.012 
53.131  12.503  52.655 
53.450  11.547  53.060 
53.979  12.293  52.825 
55.867  11.159  52.757 
54.911  11.366  52.514 
55.678  11.177  53.710 
54.699  10.895  54.011 
57.924  11.095  52.324 
56.561  11.168  53.669 
58.522  11.069  53.162 
62.815  10.918  50.781 
63.238  10.444  52.840 
62.404  11.858  47.844 
62.001  10.401  52.006 
66.708  10.504  52.441 
66.472  9.943  55.809 
66.369  11.076  49.479 
60.742  10.265  51.287 
70.085  11.307  50.455 
70.544  10.875  52.652 
70.027  10.609  54.648 
69.705  11.362  52.527 
68.731  11.293  51.372 
73.183  13.521  48.404 
76.289  13.690  51.521 
75.433  13.473  49.517 
73.486  13.941  48.100 
74.890  13.161  49.980 
73.172  13.132  49.738 
77.452  14.290  50.462 
80.406  15.605  51.180 
79.885  16.313  48.063 
81.048  16.551  50.348 
78.646  14.526  52.125 
82.163  17.656  49.985 
82.068  17.223  51.143 
79.163  16.026  49.754 
83.487  17.694  52.310 
81.021  15.966  51.956 
82.494  16.653  53.757 
82.997  17.491  52.115 
83.749  18.196  50.538 
84.287  18.440  51.183 
83.937  17.933  52.937 
86.248  20.029  51.250 
87.098  20.694  51.485 
88.168  21.056  52.190 
88.380  21.499  50.651 
88.919  21.998  51.745 
89.650  22.191  51.175 
90.462  22.589  50.658 
90.624  23.131  50.772 
91.392  23.755  50.842 
92.365  24.240  50.193 
92.937  24.862  50.112 
93.107  25.897  49.436 
93.269  25.832  47.770 
94.530  26.381  49.294 
93.188  26.215  48.151 
93.889  25.913  49.045 
95.411  26.573  51.684 
96.410  28.351  49.937 
96.758  28.989  51.488 
95.770  30.291  46.979 
97.282  28.395  52.256 
99.334  31.479  52.370 
99.512  32.182  52.918 
98.471  30.864  51.406 
97.919  32.984  45.178 
100.991  35.702  50.956 
99.845  32.724  50.508 
99.973  33.568  48.999 
100.025  34.336  51.459 
101.027  36.565  49.651 
101.495  38.017  50.152 
101.617  37.106  51.628 
101.719  37.722  51.934 
101.347  37.439  50.314 
101.466  38.138  52.179 
103.137  39.326  52.909 
102.105  38.665  51.917 
102.019  40.054  51.233 
102.188  39.267  51.000 
102.658  41.745  49.711 
103.823  41.946  50.820 
103.309  42.963  49.969 
103.876  42.886  51.914 
104.177  43.735  50.420 
104.055  43.599  49.665 
104.485  43.483  50.936 
105.036  43.502  52.173 
105.633  47.356  52.542 
106.262  47.763  51.657 
106.599  49.012  51.766 
106.717  49.019  52.590 
107.012  48.985  51.534 
106.572  50.746  52.275 
107.178  51.221  51.306 
107.065  51.868  52.416 
107.729  52.445  52.884 
108.153  53.647  53.894 
108.389  56.943  52.468 
108.061  54.054  53.076 
108.212  55.376  53.554 
108.948  57.516  55.795 
108.580  56.103  55.296 
108.196  56.580  51.082 
108.959  57.672  54.642 
108.667  59.749  54.869 
108.109  56.565  49.411 
108.112  61.060  53.516 
107.774  60.366  50.749 
108.935  58.923  54.069 
108.443  61.205  51.985 
107.648  65.393  50.980 
107.169  66.355  51.158 
106.639  68.162  49.997 
107.922  68.095  52.750 
108.136  67.246  53.928 
107.640  68.784  53.173 
107.864  68.738  52.658 
107.545  69.597  53.036 
107.212  69.379  52.471 
107.304  70.032  52.827 
106.966  70.109  52.507 
107.112  71.021  52.069 
106.296  72.419  48.984 
106.441  73.935  54.579 
106.664  72.788  52.276 
105.544  76.470  54.086 
105.601  77.988  51.880 
104.784  79.462  53.164 
104.101  82.434  52.507 
103.945  81.497  49.989 
104.464  77.012  46.868 
103.772  81.323  52.536 
104.068  81.945  52.102 
103.634  82.827  56.294 
102.308  83.953  49.530 
99.912  86.995  49.713 
102.091  84.520  51.050 
102.716  84.511  51.557 
102.516  85.466  56.087 
102.876  84.339  53.843 
101.554  87.146  56.162 
100.754  87.810  56.237 
101.540  87.006  54.453 
99.035  91.933  55.586 
100.302  88.155  52.497 
100.015  90.980  57.239 
98.469  91.849  50.566 
94.684  95.741  53.465 
94.010  95.964  53.609 
96.475  93.972  54.072 
95.968  94.047  49.722 
97.521  92.387  50.864 
93.953  96.766  53.814 
91.365  97.134  46.792 
90.554  98.467  52.568 
90.728  98.761  51.586 
93.694  96.770  51.713 
89.082  98.756  49.485 
90.859  99.117  52.960 
94.227  95.945  50.368 
87.112  100.443  46.574 
91.967  96.922  51.673 
90.339  98.826  53.376 
90.439  99.980  57.041 
88.326  100.706  54.644 
87.693  101.095  56.098 
88.827  99.689  51.145 
90.214  100.141  55.549 
84.406  102.344  46.673 
85.260  102.443  49.447 
83.474  104.249  55.145 
78.795  104.442  47.871 
83.100  102.992  48.167 
80.064  105.225  52.015 
84.141  103.781  54.504 
81.599  104.651  53.339 
77.418  105.630  52.742 
73.244  106.623  49.717 
77.064  105.689  51.932 
79.017  105.863  53.302 
77.245  107.358  58.216 
75.450  106.635  53.076 
75.134  106.743  51.585 
70.896  108.773  56.631 
74.393  106.482  49.492 
73.632  107.162  51.729 
71.627  107.614  51.203 
73.205  107.554  52.526 
70.002  108.121  54.072 
70.139  107.923  48.188 
66.222  108.318  48.027 
65.918  108.206  50.599 
65.084  109.046  50.727 
66.602  108.536  51.010 
64.277  109.023  50.027 
64.060  108.780  51.397 
63.279  108.598  51.891 
62.357  108.790  51.990 
61.448  109.149  52.073 
60.642  108.762  52.222 
60.550  108.336  53.074 
59.866  108.633  52.653 
59.071  108.839  53.127 
58.595  108.987  53.634 
58.214  108.426  53.253 
56.567  108.742  54.222 
55.023  108.762  52.962 
54.338  108.667  53.291 
55.015  108.209  54.019 
53.711  108.493  52.877 
51.343  108.446  53.003 
50.552  108.311  49.934 
50.716  108.595  50.813 
50.831  108.681  51.728 
49.551  108.822  52.848 
48.136  108.450  53.533 
47.423  107.869  52.193 
47.209  107.190  52.717 
47.121  107.710  53.532 
46.349  107.646  54.817 
45.833  106.856  52.174 
43.679  106.587  53.028 
44.492  106.775  52.583 
42.895  105.624  51.381 
40.772  104.513  49.357 
43.004  106.713  55.527 
40.910  104.813  49.993 
38.675  104.271  52.214 
38.249  104.007  52.355 
37.568  103.876  53.081 
38.189  103.931  53.004 
37.274  103.657  51.450 
37.025  103.165  51.591 
34.903  102.178  52.600 
34.086  101.941  50.123 
34.636  102.016  54.766 
34.211  101.740  49.490 
32.665  100.674  50.513 
32.586  101.185  53.406 
30.597  99.877  51.229 
33.220  100.396  48.075 
31.830  100.244  52.262 
29.802  98.729  49.991 
33.350  101.580  49.895 
30.241  98.898  52.802 
28.191  98.238  51.739 
31.087  100.072  52.781 
27.012  97.436  51.274 
25.628  96.653  56.228 
24.888  95.753  53.081 
25.806  96.318  52.993 
25.602  96.265  55.227 
25.306  95.674  54.014 
22.623  93.403  53.048 
25.188  96.258  51.791 
25.001  95.462  52.131 
23.155  93.455  52.926 
23.762  94.331  51.949 
21.129  90.324  49.902 
21.309  91.060  52.551 
17.468  86.023  53.620 
18.250  86.476  54.013 
20.041  88.437  48.877 
19.154  86.673  51.098 
18.153  86.789  54.740 
18.464  87.880  53.967 
17.374  84.309  54.221 
17.816  84.797  53.351 
17.265  83.631  53.507 
17.163  84.123  52.798 
16.406  81.603  53.459 
16.285  81.532  52.971 
15.942  80.838  52.987 
15.669  81.056  53.503 
15.054  79.961  53.572 
14.761  78.712  52.776 
14.781  78.424  53.146 
14.105  77.232  52.798 
14.148  76.440  52.598 
14.308  76.187  51.806 
13.100  75.322  52.496 
12.679  75.176  54.177 
13.681  75.662  54.386 
13.445  75.342  56.015 
12.478  72.710  52.605 
12.536  73.825  54.275 
12.743  70.777  47.281 
11.736  68.021  50.723 
10.406  68.055  55.533 
11.070  67.016  54.824 
11.592  68.001  51.618 
11.469  65.076  51.788 
11.638  67.087  52.891 
11.518  66.296  51.503 
11.130  69.104  53.165 
10.678  61.589  56.166 
10.617  59.720  53.302 
10.148  62.267  55.969 
11.751  63.276  51.660 
10.874  63.959  52.941 
11.718  61.736  51.564 
10.996  58.802  52.572 
11.596  61.730  49.923 
10.661  58.488  54.013 
11.552  59.368  50.338 
10.646  57.322  52.964 
10.612  55.540  55.967 
10.499  55.522  58.406 
11.098  55.547  56.794 
10.991  53.050  57.708 
10.281  56.858  58.418 
13.371  47.178  48.291 
10.947  50.152  57.252 
12.270  50.985  48.217 
12.262  49.738  50.905 
11.799  51.459  48.683 
12.394  49.820  49.587 
12.167  48.201  51.229 
11.884  48.077  53.343 
13.041  45.049  52.193 
12.851  45.530  51.371 
12.728  46.369  51.668 
13.606  44.612  50.196 
13.225  44.789  51.232 
14.119  44.463  49.705 
13.675  42.185  53.140 
14.034  41.465  55.039 
14.621  40.972  53.288 
14.030  42.537  51.600 
16.695  40.176  49.629 
15.155  41.231  51.103 
13.280  42.892  53.529 
15.450  37.809  54.675 
16.660  37.235  51.811 
16.743  38.159  52.407 
18.187  33.680  52.945 
16.715  37.930  50.490 
17.708  34.415  52.458 
17.162  35.480  52.323 
18.464  33.259  51.562 
19.118  33.580  50.512 
19.170  32.532  50.231 
20.608  31.748  49.588 
19.768  31.788  51.124 
21.598  28.381  51.557 
22.515  28.848  47.096 
22.746  27.549  50.881 
25.525  25.498  49.229 
24.654  25.989  48.572 
26.830  24.108  48.906 
22.239  29.268  47.792 
24.872  25.558  48.052 
24.422  25.879  50.720 
29.731  22.171  49.537 
31.884  21.551  47.299 
26.961  23.544  51.165 
33.023  18.475  52.004 
31.574  19.450  54.958 
31.400  21.524  48.179 
36.957  17.494  49.704 
37.585  16.592  50.795 
34.249  17.940  53.178 
37.074  16.872  53.250 
32.812  19.135  55.032 
33.623  18.631  54.577 
33.830  19.089  50.012 
34.965  18.142  51.303 
38.223  16.976  50.198 
38.785  17.345  48.774 
36.520  18.480  49.161 
35.965  18.048  49.741 
39.406  16.175  49.243 
41.448  15.512  50.079 
42.663  15.887  46.480 
44.314  14.658  47.801 
42.661  14.582  48.645 
40.001  16.378  49.688 
44.353  13.548  50.847 
43.665  14.493  53.867 
47.989  13.324  48.598 
45.339  13.364  50.909 
46.809  13.083  50.750 
46.433  12.952  51.492 
47.608  12.722  50.902 
48.559  12.424  51.974 
49.491  12.727  51.024 
50.336  12.447  50.606 
50.725  12.649  51.807 
51.123  12.169  51.982 
53.187  12.539  51.687 
53.183  11.773  52.208 
54.379  11.954  51.971 
53.688  11.749  52.360 
54.903  11.950  52.176 
54.191  11.413  53.126 
57.721  11.317  50.039 
56.692  10.441  54.371 
57.842  10.556  53.626 
58.314  10.388  52.671 
56.622  11.374  51.397 
57.014  10.950  54.142 
61.270  10.925  51.779 
63.877  10.983  51.807 
64.495  10.652  51.273 
64.401  11.221  49.542 
65.026  11.901  47.656 
66.610  12.090  47.629 
67.123  11.023  50.834 
66.812  11.077  50.421 
63.636  12.017  48.396 
69.140  11.924  48.677 
69.219  10.825  54.183 
66.025  10.652  50.331 
65.955  12.262  46.544 
75.004  12.889  50.682 
76.047  15.601  46.538 
77.558  16.022  46.549 
73.675  13.237  49.325 
77.748  14.180  51.839 
78.128  15.392  47.957 
76.514  15.271  47.390 
79.609  15.234  50.875 
81.514  17.224  49.362 
79.113  16.201  48.645 
82.394  17.593  51.675 
80.250  16.223  49.936 
78.939  15.798  48.024 
78.360  16.345  46.285 
83.844  18.749  49.011 
84.761  19.048  51.564 
83.524  18.775  51.336 
80.453  16.774  47.762 
84.588  19.452  47.613 
84.713  18.445  53.785 
85.752  19.319  51.171 
85.276  18.804  51.485 
87.011  20.431  50.844 
87.594  20.749  51.429 
87.726  21.759  51.083 
88.814  21.772  50.768 
89.244  21.687  50.532 
89.871  22.176  50.687 
90.669  22.997  49.843 
91.065  23.564  50.296 
91.885  24.098  50.190 
91.876  23.993  49.596 
92.687  25.110  49.211 
93.540  25.382  49.583 
93.609  25.664  48.642 
94.753  27.256  48.232 
94.052  26.905  48.236 
95.438  27.889  48.507 
94.006  26.803  49.273 
99.414  32.844  48.653 
97.801  28.549  54.705 
97.485  29.016  51.763 
97.792  30.084  49.829 
97.748  30.543  49.211 
97.107  31.011  46.017 
99.186  31.501  50.466 
98.133  31.128  50.440 
98.056  29.978  50.748 
99.715  32.942  53.274 
99.521  31.590  51.585 
99.527  32.636  54.020 
101.227  36.615  48.766 
101.601  37.627  49.533 
100.525  39.127  45.875 
100.680  38.031  45.923 
101.743  38.161  51.048 
101.539  38.435  49.328 
103.239  40.734  52.012 
102.682  39.523  52.088 
103.188  41.143  50.167 
103.139  40.511  51.024 
103.005  42.585  49.778 
103.504  41.688  50.478 
102.983  43.194  48.619 
103.619  43.170  49.196 
103.747  43.861  48.774 
103.667  43.978  49.670 
105.072  45.407  52.134 
105.879  47.401  51.282 
105.667  48.193  51.563 
106.377  48.329  51.372 
106.780  48.383  52.068 
106.449  49.511  51.733 
106.774  49.756  52.425 
106.758  50.768  51.335 
107.619  52.016  52.549 
107.527  51.726  51.956 
107.526  52.718  52.048 
107.172  53.864  51.538 
108.523  57.062  50.896 
109.109  58.549  54.561 
108.109  54.507  53.468 
108.566  58.080  52.569 
106.654  54.957  48.889 
108.284  60.502  52.973 
108.272  58.179  51.298 
108.194  62.960  51.227 
108.263  57.616  53.372 
107.973  62.647  51.922 
108.318  62.347  55.165 
108.341  62.355  52.917 
107.989  63.004  50.736 
106.881  66.887  49.682 
107.506  66.784  51.128 
107.416  66.445  52.103 
107.346  67.198  51.892 
106.761  65.828  45.528 
107.699  69.311  52.391 
107.095  69.522  51.706 
107.106  69.596  51.190 
107.275  70.124  52.136 
106.682  71.253  51.410 
106.357  72.221  51.533 
106.536  70.406  51.184 
105.657  77.728  52.420 
106.288  74.076  51.057 
106.104  72.554  50.090 
105.641  76.833  51.981 
106.246  75.260  52.056 
106.304  75.817  51.743 
103.372  82.712  50.483 
102.662  81.205  47.123 
103.818  82.870  51.865 
101.747  84.916  50.167 
105.571  78.787  53.160 
102.238  81.188  47.489 
102.461  85.235  52.110 
100.724  84.408  48.033 
99.084  90.684  52.997 
100.196  86.861  48.961 
101.208  87.713  54.617 
102.372  85.912  52.670 
99.810  88.920  50.835 
98.662  90.919  51.633 
96.387  93.113  51.712 
96.923  93.504  53.358 
98.154  92.889  55.606 
98.888  89.828  50.916 
98.394  91.390  50.283 
99.499  89.305  51.900 
97.848  92.311  51.692 
96.249  93.744  48.976 
92.719  95.395  46.290 
98.352  91.480  51.235 
93.246  95.383  48.197 
88.217  99.989  48.355 
93.507  95.734  48.911 
86.612  101.126  49.389 
90.437  98.419  49.748 
88.801  99.821  50.141 
92.023  97.089  49.117 
91.560  97.663  50.785 
88.006  100.349  50.511 
90.310  98.877  50.847 
87.852  100.932  52.354 
88.521  100.430  51.502 
91.352  98.668  52.294 
88.452  100.509  52.416 
82.702  103.831  49.550 
83.083  104.184  50.910 
82.630  103.103  48.852 
84.457  102.799  49.356 
81.597  104.398  52.350 
83.586  102.530  47.518 
80.389  104.677  51.729 
81.822  103.957  49.639 
79.387  105.198  50.980 
81.102  103.522  47.584 
77.784  105.248  51.772 
75.303  106.225  51.049 
76.072  105.849  52.627 
75.835  105.682  51.049 
75.781  106.489  52.081 
74.381  106.970  53.410 
69.090  108.110  48.964 
68.848  107.994  48.107 
70.481  107.762  53.759 
69.584  107.488  50.261 
71.547  107.790  54.002 
