14.562  58.731  39.753 
14.934  54.802  38.146 
16.604  55.544  36.706 
18.007  52.056  34.662 
18.341  52.527  34.296 
17.462  50.182  35.566 
17.979  49.794  35.450 
18.831  49.554  34.967 
15.512  54.048  38.006 
16.060  48.549  40.178 
16.383  52.394  36.465 
15.141  49.663  41.410 
15.723  48.146  41.780 
17.451  46.154  38.798 
18.573  45.569  37.449 
19.345  44.916  36.590 
19.769  45.427  35.536 
19.364  44.214  37.245 
18.931  43.874  37.943 
19.650  41.981  37.618 
20.184  41.520  38.275 
20.435  40.902  37.391 
20.725  39.991  37.557 
21.283  40.075  37.838 
22.542  39.194  37.338 
21.849  39.176  37.091 
21.836  37.014  39.389 
24.303  35.613  36.854 
22.975  36.229  38.234 
23.683  36.936  36.823 
24.569  34.333  37.826 
26.455  30.055  37.794 
25.079  31.315  39.369 
25.497  31.966  38.836 
24.054  35.865  37.702 
26.710  31.649  37.436 
27.283  31.868  36.362 
29.339  30.899  34.475 
27.764  30.577  35.654 
26.115  33.203  36.381 
26.086  30.580  38.513 
33.693  25.954  37.037 
31.643  27.681  35.078 
37.391  26.311  32.986 
29.947  27.820  37.184 
33.283  24.178  41.173 
31.806  24.862  39.418 
32.084  24.946  38.849 
33.006  25.596  37.675 
29.409  26.688  39.954 
33.513  25.069  37.909 
33.466  25.898  36.381 
34.271  23.885  39.138 
34.576  25.944  35.653 
35.460  23.798  37.963 
34.965  25.200  36.078 
31.166  27.005  37.264 
35.838  25.038  35.363 
37.984  22.424  37.513 
42.815  21.923  35.321 
40.735  22.157  35.473 
41.054  22.340  34.509 
39.900  21.669  36.820 
42.806  19.612  37.642 
49.509  20.793  32.061 
43.245  22.262  33.023 
46.113  18.546  36.810 
44.228  21.176  33.678 
49.006  19.510  35.241 
47.690  19.495  35.155 
46.204  19.545  35.436 
49.711  18.923  35.821 
50.903  17.911  36.417 
52.246  18.443  34.517 
53.365  16.005  38.685 
51.099  19.277  33.400 
52.620  18.037  34.875 
51.318  18.071  35.685 
53.880  17.981  34.435 
53.688  16.358  38.317 
57.293  16.481  35.769 
57.991  16.295  35.544 
57.621  15.942  37.539 
56.689  16.673  37.842 
60.248  15.167  38.892 
62.653  15.696  39.443 
63.510  16.305  38.647 
62.863  15.815  38.055 
62.764  16.196  37.232 
64.419  16.671  37.332 
64.788  16.678  36.655 
65.457  16.990  37.279 
65.906  17.041  37.308 
66.903  17.429  36.898 
68.359  17.928  36.743 
69.271  18.411  36.816 
67.879  18.459  35.204 
70.444  18.523  35.900 
71.053  18.721  36.827 
69.597  18.282  36.037 
71.334  18.947  36.004 
73.298  19.131  37.153 
73.629  19.277  36.218 
70.902  19.795  33.624 
74.860  20.124  35.240 
77.759  20.282  35.417 
78.080  20.682  34.080 
77.257  20.855  34.035 
78.878  21.098  34.788 
76.068  20.688  33.494 
80.202  22.670  32.983 
80.788  22.025  35.038 
86.235  24.550  38.218 
81.082  22.139  36.288 
84.296  24.032  36.174 
83.667  22.997  37.150 
88.890  27.451  35.925 
82.987  23.898  34.371 
84.897  24.968  34.809 
88.319  26.927  36.231 
88.907  28.226  34.782 
90.618  29.676  33.872 
87.961  28.171  32.841 
87.460  25.706  40.007 
88.233  27.752  32.639 
91.333  30.136  34.247 
92.679  31.635  35.743 
91.107  28.950  36.874 
88.907  27.200  35.451 
92.660  29.608  37.400 
92.496  32.675  34.078 
92.739  30.875  35.513 
90.637  30.024  34.248 
92.625  34.331  31.571 
93.494  34.185  33.571 
94.260  33.734  37.207 
95.102  36.468  35.179 
94.780  34.738  36.343 
95.260  35.532  36.298 
95.040  37.088  34.434 
95.434  36.941  36.198 
96.099  38.555  36.138 
96.174  39.078  36.647 
96.515  39.797  37.157 
96.801  40.052  35.840 
97.607  41.206  37.438 
97.248  42.743  34.106 
96.261  42.788  33.983 
98.456  44.213  36.111 
98.535  43.994  36.669 
98.721  44.739  35.215 
99.908  45.734  36.093 
99.855  46.333  36.758 
100.679  47.269  36.328 
100.154  46.544  35.910 
100.537  47.430  36.760 
100.207  49.238  34.847 
100.550  49.050  35.328 
101.927  51.119  36.071 
100.900  48.601  36.015 
102.758  50.836  38.417 
103.221  52.930  40.531 
102.188  56.312  33.843 
98.835  50.942  32.210 
103.227  58.062  35.451 
103.038  51.719  37.441 
105.088  56.786  41.162 
102.415  52.464  36.358 
100.487  54.791  31.746 
103.327  57.782  36.406 
104.164  58.227  38.630 
105.240  58.822  40.122 
102.522  53.268  36.047 
101.127  61.307  32.841 
102.528  62.797  35.448 
100.809  69.524  34.530 
103.012  68.141  37.614 
103.512  68.209  39.241 
100.363  67.090  32.357 
100.457  70.036  34.082 
103.307  62.204  37.602 
100.725  68.689  33.954 
99.905  72.635  33.770 
102.534  69.243  37.094 
102.750  70.075  38.366 
98.973  72.747  32.546 
99.882  74.439  34.305 
100.228  71.369  34.965 
101.137  73.859  37.776 
101.134  72.930  36.096 
101.459  71.518  37.182 
98.189  77.417  35.109 
98.792  76.099  34.415 
100.243  76.639  38.420 
99.588  77.661  37.848 
99.140  78.395  36.454 
98.731  78.710  36.642 
98.452  79.225  36.625 
98.332  80.453  37.012 
98.460  81.329  36.804 
98.118  82.107  36.860 
97.709  82.728  36.792 
97.357  83.134  37.726 
94.013  85.525  32.562 
95.040  83.682  33.600 
96.414  85.037  36.496 
96.134  82.773  34.564 
94.466  87.547  37.226 
93.808  86.976  34.198 
96.566  84.949  37.435 
90.915  88.613  32.728 
91.367  89.240  34.398 
92.948  87.339  33.505 
91.480  90.539  35.646 
90.466  90.690  35.115 
89.081  91.042  34.235 
89.845  90.714  34.519 
90.890  91.374  35.771 
89.219  92.556  35.260 
87.943  91.757  35.353 
87.641  92.216  34.834 
87.006  93.229  35.233 
85.970  93.826  34.859 
86.065  94.368  35.661 
85.390  94.507  35.132 
84.393  95.331  35.538 
83.650  95.801  35.170 
82.936  96.272  35.647 
82.395  96.115  34.839 
82.385  95.858  35.529 
80.118  97.432  35.520 
80.596  97.576  35.723 
77.170  99.768  34.681 
79.368  99.252  35.767 
80.166  98.203  36.076 
79.268  98.374  34.922 
79.671  98.001  35.037 
78.554  102.147  40.345 
78.705  99.569  36.410 
77.611  100.202  35.529 
78.158  100.512  37.062 
72.520  102.260  36.666 
76.560  102.567  39.200 
73.009  104.384  40.455 
71.131  103.666  39.702 
72.478  102.882  38.096 
71.535  102.099  35.894 
68.206  102.916  36.699 
68.351  100.877  33.335 
70.643  101.571  33.983 
65.798  102.405  36.357 
66.270  102.377  34.058 
64.176  101.990  35.335 
62.465  102.643  35.382 
61.403  103.277  36.474 
60.289  103.094  35.666 
61.030  102.954  35.302 
60.696  102.286  35.603 
58.412  103.682  36.922 
57.282  103.268  36.059 
56.851  103.523  36.511 
56.055  103.912  37.046 
55.273  103.265  36.791 
54.528  103.217  36.287 
54.040  103.041  36.585 
53.225  103.516  36.889 
52.056  103.250  37.184 
51.268  103.338  37.138 
50.629  103.118  37.107 
48.907  103.035  37.582 
49.491  103.373  38.143 
48.685  102.309  37.942 
43.951  101.520  36.759 
47.310  100.576  34.295 
46.449  102.842  37.570 
42.035  101.611  38.172 
44.449  102.301  37.485 
42.867  100.612  36.640 
43.618  100.383  35.826 
44.119  100.175  34.461 
44.622  101.420  35.947 
42.368  99.578  35.037 
42.645  98.921  34.408 
41.379  98.655  35.345 
40.305  100.021  37.773 
40.786  97.737  34.932 
39.767  98.685  36.378 
36.937  95.950  35.488 
37.900  97.519  36.585 
35.465  96.510  37.034 
35.590  96.970  37.568 
34.571  95.699  37.597 
34.196  95.593  37.246 
34.099  95.281  36.480 
33.220  94.126  36.252 
32.645  94.751  37.283 
30.276  94.045  39.091 
31.906  93.140  36.116 
31.021  93.245  37.237 
26.968  89.086  37.475 
31.046  91.445  34.810 
25.632  86.638  34.982 
26.393  88.415  35.359 
26.350  87.917  34.649 
27.686  90.886  38.629 
27.886  90.457  36.686 
25.990  86.325  34.528 
23.759  85.141  36.480 
26.893  87.098  33.888 
25.690  88.473  38.209 
26.705  84.338  32.203 
24.769  86.799  36.643 
21.218  84.720  41.096 
24.540  82.713  33.333 
22.117  84.308  39.628 
21.458  82.169  39.166 
21.229  82.517  38.409 
20.638  80.929  38.342 
21.361  80.021  36.769 
20.777  80.246  37.398 
20.803  80.512  38.894 
19.911  76.700  35.919 
19.882  77.548  36.999 
20.521  77.477  36.211 
19.217  76.398  37.227 
19.642  74.962  35.668 
18.252  75.048  37.531 
19.462  74.211  35.221 
20.130  71.963  34.358 
19.373  69.926  33.733 
16.771  72.523  38.055 
17.990  71.871  35.517 
16.762  68.405  36.131 
15.458  71.418  39.891 
14.826  70.170  41.549 
15.708  69.180  39.671 
16.375  71.266  38.111 
15.714  68.649  37.741 
15.574  67.791  37.858 
16.187  66.490  37.067 
15.740  64.070  37.034 
16.177  64.190  36.766 
16.264  63.290  37.239 
15.191  62.580  38.020 
15.905  63.458  36.832 
17.787  60.700  34.230 
14.216  57.339  40.903 
17.622  62.138  34.114 
17.197  62.293  34.934 
16.955  55.769  35.202 
15.160  59.236  39.318 
15.634  54.093  37.397 
15.372  59.415  38.448 
15.734  54.903  37.531 
16.854  54.313  35.741 
15.233  57.469  38.038 
16.662  50.291  37.176 
18.811  54.729  33.322 
17.209  50.775  35.683 
17.000  54.135  35.063 
17.552  48.894  36.883 
17.050  46.782  39.039 
14.802  51.347  40.808 
17.852  47.298  38.880 
16.869  48.901  38.698 
16.345  49.710  38.945 
17.888  47.291  37.609 
18.739  45.793  36.737 
18.569  44.153  37.515 
19.040  43.377  37.254 
20.021  42.133  36.866 
19.938  41.298  37.599 
20.497  41.669  37.343 
21.080  40.327  37.298 
21.525  40.099  36.739 
22.207  40.848  36.169 
22.724  39.552  36.357 
22.954  37.339  37.464 
22.543  36.703  38.927 
22.530  35.692  39.130 
24.298  36.366  36.020 
23.890  35.885  36.747 
24.301  35.031  37.776 
26.198  33.789  35.636 
26.883  32.331  36.447 
24.136  34.182  38.221 
25.319  35.341  36.376 
26.757  33.876  34.494 
24.032  31.973  40.197 
26.461  32.737  36.302 
27.878  32.104  34.102 
29.132  28.504  36.972 
29.219  30.047  34.215 
28.147  30.456  35.092 
33.823  27.379  34.370 
32.765  24.828  38.199 
36.749  26.506  33.473 
35.978  26.730  34.227 
35.354  24.481  37.320 
34.564  25.715  37.296 
32.439  27.259  35.090 
33.020  25.708  36.641 
36.277  25.239  35.208 
34.237  26.770  34.451 
36.008  24.147  37.514 
36.065  23.276  37.877 
32.075  26.811  37.071 
36.616  23.646  36.508 
36.754  24.065  36.240 
38.849  23.333  35.933 
40.003  22.463  35.261 
40.010  23.160  34.916 
42.816  23.387  32.148 
44.739  20.186  35.727 
43.269  18.654  37.979 
44.174  19.572  36.124 
39.732  22.278  36.271 
45.200  20.953  33.670 
44.713  19.534  36.196 
46.815  20.490  34.126 
44.004  18.517  37.461 
50.392  18.404  34.866 
50.333  18.222  35.817 
49.526  18.395  35.300 
52.364  17.803  35.555 
52.594  18.633  35.414 
54.774  20.705  30.611 
54.533  16.671  37.387 
57.480  16.803  36.391 
54.964  17.313  35.800 
53.071  18.721  34.424 
56.339  16.654  36.954 
61.996  16.064  37.944 
57.240  15.226  40.104 
57.762  15.063  40.780 
57.479  15.430  39.371 
63.727  17.424  34.534 
62.426  15.595  38.522 
62.824  18.204  33.936 
63.101  16.382  36.419 
64.130  16.515  36.416 
64.685  17.038  35.960 
65.490  16.894  36.369 
66.388  17.276  36.455 
67.584  17.791  36.492 
68.122  18.334  35.942 
69.009  17.641  37.074 
69.127  18.823  35.848 
70.136  18.198  36.195 
69.706  18.795  35.219 
71.036  18.146  37.466 
72.541  18.613  36.837 
73.231  19.222  35.500 
72.904  19.874  34.584 
78.167  19.723  37.537 
78.816  20.568  35.583 
80.075  21.776  34.641 
75.821  20.609  33.121 
77.913  21.989  31.722 
82.276  22.938  36.841 
78.094  21.564  32.630 
80.424  23.100  32.717 
83.726  23.002  38.468 
85.395  24.324  37.156 
82.962  22.606  37.419 
79.719  21.286  34.837 
87.949  29.132  31.060 
87.043  26.497  33.667 
85.450  25.425  36.391 
87.776  26.500  33.759 
90.186  28.580  35.781 
91.881  30.053  35.351 
86.970  30.932  29.632 
90.865  30.190  33.449 
92.541  33.302  32.496 
92.743  32.197  34.993 
88.109  27.267  33.580 
92.767  32.447  33.766 
91.754  30.762  34.587 
91.011  28.479  36.941 
93.232  36.123  31.307 
91.620  34.734  31.107 
91.275  35.717  29.167 
91.180  32.368  32.062 
94.746  34.007  36.899 
92.228  33.894  32.032 
93.687  34.222  34.981 
94.516  36.238  34.510 
94.326  35.748  34.199 
95.622  36.019  36.386 
94.769  38.065  34.362 
95.701  38.922  34.498 
96.872  39.544  36.363 
96.544  40.425  34.873 
97.943  43.349  36.225 
96.930  40.510  35.275 
97.832  41.871  36.216 
96.840  45.547  31.745 
97.394  42.826  35.083 
97.913  43.866  34.476 
98.152  44.540  34.387 
98.347  43.982  35.227 
99.226  45.415  35.698 
99.675  46.158  35.401 
99.421  46.564  35.202 
100.212  47.925  34.983 
100.457  48.281  36.554 
99.321  46.870  34.776 
101.891  52.417  35.423 
99.845  48.950  33.906 
101.701  51.577  35.450 
102.589  52.742  37.796 
100.832  54.188  34.191 
102.997  53.894  37.010 
102.043  52.018  36.015 
102.133  52.863  35.505 
103.572  60.514  36.701 
103.589  54.860  39.367 
102.801  54.740  37.248 
102.347  53.311  36.571 
103.209  54.885  37.883 
100.476  56.202  31.652 
103.400  57.261  37.144 
103.868  60.129  38.065 
102.865  63.504  37.140 
102.843  65.112  37.033 
101.626  65.678  34.675 
100.595  67.671  33.606 
100.866  64.271  32.719 
101.437  66.677  35.205 
102.061  68.454  35.890 
101.162  70.678  35.430 
101.053  71.681  35.465 
100.767  75.179  37.336 
99.435  76.298  36.641 
100.891  72.671  35.243 
103.202  68.986  39.195 
98.268  74.143  32.300 
101.795  74.607  38.560 
99.824  75.459  36.964 
96.327  79.899  32.790 
97.874  75.963  32.181 
99.719  76.854  36.819 
99.089  75.281  35.041 
98.585  78.347  36.256 
98.652  78.956  35.677 
98.926  79.215  36.396 
98.256  79.733  35.929 
98.319  81.014  36.436 
97.745  81.500  36.105 
97.643  82.026  36.248 
97.730  81.833  37.033 
97.108  82.073  36.514 
97.057  83.435  37.211 
96.477  83.299  36.372 
92.978  83.958  30.179 
95.351  86.532  36.725 
96.257  83.756  34.996 
92.739  86.141  32.555 
94.259  86.153  33.781 
92.587  86.478  31.937 
90.386  87.091  30.979 
90.364  89.124  34.526 
90.960  89.119  33.579 
91.050  90.091  35.048 
88.959  91.423  35.025 
88.958  91.884  34.831 
89.277  91.804  35.687 
88.278  91.824  34.226 
87.120  92.443  34.103 
87.241  92.873  34.364 
86.558  93.129  34.843 
86.088  93.355  34.181 
84.945  93.945  34.310 
85.013  93.858  34.997 
84.943  95.619  36.182 
84.629  94.734  35.299 
82.932  95.817  34.900 
81.992  95.604  34.486 
81.802  96.432  35.132 
81.795  95.226  32.980 
80.787  96.651  34.543 
79.510  98.760  36.559 
77.765  96.640  30.437 
78.053  96.989  31.798 
79.826  96.910  33.341 
75.073  101.404  36.723 
76.224  98.822  33.158 
73.335  102.674  38.153 
74.542  101.885  37.193 
73.924  102.783  38.622 
73.830  101.519  36.235 
70.961  102.470  36.104 
74.176  103.167  39.482 
72.362  103.228  39.519 
68.487  102.473  34.950 
69.864  103.354  37.374 
70.713  103.543  38.605 
69.715  101.041  33.692 
67.705  101.107  32.328 
66.370  102.370  35.766 
63.190  102.478  36.052 
66.505  102.590  34.753 
63.196  102.758  35.318 
61.304  102.547  34.794 
59.601  103.310  36.111 
58.638  102.888  35.725 
57.643  102.168  34.186 
57.967  102.840  35.654 
57.284  102.023  35.189 
56.859  102.720  36.389 
56.007  103.430  36.427 
55.359  102.987  36.303 
53.544  103.125  36.193 
52.884  102.400  36.358 
52.720  102.818  36.078 
52.150  102.625  36.720 
51.357  102.822  36.220 
50.376  103.042  37.547 
46.990  102.678  37.325 
47.370  102.915  38.289 
49.446  102.330  36.716 
48.917  102.701  37.067 
48.523  102.435  36.325 
45.794  100.587  34.339 
46.136  99.054  31.808 
46.143  101.864  36.532 
43.373  99.138  33.645 
43.529  98.342  33.089 
48.566  100.579  34.257 
44.771  102.491  38.239 
44.179  99.393  34.165 
40.999  98.277  35.135 
40.700  99.386  37.136 
40.508  98.574  35.875 
38.478  98.062  37.273 
37.443  97.095  36.193 
37.218  96.682  36.865 
36.426  96.336  35.918 
35.901  95.890  36.570 
34.880  95.579  37.266 
35.282  95.811  36.604 
34.414  94.590  36.402 
33.865  94.329  36.355 
33.212  94.196  37.180 
32.379  94.166  36.867 
32.261  92.979  35.463 
27.996  90.989  37.231 
31.932  93.537  36.988 
31.745  91.929  34.966 
28.304  91.751  37.702 
29.076  91.068  36.359 
29.163  90.239  35.110 
25.147  87.532  36.539 
26.886  87.234  34.969 
28.021  86.462  32.725 
25.158  85.954  34.947 
25.239  87.577  35.791 
24.251  85.985  36.802 
22.745  85.603  37.657 
23.259  85.034  36.462 
22.291  85.292  38.490 
23.413  87.116  38.334 
21.653  81.854  37.063 
22.852  82.096  34.697 
21.409  77.477  34.655 
21.353  81.297  37.785 
22.091  80.558  36.921 
21.507  80.506  36.299 
20.458  79.850  37.546 
20.521  78.936  36.815 
19.840  76.681  36.926 
20.657  78.646  36.015 
21.266  74.939  33.873 
17.541  73.505  38.512 
18.795  75.982  37.795 
17.971  72.521  36.182 
19.104  72.984  35.115 
17.938  72.069  36.075 
18.147  74.588  36.936 
20.507  73.238  34.142 
15.491  69.286  41.255 
18.683  71.963  35.089 
16.805  70.211  36.985 
18.164  67.265  34.977 
17.709  65.451  34.679 
15.844  66.982  38.289 
15.225  67.360  38.407 
15.200  65.610  38.665 
17.477  65.839  35.578 
16.737  64.793  35.855 
16.068  63.009  35.958 
15.704  62.745  36.672 
16.825  59.686  36.756 
16.019  68.186  37.209 
19.011  60.262  33.720 
15.948  57.701  36.287 
15.348  61.872  37.596 
18.432  61.627  33.947 
15.197  59.678  38.963 
15.444  56.422  38.364 
15.220  54.079  38.506 
16.568  60.502  35.545 
15.652  50.681  39.640 
16.540  56.721  36.954 
19.555  56.509  32.416 
17.614  56.283  34.365 
17.577  50.964  35.145 
16.813  47.951  40.140 
16.024  50.307  39.723 
17.580  48.095  38.086 
17.138  50.422  37.149 
16.503  48.124  39.321 
18.123  47.793  36.465 
17.754  46.681  37.350 
19.118  45.523  36.204 
19.456  44.078  36.502 
19.414  44.532  35.849 
19.134  45.021  36.147 
19.483  43.608  37.211 
20.534  41.326  36.729 
20.845  40.968  36.888 
21.643  40.204  36.170 
21.828  40.843  35.598 
22.201  39.586  36.146 
22.763  39.210  35.483 
22.817  37.908  37.051 
22.768  36.779  38.324 
22.988  37.532  38.066 
23.543  35.690  37.525 
23.203  37.013  37.171 
24.574  35.466  36.368 
25.529  34.524  36.849 
24.050  35.334  38.156 
25.636  33.982  36.345 
25.934  32.530  36.907 
26.789  31.774  36.353 
27.338  33.825  34.084 
25.073  32.973  38.860 
27.828  31.637  34.861 
26.648  31.078  36.941 
31.674  26.886  36.511 
34.938  26.815  34.055 
31.823  29.442  34.338 
32.460  28.931  33.042 
34.710  28.244  33.657 
37.625  28.151  31.860 
33.007  27.632  34.654 
37.157  26.283  34.132 
34.191  26.684  35.402 
34.661  24.736  38.595 
31.761  26.623  36.017 
35.294  24.211  38.244 
34.256  24.950  37.733 
38.422  24.923  33.335 
36.786  23.188  37.194 
39.568  25.251  33.088 
37.271  24.826  34.275 
38.991  25.822  32.534 
44.194  20.396  34.993 
38.612  22.818  36.863 
40.719  23.240  33.407 
39.919  23.564  34.249 
42.176  19.976  37.225 
47.590  20.696  32.647 
46.956  18.577  36.575 
46.469  17.843  38.104 
43.469  20.506  36.047 
48.957  19.387  34.316 
50.770  18.784  35.348 
47.688  19.980  34.380 
45.313  25.562  29.450 
50.265  19.328  34.049 
50.796  19.769  32.525 
50.017  18.689  34.613 
52.676  19.210  32.605 
53.907  17.823  35.153 
58.999  17.925  32.811 
54.231  17.518  36.338 
57.987  16.499  37.479 
55.667  16.998  36.441 
53.463  18.756  33.539 
61.827  17.449  34.359 
60.636  16.729  35.303 
57.363  15.976  38.019 
58.179  15.187  38.326 
60.848  16.558  37.315 
62.498  16.702  35.944 
63.916  16.956  36.191 
64.320  17.384  35.363 
65.068  17.393  35.662 
66.016  17.791  35.235 
66.588  17.651  36.037 
66.767  18.355  36.160 
67.687  18.665  36.063 
68.596  18.715  35.089 
70.566  20.544  31.998 
70.937  18.609  35.690 
71.765  18.950  35.199 
72.078  18.530  35.990 
76.553  19.519  36.902 
77.718  20.972  34.364 
74.240  20.181  34.372 
74.598  20.528  33.496 
76.826  19.966  34.905 
75.608  21.858  31.326 
74.799  19.877  33.895 
78.687  20.118  36.210 
84.235  24.124  35.216 
81.644  22.490  34.809 
81.607  22.027  35.447 
78.964  22.010  33.806 
78.536  24.527  30.108 
83.521  23.706  35.625 
81.656  24.538  31.859 
82.807  23.002  35.825 
88.908  28.135  33.176 
90.713  28.833  35.170 
87.039  29.084  30.212 
91.732  31.341  32.627 
91.478  29.101  35.523 
93.233  33.314  34.308 
86.411  26.760  33.407 
86.335  28.432  31.189 
90.171  27.939  37.025 
90.906  32.911  30.839 
91.851  29.472  36.812 
92.431  31.866  33.292 
91.423  29.865  34.889 
89.141  28.660  32.513 
93.609  35.562  34.448 
93.800  32.803  36.050 
93.039  35.090  31.877 
93.660  34.185  34.448 
94.270  33.551  36.277 
94.500  34.094  36.053 
94.947  35.000  35.657 
95.100  37.754  33.805 
95.138  37.572  35.606 
95.203  38.821  33.874 
96.469  39.151  35.528 
97.948  42.835  35.702 
95.526  38.273  34.457 
96.603  39.684  35.389 
96.668  41.036  35.834 
97.300  43.187  34.349 
96.874  43.138  33.602 
97.944  44.316  35.219 
97.243  43.918  33.824 
98.104  46.082  34.039 
98.454  45.036  35.807 
98.959  45.431  35.177 
99.135  46.342  34.729 
100.380  47.389  35.882 
99.139  47.980  34.405 
99.783  48.235  34.506 
100.679  49.937  34.902 
101.163  50.331  35.508 
103.309  51.952  39.078 
102.469  51.871  37.609 
103.181  53.271  37.367 
101.196  54.427  33.087 
102.266  52.668  36.751 
101.050  52.313  35.693 
102.081  57.241  33.907 
102.952  59.412  36.653 
105.074  57.337  39.168 
102.392  55.421  34.425 
103.543  55.712  38.039 
103.400  55.636  37.196 
102.405  54.719  35.558 
101.985  65.243  35.398 
103.224  61.151  35.927 
100.329  67.341  33.980 
101.186  61.979  32.376 
103.580  68.051  40.318 
100.504  63.605  32.350 
101.290  69.829  35.341 
101.323  66.023  33.752 
99.823  75.198  34.886 
101.910  70.099  36.268 
100.376  72.271  34.022 
99.972  70.595  33.758 
102.368  66.568  35.588 
99.935  75.927  36.156 
100.225  75.179  36.836 
96.143  78.201  32.359 
100.429  74.539  36.018 
98.627  74.821  34.278 
96.920  74.733  30.461 
98.862  73.539  32.714 
98.396  77.431  33.534 
98.660  78.274  34.976 
97.959  79.170  35.441 
98.212  79.577  35.376 
97.466  80.682  36.443 
97.732  80.691  35.543 
96.949  81.856  35.738 
97.096  81.505  34.037 
97.243  83.808  36.949 
97.233  82.750  36.074 
93.512  86.073  33.297 
97.008  83.049  36.898 
91.456  87.273  32.558 
91.846  87.491  33.877 
93.112  86.657  33.963 
95.792  85.317  35.419 
91.049  87.017  32.431 
91.940  86.664  32.341 
94.785  82.120  31.235 
90.296  88.759  33.216 
88.730  89.448  31.858 
90.522  90.132  34.479 
90.013  90.267  33.882 
89.460  90.062  34.075 
87.574  91.531  33.332 
87.732  91.155  34.184 
87.338  91.999  34.291 
86.313  92.573  33.565 
86.326  92.641  34.200 
85.346  93.470  33.608 
84.530  94.073  33.677 
84.261  94.653  34.259 
84.025  94.604  34.970 
83.483  95.243  35.247 
83.333  94.859  34.165 
81.116  96.355  33.891 
83.092  95.473  34.509 
81.393  96.693  35.204 
80.783  97.390  36.246 
80.425  95.978  33.341 
79.642  97.191  33.808 
78.478  97.516  33.064 
78.810  99.089  35.748 
78.497  98.559  35.610 
74.108  101.001  35.825 
74.920  101.621  37.426 
72.854  102.774  38.955 
73.387  101.725  36.564 
73.242  101.358  35.732 
72.770  102.679  37.499 
72.611  101.564  34.980 
69.020  102.255  34.763 
70.259  102.432  35.447 
69.297  102.177  35.946 
71.207  101.976  34.898 
67.612  99.880  31.267 
65.816  101.198  31.432 
65.552  102.217  35.345 
61.909  102.410  34.129 
61.606  102.695  35.940 
59.837  102.868  35.190 
57.100  102.543  34.515 
58.734  103.248  36.096 
58.547  102.716  35.100 
57.869  102.661  34.825 
57.051  102.399  35.972 
56.653  102.999  35.601 
56.073  102.674  36.001 
55.195  102.595  36.055 
53.581  102.239  35.944 
53.136  102.412  35.328 
52.070  102.520  35.810 
51.555  102.033  36.336 
51.360  102.280  35.652 
50.716  102.574  36.199 
50.322  102.308  36.881 
49.784  102.858  37.171 
47.777  102.712  36.825 
46.191  102.688  36.877 
47.816  99.838  33.422 
46.646  102.431  38.508 
45.755  99.695  33.116 
49.506  101.738  34.910 
44.065  101.110  36.153 
44.082  101.973  37.371 
45.807  98.244  31.560 
43.350  99.997  34.869 
42.767  98.118  32.901 
41.398  98.225  34.456 
39.403  97.974  35.827 
39.354  97.406  34.860 
38.247  97.438  36.190 
37.911  96.673  35.929 
37.397  96.384  35.765 
35.951  96.388  36.293 
35.366  96.053  36.063 
34.738  95.258  35.883 
35.184  95.069  35.922 
34.433  94.599  35.750 
34.056  93.990  35.209 
33.154  94.104  35.752 
32.793  93.277  36.109 
31.294  93.639  37.570 
31.586  92.419  35.121 
30.523  88.923  32.917 
25.427  86.747  36.013 
28.868  89.986  35.490 
30.300  91.431  35.279 
27.553  87.002  33.490 
25.503  85.682  34.303 
29.724  89.393  34.000 
29.019  87.894  33.657 
27.211  86.851  32.920 
26.355  85.284  32.371 
23.808  83.302  34.292 
26.466  85.864  32.989 
22.837  83.559  37.141 
22.023  83.364  38.213 
23.682  84.285  35.552 
22.852  82.509  35.268 
22.338  82.410  35.475 
22.180  83.945  37.303 
21.319  80.998  36.938 
23.276  81.908  33.848 
20.746  80.579  38.036 
21.196  79.488  36.987 
20.090  79.170  37.664 
21.440  79.511  35.405 
20.899  77.946  35.665 
19.819  77.098  36.279 
19.991  75.037  35.170 
18.586  74.219  36.499 
22.240  74.847  32.501 
21.811  73.950  32.639 
17.633  72.304  37.130 
18.508  69.870  34.637 
21.273  72.950  33.643 
17.107  70.487  36.560 
18.420  68.245  34.791 
18.118  69.868  35.336 
16.764  69.385  37.047 
17.242  71.443  36.752 
15.894  69.609  38.557 
16.410  67.227  37.542 
16.363  68.494  36.896 
17.430  67.203  35.415 
17.400  68.624  35.592 
19.225  62.918  32.944 
17.576  62.806  34.455 
16.727  59.940  34.771 
15.543  61.899  38.367 
18.777  56.344  32.699 
17.156  59.962  35.181 
15.536  60.460  37.150 
16.520  58.767  36.040 
17.603  60.014  34.999 
14.869  56.651  38.969 
15.674  58.662  37.953 
16.362  56.183  36.781 
19.418  54.923  32.782 
19.827  48.787  32.189 
21.339  46.839  32.229 
20.995  47.654  30.760 
17.693  55.758  34.156 
16.608  52.750  35.832 
16.912  50.493  37.819 
17.526  48.333  37.647 
16.015  49.418  39.695 
19.121  47.825  35.479 
19.626  46.589  35.311 
19.808  45.479  34.649 
19.567  44.996  35.303 
19.887  43.430  36.075 
19.542  42.892  36.774 
20.880  42.518  37.056 
21.341  41.686  36.824 
21.335  40.542  36.928 
22.214  41.611  34.581 
22.300  40.664  35.717 
22.203  40.011  35.597 
23.410  38.657  36.360 
23.139  37.688  36.669 
22.646  38.647  37.223 
23.826  38.454  35.430 
24.066  37.663  36.518 
23.158  36.400  37.406 
25.229  36.436  35.001 
26.118  36.142  34.788 
26.852  30.790  37.656 
28.458  32.742  33.050 
26.566  33.092  35.567 
26.722  33.026  34.678 
29.227  31.078  33.249 
28.091  32.220  33.632 
29.707  28.976  35.113 
26.734  28.994  39.862 
25.417  32.603  38.018 
32.407  25.606  37.802 
32.086  28.540  34.152 
30.636  29.727  33.161 
35.791  25.450  34.538 
34.007  28.426  33.739 
35.571  25.126  36.253 
34.930  25.398  35.190 
36.703  24.749  35.005 
34.084  25.892  36.112 
36.055  24.312  36.626 
33.768  26.917  35.096 
37.335  25.330  35.002 
40.656  22.601  34.677 
41.203  23.000  33.485 
40.550  21.292  36.728 
39.034  22.177  36.564 
44.176  20.952  34.260 
37.108  23.842  36.917 
39.245  22.963  35.734 
41.861  19.888  38.913 
45.194  19.370  36.189 
41.752  21.034  36.167 
46.712  20.884  33.065 
42.674  21.254  34.865 
44.635  18.981  37.925 
45.403  21.578  33.055 
46.772  19.106  35.798 
47.054  19.464  35.451 
49.824  19.247  33.833 
48.622  20.091  34.522 
51.303  18.303  34.891 
54.261  20.065  31.764 
49.753  19.073  34.674 
51.849  18.715  34.638 
54.188  18.502  33.255 
54.327  17.472  37.282 
55.609  17.304  35.137 
60.177  15.153  39.558 
61.654  17.345  34.965 
59.818  15.508  38.449 
60.251  17.020  35.273 
56.843  16.502  36.060 
59.462  15.815  37.363 
60.668  16.200  36.114 
62.679  17.285  35.214 
63.801  17.232  35.376 
63.573  17.461  35.002 
64.637  17.894  34.601 
65.263  17.897  35.271 
66.691  17.972  35.354 
65.903  17.460  35.602 
67.345  18.062  35.520 
67.171  18.997  34.755 
69.106  19.345  35.184 
70.329  18.859  35.052 
76.133  19.918  35.541 
71.193  18.394  36.502 
73.809  18.959  36.524 
72.492  19.590  34.472 
81.028  21.773  35.858 
74.876  20.632  33.020 
76.035  21.993  31.534 
78.998  23.970  30.465 
77.635  20.734  33.551 
74.703  22.578  30.421 
78.278  20.573  34.850 
82.384  26.635  30.128 
81.552  21.875  37.127 
80.424  21.350  35.547 
84.446  24.493  34.736 
76.995  23.001  31.434 
87.318  28.595  31.122 
84.714  25.223  35.203 
76.713  20.953  33.631 
84.676  24.676  33.858 
88.065  26.175  36.182 
88.022  29.842  30.591 
89.886  30.718  32.327 
89.708  30.202  31.577 
90.716  29.310  35.667 
89.637  28.603  33.621 
92.118  30.435  35.790 
91.238  34.648  30.708 
91.116  30.528  33.831 
89.140  30.394  30.758 
90.837  34.244  29.732 
89.370  28.548  34.473 
92.419  30.272  36.591 
92.408  32.597  32.541 
93.429  34.747  34.137 
93.222  37.750  29.941 
94.168  35.353  34.923 
94.152  34.816  35.684 
94.628  36.598  34.893 
95.222  37.674  34.994 
93.819  36.474  32.536 
94.081  37.061  33.041 
95.973  39.821  34.005 
94.692  37.704  32.956 
95.149  41.674  31.129 
97.305  41.807  35.400 
96.024  41.017  33.424 
97.086  42.061  34.456 
96.534  41.480  34.164 
96.518  40.682  34.314 
96.549  43.338  32.845 
98.353  45.501  34.845 
98.918  46.695  33.662 
99.630  47.581  34.301 
99.741  47.409  34.757 
99.605  47.903  35.920 
98.247  46.918  33.658 
100.195  50.568  33.661 
100.928  49.338  35.460 
100.901  51.686  34.905 
101.588  50.301  36.350 
100.713  50.839  35.120 
100.931  55.292  33.446 
103.082  56.980  36.333 
102.819  56.283  36.562 
102.221  54.195  34.822 
102.524  54.019  35.611 
103.540  56.417  37.466 
103.302  56.526  37.056 
102.428  55.430  36.299 
102.522  60.967  34.168 
102.773  61.013  35.157 
101.091  58.201  32.827 
102.683  64.700  36.116 
102.283  64.863  35.500 
100.300  68.416  32.960 
100.891  65.744  32.941 
102.720  63.864  36.107 
101.266  68.999  35.157 
99.927  71.096  33.786 
102.368  65.924  35.611 
101.840  65.444  34.022 
100.954  70.650  34.660 
98.992  73.782  33.557 
99.580  73.736  34.248 
99.582  71.402  32.773 
99.104  72.198  32.714 
99.363  74.973  34.290 
101.734  73.712  38.465 
100.750  76.177  37.901 
99.109  75.464  34.246 
98.767  76.749  34.981 
99.319  76.795  35.646 
97.941  74.956  32.490 
99.365  77.054  36.052 
98.199  79.224  34.057 
98.544  78.677  34.327 
98.141  79.154  34.805 
97.664  81.474  35.494 
97.030  82.295  34.586 
96.105  83.047  33.821 
96.785  84.322  36.208 
96.094  84.603  35.006 
95.435  83.913  34.385 
91.432  85.762  30.273 
92.747  87.935  34.281 
94.208  83.321  31.389 
92.474  85.676  31.389 
92.279  87.086  32.941 
89.899  88.508  32.024 
88.804  87.899  30.382 
93.017  85.959  31.819 
89.687  89.263  32.426 
90.192  89.583  33.251 
88.732  90.204  33.596 
90.599  89.617  33.845 
88.343  91.072  33.575 
88.316  90.797  33.103 
87.107  92.261  33.630 
86.848  91.855  33.145 
85.565  92.403  33.528 
85.675  93.039  33.934 
84.120  93.595  33.178 
84.254  93.638  33.642 
83.353  94.210  33.489 
83.413  94.422  34.363 
82.573  95.055  33.352 
82.985  95.341  33.619 
82.174  95.052  33.652 
77.725  98.842  33.645 
78.613  98.050  33.525 
81.274  95.856  33.414 
77.874  97.284  32.551 
76.923  97.079  30.657 
78.484  98.552  34.347 
76.888  98.734  33.815 
76.892  99.304  33.881 
75.239  101.191  36.305 
77.523  100.423  35.921 
73.762  102.018  37.079 
73.190  101.962  37.209 
72.024  102.032  36.602 
71.810  101.694  34.810 
69.132  101.641  35.311 
70.689  103.173  37.746 
72.275  101.495  35.803 
67.257  98.277  29.065 
66.445  102.237  33.528 
63.583  101.336  32.505 
65.115  102.401  35.165 
62.518  102.354  34.616 
61.756  102.616  34.822 
61.606  101.917  34.247 
59.230  102.293  35.236 
58.639  102.303  34.608 
59.350  102.155  34.175 
58.078  101.448  34.172 
57.635  101.791  33.612 
57.068  102.824  35.246 
55.806  102.519  35.447 
55.800  102.101  34.306 
54.955  102.686  35.558 
53.465  102.246  34.952 
52.431  101.771  35.107 
52.245  102.410  35.264 
50.710  101.905  34.929 
50.708  101.441  34.196 
49.840  102.179  35.656 
50.262  101.970  36.054 
49.030  102.001  35.768 
48.235  102.926  37.346 
47.597  101.579  36.820 
45.515  100.153  33.733 
48.336  101.391  35.667 
50.009  100.905  34.415 
49.049  99.148  30.828 
43.275  100.896  35.982 
46.721  101.576  35.272 
45.043  99.568  34.186 
41.465  98.116  35.315 
40.816  97.229  33.105 
40.297  96.611  33.625 
41.134  97.183  33.846 
38.624  97.734  36.075 
38.555  96.450  35.137 
38.037  96.823  35.389 
37.422  96.347  35.022 
36.014  95.605  35.881 
35.907  95.619  35.405 
35.094  94.291  35.565 
34.254  93.941  34.614 
33.980  94.243  35.638 
33.433  93.319  34.967 
32.887  92.668  35.389 
29.929  91.486  35.993 
29.704  94.645  40.200 
31.854  92.616  35.484 
25.236  88.310  37.544 
29.804  92.014  36.732 
28.471  89.615  34.889 
27.015  88.244  34.971 
30.359  88.174  32.381 
29.149  89.538  34.569 
22.910  84.165  36.321 
28.378  88.047  33.571 
30.455  89.780  33.275 
23.696  85.015  35.631 
23.766  83.915  34.687 
25.676  84.092  32.375 
21.736  83.741  39.208 
23.069  86.337  37.735 
22.523  86.038  38.270 
22.175  79.668  35.474 
22.505  79.953  34.047 
21.828  81.092  37.027 
22.329  80.950  34.823 
22.146  80.666  35.723 
21.052  78.912  35.745 
19.421  75.917  36.596 
21.282  80.655  37.570 
21.281  79.073  36.566 
20.239  78.165  36.803 
22.197  78.146  34.535 
19.350  72.561  35.596 
21.812  75.039  33.155 
17.797  73.117  37.509 
16.101  69.346  37.843 
19.011  73.407  36.019 
19.138  71.298  34.594 
17.589  69.611  35.057 
20.219  72.805  34.117 
19.334  67.816  33.136 
17.598  67.807  34.930 
16.192  65.662  36.787 
18.529  67.438  34.215 
18.034  66.105  34.296 
15.853  66.000  38.014 
17.722  71.249  36.105 
18.117  68.978  35.512 
17.204  64.214  34.962 
17.744  64.175  34.323 
17.111  61.386  35.094 
17.481  60.234  34.181 
15.726  57.583  37.837 
16.080  61.017  35.924 
16.124  60.190  36.522 
16.638  57.058  35.563 
14.213  55.720  41.827 
15.870  56.576  37.669 
17.173  57.452  34.906 
17.145  53.375  35.548 
17.830  53.156  35.334 
15.093  55.410  39.296 
16.897  51.759  37.178 
17.075  51.485  36.405 
17.449  53.835  34.453 
18.206  51.749  33.776 
16.240  51.791  38.474 
17.277  47.531  38.142 
18.698  46.256  36.001 
19.512  46.327  34.802 
20.037  44.584  35.768 
20.326  43.585  35.647 
20.915  43.530  35.117 
20.706  42.299  36.154 
21.604  42.049  36.126 
21.535  41.146  36.514 
22.087  41.603  35.537 
21.208  43.351  34.357 
21.886  42.344  33.991 
22.360  40.755  34.473 
22.732  40.397  35.144 
23.454  39.323  35.819 
22.208  38.380  37.109 
24.017  37.320  35.609 
25.191  34.518  37.660 
24.102  37.066  36.045 
25.999  36.300  33.716 
25.037  37.087  34.448 
27.132  32.541  35.703 
25.973  38.169  32.610 
26.249  30.924  37.690 
26.461  35.205  33.507 
28.533  30.159  35.824 
25.643  30.279  39.761 
29.818  30.849  32.565 
30.064  28.241  35.630 
29.820  29.486  34.838 
32.728  28.242  33.427 
32.163  27.905  34.533 
32.985  29.424  32.496 
31.119  29.734  33.248 
33.189  27.947  33.984 
34.912  24.733  37.308 
32.572  28.336  34.554 
34.538  27.323  33.738 
40.259  23.886  33.540 
39.308  27.613  31.857 
37.378  24.242  35.110 
38.084  24.717  34.364 
38.675  23.236  35.050 
37.764  22.758  36.716 
44.308  21.861  33.797 
38.215  23.755  35.193 
36.302  26.039  34.096 
37.619  25.395  33.166 
41.393  24.589  31.862 
41.236  22.863  33.960 
46.354  22.085  31.207 
44.100  19.998  36.218 
44.008  24.203  30.582 
47.323  20.116  34.840 
43.742  20.003  36.710 
48.447  21.113  33.003 
52.715  19.834  31.663 
48.104  19.706  34.691 
49.134  18.849  35.056 
49.061  20.576  31.871 
50.414  19.961  33.487 
52.038  20.280  32.187 
52.451  19.439  31.915 
55.884  17.652  34.775 
55.116  16.784  36.478 
56.931  17.716  33.629 
60.572  15.928  38.531 
58.893  17.207  35.122 
54.318  17.906  34.624 
55.436  17.123  35.644 
59.557  15.812  38.183 
57.855  17.066  36.016 
60.138  16.526  36.812 
54.958  17.723  33.915 
61.077  17.556  34.701 
63.336  16.778  35.706 
63.745  18.531  34.271 
65.335  18.777  34.597 
66.113  18.594  34.675 
64.565  18.313  33.743 
65.801  18.651  33.265 
68.449  19.668  33.713 
70.599  19.399  35.137 
69.722  20.209  31.888 
68.934  19.900  33.956 
71.593  19.481  34.343 
74.038  20.334  33.573 
70.075  18.993  35.854 
79.482  22.424  32.684 
72.489  19.032  35.630 
73.773  20.837  32.260 
75.014  19.335  35.692 
74.208  21.461  32.086 
75.676  23.357  29.524 
75.478  22.472  30.712 
75.863  26.050  27.854 
79.028  21.468  34.435 
79.720  20.604  36.059 
82.296  22.521  35.594 
76.372  23.021  31.094 
79.762  25.276  29.564 
83.477  24.358  34.041 
87.596  27.018  33.818 
85.410  25.484  35.333 
85.425  28.918  29.318 
87.029  28.077  31.891 
81.842  25.851  31.247 
84.693  24.872  36.260 
85.364  31.238  27.747 
88.720  35.430  27.697 
91.106  30.877  32.896 
88.229  32.385  29.228 
92.042  31.362  33.467 
91.737  32.292  32.945 
93.020  35.454  32.715 
90.335  30.436  33.226 
92.424  34.906  31.104 
93.313  37.657  30.490 
93.087  36.481  32.690 
93.793  36.914  32.059 
93.676  34.985  33.781 
94.604  35.497  35.991 
94.728  35.845  35.150 
94.773  37.017  33.607 
94.340  38.146  32.955 
95.269  37.592  34.191 
94.746  39.423  32.007 
95.227  38.355  34.980 
94.988  38.489  33.357 
97.149  41.824  36.251 
97.036  42.375  34.872 
96.799  41.342  34.851 
96.494  44.332  31.978 
96.392  43.568  33.297 
97.487  45.912  32.422 
97.391  44.529  34.489 
98.262  46.357  33.263 
97.937  46.679  32.531 
99.905  47.178  35.420 
97.676  47.693  31.439 
99.009  48.526  33.696 
100.548  49.984  34.423 
100.955  55.000  32.547 
101.630  53.116  34.192 
101.225  53.759  33.833 
100.859  51.169  34.118 
102.805  55.482  36.799 
101.350  50.790  35.628 
101.450  53.507  34.840 
102.552  55.514  35.305 
100.404  57.471  31.945 
101.322  55.893  32.911 
101.246  60.447  33.571 
101.685  57.153  33.184 
102.826  56.301  35.167 
100.842  62.110  32.673 
101.487  61.215  33.218 
100.881  60.317  32.253 
101.706  64.933  34.349 
98.449  60.553  29.687 
101.922  63.208  34.310 
100.988  63.483  33.718 
99.983  69.095  34.170 
100.574  65.940  33.629 
101.085  71.293  36.235 
99.261  70.657  32.555 
101.528  70.072  35.942 
99.738  70.081  32.984 
99.562  72.078  32.925 
98.556  74.552  32.631 
101.609  73.986  37.959 
97.983  74.966  31.932 
98.894  74.317  33.026 
100.198  74.498  35.139 
97.861  77.757  33.673 
98.345  73.314  32.099 
100.404  74.531  36.869 
99.168  76.060  35.530 
98.065  78.404  33.723 
98.554  76.737  33.969 
97.515  80.717  34.560 
97.474  80.084  34.942 
97.123  81.461  34.759 
96.779  82.605  35.318 
97.618  79.958  34.100 
95.764  81.905  32.445 
92.737  82.726  29.291 
90.826  86.665  31.823 
95.707  84.758  34.208 
96.160  84.730  35.766 
93.146  84.958  31.105 
94.309  85.360  33.454 
89.096  87.919  31.124 
88.922  88.440  31.735 
89.466  87.860  31.851 
90.632  87.544  31.615 
89.118  89.876  33.411 
88.835  89.641  32.773 
89.207  90.743  33.861 
88.588  91.242  34.332 
87.272  89.660  31.069 
87.559  90.394  33.009 
87.564  91.161  32.916 
86.230  92.343  33.072 
85.574  92.171  32.508 
84.796  92.706  33.902 
83.842  94.359  33.397 
83.780  93.809  32.750 
83.174  93.136  32.765 
83.038  94.551  32.866 
82.594  94.625  32.635 
81.219  95.250  33.003 
80.056  96.308  32.337 
81.045  97.078  35.246 
81.589  96.273  34.357 
79.114  96.562  32.034 
77.280  97.354  31.393 
76.854  98.002  31.870 
76.787  100.280  35.166 
74.485  100.539  35.167 
76.267  100.182  35.515 
74.929  99.831  34.814 
74.642  99.410  33.408 
73.573  99.877  34.023 
74.262  101.504  36.564 
72.837  101.038  35.074 
72.953  99.974  33.121 
71.526  101.281  34.256 
72.761  100.585  33.980 
68.955  99.157  30.520 
67.800  102.145  33.873 
68.524  99.695  31.038 
69.902  100.560  32.827 
63.296  102.384  33.912 
63.297  102.453  34.437 
60.127  102.377  34.636 
60.706  101.770  33.412 
58.865  101.785  33.596 
59.899  100.730  33.193 
58.349  100.886  32.883 
58.255  102.087  34.147 
56.459  102.626  34.611 
56.514  101.725  34.561 
55.183  101.960  34.423 
55.629  102.625  34.943 
54.093  102.237  35.232 
53.813  101.450  34.926 
51.758  101.839  34.738 
51.201  101.921  34.788 
50.833  101.355  35.649 
49.729  100.436  33.478 
49.138  101.497  35.658 
52.936  100.728  33.283 
46.173  101.795  35.892 
45.782  100.119  34.562 
52.328  99.902  30.900 
49.895  100.403  32.531 
47.983  101.235  34.329 
47.427  100.064  33.046 
47.183  99.365  32.460 
43.823  100.760  35.137 
45.549  99.270  32.416 
41.765  98.168  33.771 
42.684  97.168  32.641 
40.642  97.528  34.362 
39.102  97.401  35.304 
40.287  97.139  33.705 
39.076  97.587  35.852 
37.896  95.836  34.943 
37.083  95.873  34.565 
36.831  95.362  35.107 
35.538  94.605  34.402 
34.874  94.477  34.755 
34.860  94.059  34.177 
33.475  93.801  35.067 
33.345  92.937  34.321 
32.813  92.546  34.657 
33.145  91.972  34.184 
31.438  92.696  36.826 
31.194  92.536  36.032 
28.326  90.543  36.043 
30.007  89.379  34.428 
32.381  91.164  33.144 
29.507  91.062  35.570 
31.433  92.037  35.409 
31.596  90.673  34.474 
27.801  83.891  31.196 
25.320  84.725  34.714 
23.448  85.798  37.068 
21.811  86.391  40.323 
28.450  84.452  30.067 
23.241  83.560  35.994 
26.223  86.933  34.668 
23.885  82.371  33.922 
25.579  81.640  31.931 
25.704  83.636  32.712 
21.994  81.791  36.084 
24.810  82.419  32.539 
20.387  76.597  35.204 
22.371  79.221  34.650 
20.515  77.189  35.583 
21.099  76.361  34.464 
20.450  73.614  34.478 
21.157  75.880  34.233 
18.937  76.929  37.677 
18.906  72.543  34.947 
18.364  73.282  36.799 
18.568  72.690  35.729 
20.518  70.534  32.859 
22.320  75.693  34.186 
17.627  70.545  35.341 
19.686  69.417  33.414 
20.031  71.341  33.379 
18.048  69.029  34.298 
18.054  69.640  34.551 
18.429  68.672  33.935 
19.843  71.615  34.219 
19.022  68.604  33.416 
16.681  63.725  36.186 
16.741  67.704  36.345 
17.117  61.143  34.426 
15.690  60.996  36.828 
18.884  61.272  33.752 
16.677  61.256  36.072 
16.594  56.686  36.064 
21.361  57.341  30.624 
17.367  59.594  34.294 
18.242  59.465  33.705 
17.419  56.433  35.038 
15.588  58.425  36.853 
15.933  55.687  37.101 
20.648  55.667  30.886 
16.816  57.913  35.611 
18.421  56.152  33.454 
18.030  53.193  33.879 
17.655  57.075  35.460 
17.628  57.975  34.233 
20.171  48.019  32.005 
17.332  49.608  36.948 
16.949  48.823  37.872 
16.797  48.132  38.473 
18.214  48.854  35.166 
18.848  46.325  35.267 
19.259  45.816  35.611 
19.607  44.031  35.753 
20.504  44.309  35.065 
20.751  42.770  35.596 
21.445  42.521  34.813 
21.616  41.695  35.231 
20.568  43.522  34.768 
21.957  42.913  34.407 
22.312  41.549  34.039 
22.899  41.151  34.586 
21.947  40.789  35.040 
22.701  39.570  35.046 
24.296  38.979  33.413 
26.739  36.232  32.129 
24.026  37.859  35.224 
24.835  37.188  35.279 
24.589  38.734  34.747 
25.177  35.218  35.788 
25.649  34.834  35.549 
26.181  35.959  33.024 
26.348  34.873  34.405 
27.541  34.001  33.471 
28.277  33.756  32.443 
30.617  31.230  32.232 
30.391  32.175  31.487 
27.039  31.038  36.173 
31.033  29.161  33.835 
27.304  28.240  41.056 
32.000  29.705  32.726 
34.559  28.943  32.159 
33.505  28.599  32.935 
32.932  28.710  33.615 
36.427  24.209  35.485 
35.095  28.315  33.077 
36.319  25.397  34.393 
34.978  25.660  35.816 
35.976  27.428  33.291 
40.424  24.156  34.023 
38.755  25.247  33.485 
37.874  23.892  34.860 
40.798  24.202  33.026 
39.302  23.073  35.097 
40.785  24.806  32.355 
42.185  21.648  34.614 
41.577  24.359  32.604 
42.844  25.161  31.514 
41.681  21.585  35.670 
45.004  19.865  35.456 
44.411  18.956  37.474 
46.238  21.552  31.837 
47.503  18.266  37.080 
46.407  20.794  33.914 
45.590  18.962  37.200 
48.245  20.015  33.446 
47.442  23.079  29.216 
53.047  20.333  31.062 
52.281  20.921  30.882 
51.607  20.581  30.786 
52.186  21.213  30.428 
51.756  18.798  33.786 
57.124  22.451  27.950 
56.341  16.607  35.482 
56.758  17.866  35.175 
58.377  15.561  37.186 
57.742  17.612  33.545 
54.648  18.109  33.879 
58.841  22.148  28.538 
57.280  15.840  38.794 
62.366  17.970  34.745 
59.929  16.089  36.725 
61.448  16.488  37.401 
63.243  17.878  33.966 
60.855  17.815  33.542 
61.624  16.503  36.252 
63.558  18.367  33.287 
65.533  19.061  32.401 
65.955  19.491  32.561 
66.122  18.872  33.869 
67.433  18.709  33.862 
68.564  18.993  34.548 
70.157  19.700  34.049 
75.261  19.723  35.967 
70.355  20.321  32.774 
69.426  19.191  34.451 
74.948  24.188  28.243 
76.329  22.739  30.219 
72.942  20.358  32.385 
73.920  19.736  34.495 
74.106  19.812  33.331 
79.838  22.277  33.474 
80.800  22.581  33.541 
78.266  25.919  27.974 
80.387  24.630  30.265 
80.994  23.695  33.072 
79.846  24.780  30.449 
81.814  23.221  33.555 
77.611  22.618  31.365 
81.101  28.000  28.287 
80.080  25.787  29.346 
85.442  25.393  33.708 
86.965  26.459  34.210 
87.412  27.389  32.610 
89.971  31.603  31.294 
85.493  29.408  28.644 
91.480  30.982  33.406 
85.719  27.711  31.311 
87.420  28.662  32.069 
87.344  31.660  28.380 
91.910  32.695  32.054 
92.522  31.710  34.053 
91.232  34.075  29.947 
93.338  35.383  32.349 
92.719  33.231  33.228 
92.933  36.494  31.690 
92.255  35.665  30.785 
90.628  32.057  30.916 
93.506  35.888  33.715 
94.521  36.555  33.796 
94.502  38.661  31.733 
92.709  38.821  28.885 
93.820  37.882  31.842 
94.177  36.304  33.448 
94.796  38.926  33.253 
96.139  41.536  33.492 
94.203  40.683  29.788 
95.443  41.305  32.452 
95.503  39.996  33.090 
96.817  41.655  35.293 
97.187  44.934  32.387 
96.273  41.827  34.444 
97.863  45.660  33.236 
98.510  45.330  34.396 
98.571  47.334  33.984 
97.287  47.413  31.177 
98.151  47.617  33.197 
99.726  48.012  35.169 
100.104  48.701  35.389 
98.962  53.345  30.779 
100.258  50.602  34.576 
99.447  53.198  31.468 
101.334  49.272  36.311 
101.555  52.440  34.816 
101.320  51.606  34.584 
101.394  56.405  33.419 
100.521  53.486  32.375 
99.930  55.737  31.456 
98.865  52.900  30.582 
100.930  56.652  32.206 
104.851  57.645  38.688 
100.759  58.748  31.537 
101.864  57.840  34.388 
102.687  57.459  35.742 
103.385  61.813  37.206 
102.814  65.455  36.486 
100.473  65.079  32.355 
99.543  63.930  31.626 
101.115  69.620  34.910 
99.609  66.324  32.101 
101.076  67.471  34.282 
100.383  67.514  32.606 
99.827  68.249  33.114 
100.403  66.900  33.058 
100.217  69.356  33.466 
98.452  72.042  32.300 
98.796  71.744  32.361 
97.707  72.004  32.302 
98.365  73.219  32.679 
97.451  73.761  31.128 
97.627  74.704  31.410 
99.092  77.463  35.282 
96.377  75.473  30.371 
97.112  74.945  31.407 
97.895  78.178  34.694 
98.163  78.842  33.540 
98.639  77.469  35.547 
98.877  78.174  35.440 
96.763  80.699  32.905 
97.181  80.562  35.283 
96.513  80.572  33.423 
96.301  83.229  35.544 
94.922  82.100  32.217 
96.361  82.158  34.050 
94.332  84.515  32.728 
94.662  80.797  30.583 
94.832  84.401  32.912 
91.176  85.094  29.613 
90.301  85.963  29.387 
91.514  85.204  30.342 
91.461  87.741  33.547 
91.802  86.840  31.787 
90.871  87.841  32.960 
89.479  89.292  32.869 
88.350  89.999  32.453 
88.261  89.593  32.063 
86.988  90.122  31.858 
87.915  90.318  32.567 
86.134  90.486  31.475 
86.919  90.624  32.685 
86.266  91.390  32.917 
85.748  91.511  32.467 
85.203  92.239  33.118 
84.652  93.005  33.068 
84.224  92.786  33.087 
83.561  93.259  32.115 
82.389  94.045  32.256 
82.052  93.934  31.504 
83.139  94.003  32.682 
80.823  95.463  33.682 
76.038  99.800  33.932 
75.891  97.863  31.943 
76.732  97.957  32.342 
77.182  96.643  30.156 
77.642  97.631  31.749 
78.264  99.084  35.009 
76.488  100.713  36.747 
72.165  102.377  36.244 
75.346  99.504  32.870 
73.677  98.131  31.735 
73.386  101.111  35.347 
74.520  100.141  33.732 
73.520  99.959  33.481 
71.890  100.204  33.975 
70.146  100.549  34.037 
71.375  101.289  33.713 
67.682  101.603  33.123 
69.490  101.930  34.563 
70.402  102.225  34.663 
67.322  100.439  31.965 
63.353  101.958  35.117 
63.941  102.312  34.610 
66.771  101.240  32.818 
59.324  102.749  34.597 
60.357  102.905  34.570 
59.205  101.370  33.519 
57.216  100.666  31.811 
57.309  101.046  33.537 
57.029  101.863  33.730 
56.489  101.074  33.757 
56.212  102.099  33.791 
