105.391  50.041  50.737 
106.038  51.067  51.231 
106.222  50.239  50.875 
106.358  51.847  50.283 
107.040  52.912  51.061 
106.914  54.161  51.651 
107.645  55.513  53.586 
107.441  54.894  53.037 
108.737  58.650  52.918 
107.681  55.407  50.998 
107.455  56.005  50.383 
108.161  62.241  48.493 
108.496  59.557  51.301 
107.830  60.941  48.993 
107.705  60.180  49.520 
107.870  63.516  49.068 
108.115  64.022  51.697 
108.040  61.467  51.019 
106.692  68.046  45.943 
107.660  64.411  49.401 
108.070  63.866  51.096 
106.896  67.887  50.461 
107.469  65.988  50.856 
107.571  67.402  51.047 
107.379  67.588  49.806 
107.348  69.676  50.185 
107.436  68.240  50.340 
107.487  68.514  50.851 
106.691  70.608  51.433 
106.808  70.293  50.707 
107.072  73.334  52.655 
106.689  70.713  47.550 
106.635  72.153  51.349 
106.022  75.413  48.299 
105.347  76.131  48.615 
106.308  75.240  54.335 
104.627  78.926  49.899 
104.594  80.342  52.303 
104.768  78.616  49.134 
101.997  84.511  49.602 
103.831  82.371  54.009 
105.072  77.928  51.485 
101.814  83.228  47.860 
103.586  81.096  48.995 
103.692  81.267  49.790 
101.675  84.380  49.173 
100.427  86.964  49.884 
103.299  81.965  50.403 
97.413  90.164  46.426 
101.166  86.788  51.685 
100.476  87.765  50.678 
98.701  88.788  47.059 
99.177  89.368  54.464 
95.366  94.360  54.937 
98.460  87.861  46.034 
94.698  93.462  47.908 
97.392  92.523  55.216 
94.599  93.902  48.588 
92.686  93.580  45.588 
95.962  93.918  53.252 
95.146  93.230  48.116 
98.588  90.459  52.358 
93.192  94.260  49.324 
96.720  91.492  47.500 
88.719  98.632  46.120 
87.145  99.695  49.218 
88.250  98.911  46.628 
87.052  99.406  46.002 
84.088  101.716  47.184 
86.500  100.786  49.806 
89.819  97.572  49.912 
87.898  99.962  48.920 
86.318  100.447  48.383 
89.164  98.924  49.247 
89.660  99.934  54.505 
86.563  100.297  50.509 
84.801  100.341  46.972 
79.730  104.070  46.775 
85.551  100.674  48.974 
83.065  102.154  47.956 
87.210  100.806  51.524 
83.158  103.339  49.272 
80.488  105.016  53.014 
82.378  103.679  50.032 
82.826  102.985  48.424 
76.403  104.659  45.342 
79.363  105.175  50.345 
74.588  106.655  50.507 
74.361  106.844  52.157 
82.029  103.360  51.655 
76.674  106.579  55.532 
73.920  106.407  48.486 
75.391  105.953  46.677 
72.499  106.229  49.354 
73.549  107.133  52.989 
68.664  106.470  46.907 
68.671  107.042  50.940 
68.708  106.502  49.972 
67.560  106.087  44.979 
67.707  106.569  46.903 
64.912  107.293  49.130 
63.817  106.653  45.118 
65.265  107.531  50.123 
63.182  107.805  49.492 
63.054  107.782  48.719 
62.690  107.681  49.682 
62.006  108.034  50.112 
61.057  108.171  49.651 
60.736  108.159  50.696 
59.538  108.564  50.176 
59.862  108.310  50.647 
59.125  108.471  50.909 
57.801  108.781  51.530 
57.307  108.767  50.836 
55.350  108.525  50.287 
56.297  108.985  51.879 
52.325  108.181  51.971 
52.336  108.156  49.616 
50.555  107.978  51.325 
52.956  108.569  49.199 
49.243  108.537  50.486 
51.615  107.549  47.517 
48.531  107.961  48.913 
48.306  107.484  50.679 
49.348  108.654  52.757 
47.155  107.606  51.764 
48.909  107.608  51.956 
46.528  107.268  52.326 
46.317  107.196  51.756 
44.991  106.517  49.860 
43.764  106.314  50.530 
44.753  105.704  48.160 
44.266  106.412  51.872 
40.814  105.184  50.021 
41.857  105.610  50.337 
41.806  104.593  48.030 
40.002  104.742  51.008 
37.429  103.559  50.191 
37.541  103.574  50.724 
36.786  103.680  50.881 
36.405  102.978  49.710 
34.823  102.494  50.687 
36.739  101.956  45.888 
34.898  102.173  49.228 
36.717  103.020  47.434 
32.897  101.196  47.237 
32.257  100.113  48.083 
31.051  100.822  52.629 
30.797  99.423  49.628 
29.122  98.084  49.740 
29.584  98.186  48.823 
32.132  99.547  44.976 
33.417  100.756  46.664 
31.541  101.885  53.235 
28.906  97.818  47.633 
28.587  97.980  50.448 
27.798  97.119  49.341 
28.482  98.203  51.277 
26.128  96.999  52.043 
25.851  96.446  51.431 
26.681  95.568  48.008 
23.537  94.608  52.497 
25.351  96.103  54.431 
25.601  97.065  52.070 
23.860  94.010  51.064 
23.027  90.000  46.459 
18.927  88.216  50.662 
19.681  88.621  52.502 
21.599  92.865  55.456 
19.048  85.202  48.237 
19.334  86.443  49.175 
20.925  88.953  48.920 
19.987  87.666  48.866 
18.041  85.464  52.454 
17.471  83.467  53.295 
17.423  83.965  52.904 
17.156  83.141  53.058 
17.240  82.702  52.230 
16.853  82.409  52.636 
16.936  82.027  51.812 
16.961  80.974  51.804 
16.454  80.947  52.455 
16.249  79.502  51.604 
15.978  78.800  52.216 
15.484  77.943  52.554 
14.970  77.302  52.411 
15.429  76.640  52.770 
15.005  76.641  50.778 
14.808  76.111  50.660 
14.235  74.518  51.318 
13.183  71.426  50.997 
15.065  74.862  52.447 
14.130  75.716  53.786 
13.890  72.177  50.739 
12.424  71.312  58.526 
12.571  71.054  48.988 
13.662  71.415  47.487 
13.024  71.866  52.178 
13.371  70.108  48.696 
12.482  70.378  52.099 
12.229  67.487  50.051 
12.021  65.285  50.265 
12.149  68.700  49.860 
12.032  66.050  52.358 
12.219  68.143  51.881 
11.313  63.242  54.336 
12.283  63.398  49.940 
11.900  61.927  51.959 
11.165  62.463  53.896 
12.004  60.854  49.829 
11.857  61.176  50.156 
11.443  58.454  51.407 
10.724  57.308  52.447 
10.551  57.799  55.617 
10.546  58.979  53.732 
10.806  53.708  52.714 
11.866  57.627  51.132 
11.119  52.541  55.787 
10.329  53.666  53.659 
10.618  54.899  52.808 
10.966  50.384  50.411 
10.998  55.564  53.919 
11.712  50.213  50.637 
12.021  53.664  47.906 
11.821  46.913  51.955 
11.333  46.744  54.494 
12.507  48.553  49.591 
12.149  45.637  52.016 
12.952  44.338  51.196 
12.562  44.378  55.319 
12.423  44.533  51.227 
12.337  46.800  49.242 
13.350  45.067  49.990 
12.653  45.603  51.319 
11.637  45.603  55.531 
13.614  42.980  51.929 
14.012  42.226  53.010 
15.067  38.814  53.715 
15.129  41.237  51.667 
16.234  37.204  51.990 
17.543  36.595  52.363 
15.562  40.380  51.697 
16.768  36.490  51.933 
16.531  36.675  53.896 
18.607  33.567  53.161 
19.774  34.303  48.534 
19.015  33.521  52.036 
19.017  34.270  51.244 
19.867  32.924  51.217 
22.687  29.555  48.979 
20.902  33.256  47.893 
19.973  33.236  49.437 
23.264  28.511  49.645 
26.238  23.397  54.331 
24.438  26.965  49.723 
21.424  29.645  55.082 
25.665  26.767  50.075 
26.249  25.454  49.858 
24.420  25.605  57.163 
29.438  21.991  50.769 
30.147  21.655  49.197 
27.251  23.615  52.296 
30.752  22.500  47.344 
29.194  24.360  45.512 
29.082  25.068  44.261 
33.781  18.590  55.675 
36.290  18.498  50.166 
34.484  18.712  51.449 
36.843  17.059  51.480 
35.370  18.643  50.287 
36.004  16.869  54.556 
35.984  19.493  47.678 
36.005  19.496  49.043 
36.459  18.457  48.665 
37.127  16.056  53.796 
37.619  18.135  48.271 
40.094  16.736  49.256 
41.477  16.325  49.338 
39.166  16.744  50.924 
41.983  15.055  52.060 
42.645  17.547  43.692 
43.563  15.451  46.922 
42.615  16.980  45.162 
43.863  14.644  50.181 
42.733  15.933  46.977 
41.472  15.524  50.535 
41.330  16.385  48.509 
49.777  13.367  49.351 
43.174  15.016  49.114 
45.559  14.007  48.599 
44.362  14.892  50.107 
48.327  13.721  49.502 
49.909  12.941  50.164 
49.191  12.966  49.784 
49.375  13.012  50.840 
51.835  12.157  50.864 
52.456  12.123  50.303 
52.976  12.272  51.140 
54.109  11.610  51.246 
54.308  11.609  49.840 
54.947  11.208  51.640 
53.880  12.237  49.184 
56.129  11.254  52.572 
58.842  10.887  51.765 
55.746  11.408  48.752 
55.784  11.137  51.161 
57.955  10.700  51.214 
57.215  10.597  52.582 
57.482  10.989  49.958 
56.757  12.051  46.411 
59.652  12.168  48.058 
59.904  11.199  48.975 
64.707  13.625  43.399 
65.667  11.517  49.761 
72.915  14.001  47.897 
68.180  12.552  47.722 
68.595  11.807  53.490 
69.617  11.691  55.743 
70.121  13.373  46.818 
68.900  12.982  47.525 
69.547  12.904  48.798 
70.245  12.791  49.363 
72.639  13.578  48.716 
75.845  15.242  48.279 
72.373  13.710  48.223 
74.937  14.375  49.055 
74.857  14.123  50.461 
78.705  17.699  47.767 
76.129  15.671  49.005 
76.229  16.331  47.038 
75.593  15.605  46.451 
75.548  15.640  47.473 
80.864  18.091  47.470 
79.905  17.938  44.838 
82.250  17.978  49.646 
83.647  19.321  48.409 
83.190  19.071  50.612 
83.028  19.028  48.252 
84.436  19.530  49.708 
81.963  17.538  50.283 
83.550  19.658  49.375 
84.183  18.278  52.687 
85.438  19.887  50.480 
86.092  20.773  48.964 
86.334  21.073  50.252 
87.171  21.774  50.147 
87.784  22.553  49.953 
88.034  21.872  50.977 
88.854  23.158  50.121 
89.483  23.377  50.252 
89.548  23.826  48.944 
90.608  24.245  49.164 
91.081  24.978  48.016 
91.640  25.141  48.863 
92.230  25.566  48.697 
92.256  26.092  47.958 
92.620  25.839  48.830 
96.095  29.925  47.859 
94.307  28.624  47.687 
94.388  28.551  46.772 
97.653  31.214  47.536 
96.670  29.493  51.092 
98.629  32.319  48.995 
95.771  28.048  50.427 
97.199  33.514  45.512 
97.528  33.055  46.523 
96.172  31.256  45.098 
98.341  33.690  47.279 
98.284  34.599  46.240 
100.562  34.334  52.521 
100.427  36.911  51.221 
101.477  38.572  49.386 
100.901  38.507  48.365 
99.898  35.860  48.518 
100.179  38.620  46.369 
101.913  38.456  50.673 
102.672  40.860  48.832 
102.249  39.702  49.564 
102.564  40.350  50.430 
102.003  40.390  50.367 
102.503  42.325  47.622 
102.489  41.293  46.094 
102.733  42.067  46.420 
102.636  42.278  48.802 
103.655  44.153  48.497 
103.808  45.029  49.357 
104.770  45.453  49.978 
104.660  45.595  50.762 
105.253  46.130  49.919 
105.546  47.212  50.312 
104.993  47.806  50.371 
105.773  48.356  50.386 
105.325  49.381  49.986 
105.881  50.045  50.158 
105.476  50.651  50.002 
106.002  51.474  50.383 
106.673  52.071  49.433 
106.361  52.382  50.145 
107.360  53.560  52.405 
107.402  54.620  50.638 
107.883  57.833  50.256 
107.588  56.536  48.732 
108.156  58.513  48.671 
107.688  54.814  52.225 
107.474  55.451  49.610 
107.567  60.186  48.388 
107.960  61.931  48.177 
107.918  60.465  47.235 
107.986  58.616  51.278 
107.693  62.164  50.713 
107.642  62.570  49.350 
107.314  63.652  50.582 
107.744  65.738  50.058 
107.234  68.552  49.889 
107.399  66.575  49.210 
107.092  67.410  48.281 
106.888  67.795  47.539 
107.099  67.973  49.079 
106.741  70.828  49.236 
107.219  69.028  50.639 
107.025  69.047  49.791 
107.076  69.663  49.323 
106.121  73.511  47.875 
106.573  73.350  48.106 
105.742  68.589  43.230 
105.754  76.050  52.314 
106.132  74.840  48.952 
106.734  72.455  50.081 
106.265  71.832  49.664 
104.587  75.933  46.187 
104.507  79.761  50.240 
105.371  78.512  50.907 
104.727  79.554  50.895 
102.886  80.018  46.177 
104.104  82.241  52.295 
104.250  78.464  48.579 
102.443  83.927  53.082 
101.875  86.025  52.771 
101.205  86.633  52.366 
101.796  82.569  45.282 
102.289  82.141  49.816 
100.285  88.860  55.584 
102.505  84.299  50.875 
99.736  88.018  51.150 
95.395  93.715  51.881 
95.931  92.634  50.648 
101.496  85.466  55.351 
100.929  85.104  48.124 
96.207  92.729  52.317 
98.922  89.008  49.700 
94.958  93.317  47.100 
99.911  87.829  51.805 
97.792  89.684  49.313 
91.361  95.075  44.324 
93.354  95.669  49.937 
93.937  93.473  47.243 
92.391  96.550  50.425 
91.968  96.226  48.105 
93.968  95.009  50.222 
88.457  98.545  48.136 
87.619  99.725  48.016 
90.493  94.717  43.535 
86.252  99.672  46.718 
88.613  97.646  45.256 
90.384  94.666  42.598 
84.536  102.005  49.223 
88.028  99.098  48.850 
88.724  99.456  50.322 
86.017  101.903  53.436 
91.028  97.640  50.197 
85.932  101.167  50.023 
82.072  103.580  49.183 
79.146  104.671  48.519 
78.809  105.744  54.491 
82.595  103.037  51.173 
80.833  104.569  51.069 
84.077  100.783  46.643 
82.468  103.298  48.155 
81.914  103.822  51.174 
82.231  103.977  52.384 
76.509  104.517  44.482 
73.611  106.130  46.639 
71.985  105.967  48.452 
81.945  103.543  48.288 
78.444  105.856  51.385 
73.015  105.755  45.685 
70.327  107.027  53.511 
75.978  106.264  52.553 
69.282  106.298  46.996 
75.508  106.001  48.382 
69.556  106.938  49.842 
67.941  106.962  48.672 
66.878  107.403  49.518 
68.081  107.536  52.021 
65.124  107.064  48.325 
64.238  107.168  48.584 
62.584  107.178  48.101 
60.284  108.013  48.474 
62.439  107.441  48.884 
61.569  108.290  49.834 
60.794  107.645  49.873 
60.280  108.371  49.899 
59.386  107.984  49.758 
58.779  108.453  50.144 
58.064  108.369  49.583 
57.232  108.689  49.879 
56.138  108.088  50.427 
53.296  108.543  51.265 
54.956  108.503  50.627 
54.800  108.157  51.231 
54.264  108.215  52.005 
50.226  108.159  49.645 
52.635  108.276  50.425 
50.719  107.703  48.934 
49.430  107.362  47.422 
52.957  108.772  49.678 
48.876  107.615  47.909 
46.266  106.606  51.016 
47.437  107.534  50.992 
46.094  106.845  50.566 
47.473  107.017  50.844 
45.601  106.299  50.320 
44.317  106.427  51.154 
42.307  105.166  49.931 
42.259  105.799  50.608 
41.212  104.682  50.530 
42.844  105.590  51.255 
40.417  105.149  50.919 
39.000  103.895  48.767 
38.887  104.006  49.607 
39.330  104.550  50.648 
38.695  103.878  50.407 
38.110  103.500  46.749 
36.087  102.296  50.041 
35.462  101.438  45.902 
35.712  101.372  43.715 
34.422  102.286  47.566 
31.285  100.889  51.230 
34.038  100.453  43.773 
34.217  102.555  51.715 
30.424  99.450  48.878 
32.725  101.412  48.544 
32.264  101.293  50.633 
31.246  99.503  46.459 
29.799  98.573  49.936 
29.282  97.842  47.213 
29.055  98.653  49.163 
32.404  99.878  45.364 
29.829  97.707  47.983 
27.158  97.607  52.351 
29.076  96.573  45.666 
28.899  97.018  47.060 
26.693  97.807  53.318 
25.133  94.794  49.314 
25.797  96.757  53.683 
24.832  96.136  52.413 
26.919  94.986  45.328 
22.744  91.826  49.014 
19.969  87.842  50.242 
21.924  92.137  52.548 
20.567  90.024  51.313 
20.144  87.345  47.819 
18.801  85.109  50.025 
19.364  87.483  49.596 
19.761  87.938  49.305 
18.396  85.518  53.757 
19.244  86.918  50.834 
18.507  85.154  51.005 
17.589  83.320  51.723 
17.345  82.538  51.409 
17.541  81.856  51.643 
17.058  82.003  50.878 
16.479  80.801  51.416 
16.377  80.155  50.946 
16.250  80.397  51.847 
16.017  79.989  51.164 
15.981  78.207  51.547 
15.170  77.900  51.781 
14.923  77.337  51.482 
15.232  76.524  51.289 
15.173  75.770  49.967 
14.196  75.205  53.258 
14.620  76.004  51.906 
14.301  72.969  50.861 
14.483  75.063  51.929 
13.081  71.417  49.224 
13.262  71.430  52.743 
12.784  69.576  51.352 
12.934  70.612  49.758 
13.836  72.231  47.517 
12.204  67.727  52.418 
12.918  69.755  48.678 
11.933  68.132  53.620 
12.221  66.739  50.880 
12.114  66.040  51.368 
12.347  64.917  50.355 
11.760  63.822  51.565 
12.426  64.163  50.965 
11.435  64.720  53.427 
11.913  64.514  51.073 
12.049  61.905  50.373 
11.784  60.219  52.522 
11.349  61.037  53.440 
11.939  60.518  50.879 
11.051  55.039  53.151 
11.786  58.425  49.680 
10.760  58.472  53.163 
11.697  58.275  50.972 
11.949  52.169  47.233 
10.991  56.100  53.054 
10.337  55.159  58.222 
10.408  53.879  54.537 
10.541  51.637  56.484 
10.816  53.802  50.207 
11.031  51.928  52.441 
11.415  51.460  48.344 
11.285  48.977  52.503 
12.119  47.376  48.468 
10.516  52.628  52.927 
13.976  46.874  46.602 
11.762  47.482  51.344 
13.170  48.431  46.475 
13.191  46.778  49.713 
13.849  44.919  48.450 
14.220  43.923  50.544 
14.841  42.166  49.260 
13.628  44.699  49.355 
13.907  43.391  51.144 
15.828  38.826  50.896 
14.445  41.622  51.195 
15.358  41.341  49.209 
16.993  38.899  49.569 
14.333  41.405  52.083 
17.273  38.078  50.357 
14.922  39.076  55.889 
18.367  34.179  52.722 
16.728  37.272  51.530 
18.289  34.910  53.505 
21.325  31.027  49.754 
18.068  36.528  49.442 
18.679  34.247  50.720 
17.945  34.500  55.512 
21.851  30.915  49.956 
20.634  32.602  50.379 
23.569  26.942  53.362 
21.841  29.750  51.560 
21.595  28.777  55.364 
23.227  30.278  48.638 
25.335  28.478  46.468 
25.509  23.988  58.683 
22.451  27.636  55.495 
27.720  23.488  51.187 
23.266  30.383  46.780 
25.259  25.549  50.693 
26.840  25.329  48.305 
30.137  22.113  49.412 
28.815  22.438  49.492 
25.814  26.402  47.093 
29.108  22.315  50.167 
32.992  19.868  50.285 
32.924  20.786  49.343 
34.494  17.353  57.672 
35.724  17.857  51.640 
34.530  18.369  52.202 
31.418  20.803  50.944 
34.578  19.161  50.265 
35.439  19.503  48.417 
37.989  17.887  49.588 
39.053  17.937  47.717 
37.135  17.293  51.838 
38.461  17.044  50.435 
40.984  15.773  50.611 
42.545  15.620  49.216 
41.294  17.517  45.572 
39.792  18.180  45.763 
43.626  14.954  48.498 
44.357  15.683  45.197 
45.385  16.544  42.766 
42.017  16.568  46.746 
43.178  16.170  48.732 
45.193  14.412  49.871 
45.578  14.528  47.214 
47.291  13.520  50.849 
47.060  14.046  50.869 
46.434  13.748  49.844 
49.714  13.507  47.927 
50.215  12.442  49.835 
51.059  12.178  49.876 
52.339  12.441  49.495 
52.099  12.735  50.189 
51.024  12.656  49.313 
54.280  12.075  49.605 
53.039  12.648  47.886 
50.547  12.751  48.399 
53.837  12.103  50.506 
54.450  11.421  50.908 
53.323  12.035  49.835 
53.422  12.847  48.724 
50.602  13.332  46.756 
57.567  13.181  46.265 
56.286  11.874  47.214 
58.826  11.524  48.852 
61.648  11.060  49.623 
58.409  13.169  44.652 
63.385  11.827  48.928 
64.381  12.411  46.204 
68.634  13.262  48.805 
71.243  13.363  50.074 
68.867  12.211  49.777 
66.152  11.036  53.550 
70.095  12.632  51.415 
69.572  12.487  50.043 
66.086  11.964  48.362 
69.408  11.921  51.704 
71.747  13.672  48.487 
70.916  13.777  48.527 
69.395  12.652  49.242 
73.468  15.155  45.915 
72.817  14.941  46.264 
75.437  14.241  49.761 
77.190  15.849  48.093 
79.290  17.007  48.547 
80.963  17.878  48.833 
79.916  17.608  46.098 
79.887  18.137  45.383 
79.383  17.318  47.527 
81.032  18.781  45.053 
79.818  18.014  47.715 
81.671  18.769  48.108 
82.815  18.128  50.893 
82.673  18.199  52.387 
83.042  18.903  48.810 
84.360  19.892  48.733 
85.795  20.478  49.952 
85.311  19.325  51.260 
85.153  20.692  49.385 
85.956  20.394  50.856 
87.109  20.939  50.263 
87.877  21.972  50.242 
88.465  22.361  49.684 
88.255  23.579  49.415 
88.672  23.928  49.429 
90.169  23.942  49.069 
90.004  24.246  48.312 
90.516  24.588  48.761 
91.349  25.684  48.782 
92.035  25.815  47.085 
92.365  28.148  45.461 
92.469  27.114  47.048 
92.977  26.951  47.542 
93.727  28.453  46.353 
96.351  30.682  46.684 
93.624  27.868  46.932 
95.729  28.651  48.829 
96.736  32.011  46.051 
97.359  30.373  49.386 
95.789  30.649  45.785 
97.528  34.188  44.911 
98.600  35.270  46.905 
99.095  35.429  46.795 
98.098  34.234  47.108 
97.460  31.249  48.395 
101.019  37.993  49.077 
98.540  33.243  48.346 
99.779  38.002  46.648 
102.093  39.957  47.739 
101.404  39.388  48.074 
101.859  39.989  46.854 
100.660  39.615  45.227 
101.701  39.634  49.399 
102.740  41.231  47.603 
102.209  40.055  48.821 
102.631  41.327  46.737 
103.178  42.696  46.507 
103.086  42.621  48.090 
102.972  43.823  47.479 
103.994  44.552  48.215 
104.210  45.302  48.509 
104.208  45.948  49.117 
104.215  44.926  49.678 
104.794  46.301  49.600 
105.099  47.013  49.514 
105.063  47.171  49.009 
105.385  47.820  49.744 
105.619  48.622  50.041 
105.607  49.334  49.548 
105.868  50.352  49.042 
105.938  50.821  49.795 
106.677  52.937  49.638 
107.076  54.287  50.810 
107.076  53.569  49.931 
107.071  53.179  50.401 
107.919  55.751  52.621 
107.428  55.153  52.605 
107.010  58.020  47.587 
108.006  56.140  50.972 
107.707  60.290  45.352 
107.913  59.813  50.511 
106.446  55.519  46.552 
108.202  59.091  49.768 
109.025  58.576  55.718 
107.806  64.351  50.461 
107.688  66.829  50.234 
107.752  61.264  47.907 
107.812  63.507  47.976 
106.819  63.679  44.039 
107.649  65.038  48.674 
107.454  66.817  47.112 
107.708  64.375  48.059 
107.039  67.205  47.290 
107.013  69.120  47.977 
106.396  73.915  50.473 
107.098  68.896  48.980 
106.846  68.778  47.294 
107.099  69.142  48.448 
106.706  69.891  48.105 
105.262  74.509  46.426 
105.501  74.305  47.763 
104.213  78.780  47.301 
105.816  76.619  50.239 
105.973  76.709  49.268 
106.688  73.831  51.946 
105.190  74.504  47.034 
106.215  76.045  49.825 
105.804  74.129  51.773 
102.234  83.120  49.577 
102.453  81.488  46.853 
103.568  83.128  52.210 
103.317  81.797  48.829 
101.592  85.405  53.273 
97.052  93.089  52.182 
100.713  87.362  51.370 
100.580  87.174  50.419 
98.996  90.113  54.025 
97.239  90.923  51.216 
99.752  89.040  57.022 
98.480  88.993  46.142 
99.644  87.275  47.457 
101.282  85.563  50.989 
96.187  90.928  44.311 
94.531  93.458  46.504 
98.375  88.693  45.094 
93.116  95.009  47.000 
95.674  91.884  47.961 
96.859  91.520  48.806 
97.510  91.371  49.391 
89.172  98.395  48.648 
87.125  98.393  45.595 
95.737  94.126  52.242 
91.484  94.439  44.337 
87.632  99.276  46.835 
89.866  97.343  45.993 
87.853  98.131  45.484 
88.900  99.381  49.286 
92.886  93.024  44.773 
85.372  100.574  48.338 
85.944  98.038  42.753 
82.268  102.534  47.442 
90.359  98.084  51.983 
86.321  99.978  46.129 
90.400  97.535  48.491 
83.263  101.943  46.290 
80.798  102.865  46.097 
80.628  102.416  45.505 
78.419  104.604  47.014 
82.004  103.017  47.971 
85.039  101.403  49.679 
81.062  102.302  46.183 
81.325  102.963  46.836 
77.029  105.582  48.112 
82.964  102.389  46.977 
76.144  106.031  49.070 
80.675  103.733  48.656 
74.146  105.853  47.887 
69.659  106.163  46.721 
73.129  106.205  51.436 
73.747  106.550  50.174 
69.652  106.657  48.888 
69.092  107.040  50.451 
73.669  105.056  44.225 
73.089  106.111  44.862 
68.537  106.422  45.980 
66.908  107.038  48.386 
64.510  106.841  47.835 
66.027  107.100  48.165 
65.286  106.775  47.707 
66.178  107.419  49.046 
63.194  107.104  48.439 
60.348  107.289  48.933 
62.231  107.750  49.781 
61.800  107.710  49.253 
61.625  108.005  48.948 
59.547  107.815  47.414 
59.580  108.217  47.727 
60.364  107.774  49.350 
58.604  108.577  49.675 
57.909  108.649  50.486 
57.721  108.566  48.216 
56.730  108.389  49.453 
53.636  108.693  48.780 
55.510  107.937  49.771 
54.300  108.286  50.209 
52.848  108.216  51.336 
51.719  107.870  50.572 
53.011  108.331  48.294 
53.407  108.622  47.591 
50.285  106.898  46.883 
49.170  107.926  48.249 
48.534  108.128  50.493 
47.594  107.168  50.133 
50.212  108.213  50.472 
48.644  107.582  51.031 
45.747  106.371  49.641 
44.708  106.472  50.662 
44.062  106.062  48.864 
42.639  105.936  49.943 
41.012  105.417  50.763 
42.437  106.387  52.175 
40.052  104.161  50.362 
37.680  102.929  47.937 
38.790  104.364  50.491 
40.190  103.676  43.935 
38.403  103.598  49.499 
38.040  103.228  49.365 
36.385  102.902  48.460 
37.449  103.282  48.699 
35.778  102.479  49.391 
35.463  102.566  48.581 
37.110  101.766  43.118 
35.478  101.330  44.634 
28.749  99.601  52.755 
32.965  101.419  49.555 
32.479  101.539  49.475 
35.449  99.999  43.688 
30.173  99.318  50.015 
29.718  96.799  43.550 
31.472  99.470  48.015 
30.657  99.383  47.940 
26.945  96.341  48.531 
28.577  98.577  51.661 
27.633  96.776  50.000 
26.741  96.813  49.860 
27.146  96.661  49.643 
24.797  92.590  47.223 
24.837  94.773  50.104 
26.548  96.043  49.218 
21.767  90.775  51.213 
23.431  92.691  51.426 
22.970  90.411  47.030 
21.709  91.429  51.489 
22.104  90.159  47.894 
20.920  88.761  47.931 
19.606  86.894  48.342 
19.399  87.800  51.987 
19.379  88.124  51.445 
18.442  85.678  51.786 
19.240  86.015  51.574 
18.986  85.483  50.838 
17.900  84.397  51.417 
17.772  84.677  52.344 
17.652  82.710  51.069 
17.027  82.043  50.091 
17.290  82.800  50.602 
17.328  81.431  50.850 
16.843  81.010  51.002 
15.963  79.904  50.309 
16.399  79.357  50.788 
15.861  79.406  50.529 
15.618  78.685  51.890 
15.078  77.490  50.923 
15.577  77.338  50.768 
15.128  76.970  50.194 
15.369  75.468  49.556 
14.619  75.537  50.533 
14.213  73.717  52.017 
13.490  73.059  52.865 
14.819  74.308  50.547 
13.998  73.308  52.863 
13.511  72.987  51.155 
13.458  72.872  52.050 
13.604  71.940  48.302 
12.666  69.712  50.616 
12.203  69.425  49.789 
12.907  71.523  54.445 
12.853  67.811  50.719 
12.074  68.707  51.341 
12.755  66.910  49.058 
11.771  64.684  51.909 
12.554  64.671  52.284 
12.171  64.060  50.214 
12.919  65.083  48.261 
11.794  63.753  50.681 
11.704  59.655  50.759 
11.851  59.090  51.115 
11.916  59.498  48.722 
11.634  55.442  49.239 
11.683  59.306  51.698 
12.588  59.612  48.565 
10.599  57.393  56.864 
11.000  56.721  51.884 
10.679  53.250  55.657 
10.765  49.770  54.035 
10.455  54.104  52.329 
10.600  52.334  50.689 
10.802  53.300  49.586 
11.257  55.272  54.669 
10.145  50.982  53.784 
11.423  52.232  47.121 
12.852  44.653  52.508 
12.729  44.817  54.708 
14.218  47.581  46.134 
11.474  49.120  50.762 
13.756  46.622  47.516 
13.089  47.222  48.596 
13.475  45.246  49.019 
14.263  44.751  49.073 
14.355  43.964  49.750 
15.100  40.777  50.361 
15.424  41.794  48.596 
14.317  43.365  50.202 
14.559  43.630  49.275 
12.856  45.174  50.721 
15.206  41.203  50.081 
13.887  41.008  53.723 
13.490  41.259  53.283 
17.507  35.373  53.243 
16.214  37.691  56.865 
17.128  38.703  50.526 
15.826  40.600  50.711 
17.746  35.664  51.362 
18.609  36.430  48.268 
22.443  31.068  48.320 
20.666  31.659  50.782 
20.317  31.210  51.420 
21.953  31.923  47.243 
23.366  26.840  54.599 
21.399  33.827  46.028 
23.609  27.245  52.036 
22.519  28.787  50.159 
24.127  28.296  49.447 
24.453  28.458  48.168 
26.048  24.900  52.076 
23.095  29.157  49.870 
29.975  21.571  52.864 
28.263  23.294  48.584 
29.767  21.384  53.784 
28.222  25.107  46.418 
27.881  23.777  50.310 
29.465  22.416  48.521 
30.365  21.800  48.425 
30.845  21.046  49.609 
31.288  20.601  53.773 
32.091  20.746  52.308 
37.390  18.173  50.056 
34.698  17.830  56.345 
35.634  19.876  49.178 
32.319  20.883  49.155 
37.806  18.486  48.589 
40.354  16.489  48.739 
38.907  17.943  48.696 
39.181  17.449  48.156 
41.027  16.307  48.971 
40.680  16.924  48.852 
38.790  15.797  52.062 
41.263  16.113  49.745 
40.567  16.912  47.916 
41.826  17.466  44.731 
41.135  17.426  46.204 
44.203  14.963  46.955 
38.614  18.665  45.973 
45.678  15.553  44.606 
44.496  14.910  47.637 
47.443  16.086  43.744 
44.906  14.689  48.942 
47.738  13.804  49.209 
48.889  13.846  47.974 
48.617  13.169  51.165 
49.662  12.517  50.394 
48.970  13.515  49.281 
49.570  12.881  49.509 
53.332  11.738  50.226 
51.800  13.034  47.580 
51.225  12.944  47.943 
53.774  13.464  44.859 
55.228  12.582  46.746 
55.358  11.405  50.439 
53.807  13.462  45.939 
54.926  11.291  49.049 
54.982  13.282  45.520 
62.461  10.913  50.762 
54.628  11.687  48.229 
59.424  10.877  51.142 
60.121  10.746  52.977 
58.282  12.590  45.299 
67.879  11.703  52.170 
63.553  11.823  47.379 
62.509  11.541  48.797 
59.130  11.060  49.016 
73.370  13.392  51.479 
66.585  12.327  47.187 
65.137  11.560  48.115 
66.704  12.237  47.844 
69.824  13.656  47.822 
64.325  11.754  47.802 
72.057  13.510  47.791 
74.202  13.541  51.127 
70.668  14.595  46.423 
72.327  13.150  52.228 
74.133  13.458  53.947 
73.371  13.226  53.101 
72.765  14.517  47.635 
76.767  16.005  48.247 
76.178  15.253  50.304 
80.685  18.011  47.996 
80.440  16.903  50.454 
78.633  16.950  46.964 
81.832  19.005  45.540 
78.192  18.052  43.669 
81.583  18.136  47.994 
81.663  18.021  48.491 
83.539  18.702  48.937 
83.870  19.470  48.915 
84.647  19.440  50.291 
84.233  20.062  49.453 
84.790  20.354  49.195 
85.814  21.097  48.765 
86.701  21.150  48.568 
86.308  21.583  48.485 
87.588  21.750  49.682 
87.575  22.642  48.855 
87.795  22.165  49.040 
88.726  23.311  48.812 
88.451  23.635  48.537 
89.130  24.158  47.395 
89.860  24.132  47.797 
90.789  24.756  47.246 
91.112  25.443  47.898 
91.773  25.944  47.857 
91.738  27.520  43.295 
93.170  27.860  47.480 
92.469  27.920  46.447 
93.331  28.006  45.275 
94.667  29.079  48.153 
94.831  29.164  47.020 
96.750  30.683  48.487 
96.733  30.118  48.622 
97.014  32.205  45.306 
98.513  30.422  52.690 
97.119  32.817  44.068 
98.451  35.859  45.043 
96.438  33.678  42.655 
99.605  36.046  47.237 
98.980  34.668  48.006 
98.476  34.467  46.756 
100.128  36.862  48.164 
100.984  38.136  47.694 
100.627  38.341  46.802 
100.807  37.039  48.745 
99.822  39.596  44.045 
102.115  40.575  49.493 
102.002  39.654  48.601 
101.757  40.500  46.942 
101.729  40.858  46.304 
102.264  40.977  47.383 
103.485  43.459  47.108 
103.713  43.424  46.672 
103.819  44.205  46.958 
103.762  44.213  47.589 
103.834  45.256  47.691 
104.279  45.710  47.644 
104.512  45.658  49.404 
104.598  47.374  49.187 
104.596  46.618  48.733 
104.810  47.889  48.583 
105.433  48.995  49.118 
105.013  49.728  48.630 
105.519  50.005  48.825 
105.373  50.915  48.575 
105.533  51.006  49.222 
106.195  51.724  49.560 
106.459  52.231  48.997 
106.302  53.613  47.628 
105.828  51.752  48.970 
106.199  54.756  47.876 
108.021  55.733  50.724 
106.106  53.555  47.070 
107.560  60.642  46.209 
106.871  56.793  47.048 
108.867  59.121  52.641 
106.393  58.581  43.211 
107.284  56.553  46.982 
107.670  63.503  49.574 
107.229  64.475  45.566 
106.439  63.992  43.273 
107.742  58.898  45.961 
107.188  61.968  44.844 
107.304  66.574  48.725 
106.987  65.616  48.401 
107.389  66.085  48.512 
106.578  66.228  45.727 
106.642  69.079  44.775 
105.900  71.132  46.433 
106.324  73.935  49.274 
106.972  71.250  50.806 
106.730  71.395  49.889 
106.082  70.103  45.455 
106.072  69.648  44.518 
106.655  73.113  50.473 
106.267  74.006  49.879 
106.063  72.313  48.109 
105.115  78.558  52.120 
105.547  76.697  49.775 
103.522  79.018  47.572 
103.786  78.660  46.475 
103.986  79.340  48.404 
106.206  75.704  49.013 
104.287  78.927  46.343 
104.166  80.502  48.977 
102.727  78.011  43.280 
101.376  83.885  49.611 
97.204  90.123  44.651 
100.044  86.736  46.825 
102.292  80.639  44.545 
100.096  86.183  47.997 
100.110  87.824  48.864 
100.322  87.488  53.036 
100.720  87.149  53.788 
98.470  89.432  48.945 
97.646  90.909  48.700 
95.695  91.004  45.921 
96.786  90.647  45.369 
97.958  90.021  50.667 
94.504  93.394  45.650 
95.344  93.355  48.602 
97.121  90.750  47.723 
90.942  96.027  46.489 
98.122  89.455  48.219 
95.841  91.885  45.838 
93.477  95.796  50.714 
92.726  95.769  50.573 
88.522  97.981  45.768 
90.241  97.184  46.830 
91.292  93.736  42.701 
86.125  100.504  47.509 
89.237  95.547  43.103 
89.654  96.011  44.182 
89.069  96.234  44.637 
86.222  98.854  45.126 
87.159  97.844  44.353 
88.725  98.067  47.393 
90.629  98.160  51.028 
92.116  96.707  49.453 
86.906  100.327  49.657 
83.432  102.946  48.712 
83.435  101.677  46.670 
81.818  99.446  41.037 
81.867  102.226  45.077 
77.835  103.449  43.157 
81.805  102.348  46.328 
77.519  104.812  47.560 
79.810  104.877  52.613 
80.939  104.323  50.306 
83.452  102.587  49.701 
78.503  105.064  50.272 
75.462  106.714  52.172 
71.470  106.448  46.254 
74.832  106.558  48.255 
68.255  106.562  46.377 
65.422  106.241  45.768 
67.143  106.591  45.321 
66.590  105.897  46.833 
70.514  105.728  45.623 
70.764  106.789  51.755 
69.992  106.320  45.973 
66.265  106.694  46.103 
71.031  105.819  44.827 
64.249  105.811  42.620 
62.498  107.111  45.887 
64.800  107.372  47.759 
62.138  107.642  47.914 
59.542  106.741  45.808 
59.554  108.439  49.328 
60.557  107.702  47.198 
55.307  107.779  45.929 
59.748  108.143  48.665 
57.788  108.821  48.980 
59.028  108.449  49.215 
55.958  108.666  49.460 
55.932  108.282  48.579 
53.970  108.654  47.888 
56.915  108.449  50.358 
54.713  107.956  49.250 
52.004  107.431  45.965 
52.548  108.754  50.647 
53.318  108.114  49.120 
50.066  107.772  48.458 
52.220  108.087  48.204 
51.885  108.180  46.838 
48.586  106.985  48.395 
48.460  108.159  49.529 
45.829  106.411  48.224 
47.944  107.198  49.132 
47.287  106.640  48.171 
46.773  107.049  51.514 
44.830  106.323  47.355 
45.022  106.429  46.285 
41.336  104.406  49.209 
42.111  105.370  51.727 
41.716  104.978  47.360 
43.414  106.403  52.130 
38.465  103.147  48.423 
36.681  102.439  45.677 
39.691  104.346  48.626 
38.871  103.913  47.820 
40.371  104.491  48.211 
36.840  103.276  49.244 
34.888  101.920  46.785 
36.867  102.685  49.034 
34.607  101.520  45.534 
39.845  103.032  43.627 
32.260  100.293  49.606 
33.367  101.587  47.795 
36.311  101.874  46.716 
35.088  100.071  42.913 
33.617  101.824  48.603 
31.127  99.302  47.037 
31.675  100.198  48.575 
29.852  98.295  46.275 
31.457  100.730  49.739 
27.259  95.469  45.807 
27.462  96.493  47.816 
27.518  95.556  46.936 
27.889  95.287  45.055 
25.560  94.859  50.703 
26.738  95.276  48.667 
26.338  95.928  50.844 
30.991  99.686  47.328 
25.404  94.521  49.072 
25.109  93.923  49.090 
26.891  97.272  51.041 
26.587  94.753  45.712 
21.067  90.759  49.818 
20.647  89.655  50.280 
19.904  86.521  47.456 
20.963  88.645  46.877 
21.355  89.584  47.983 
18.475  84.651  50.703 
19.329  84.578  49.594 
19.452  85.253  50.048 
21.863  89.546  47.985 
17.921  83.466  51.004 
17.717  82.949  50.140 
17.889  83.425  50.113 
17.283  81.864  49.255 
16.602  81.251  50.293 
16.428  80.676  50.534 
16.749  79.618  49.976 
15.676  78.749  50.954 
16.216  78.336  50.670 
15.647  78.179  50.328 
16.102  77.502  50.320 
15.557  76.524  49.521 
14.492  75.240  48.650 
14.469  74.957  50.679 
14.155  73.977  49.668 
14.372  74.115  50.383 
13.072  71.480  51.846 
13.956  72.314  46.861 
13.873  73.639  51.167 
12.781  71.485  52.840 
14.017  71.883  47.869 
12.809  69.806  49.168 
12.456  68.113  49.335 
12.356  69.035  53.069 
12.737  68.391  48.725 
12.389  67.972  50.237 
12.217  69.262  51.308 
13.540  64.332  47.909 
12.382  64.543  49.464 
12.303  65.136  48.840 
12.238  63.895  49.222 
13.237  61.810  48.065 
10.900  60.138  54.144 
11.962  59.098  52.185 
12.310  62.198  49.377 
12.599  60.747  47.515 
11.090  58.057  54.323 
12.360  58.683  47.040 
11.327  56.735  51.385 
12.147  58.588  48.944 
12.702  54.731  47.735 
11.519  53.452  49.593 
10.945  55.398  50.811 
11.775  50.187  48.428 
10.975  54.479  50.806 
13.518  46.975  48.423 
12.263  47.984  50.919 
12.404  44.865  51.738 
11.758  50.721  48.666 
13.644  47.171  47.571 
11.585  48.146  50.670 
13.473  46.259  47.860 
14.133  45.994  46.096 
13.825  45.870  48.509 
13.956  44.894  47.874 
14.355  44.458  47.949 
14.253  44.406  48.673 
15.002  43.496  49.139 
14.764  42.606  49.285 
15.746  42.487  48.130 
14.550  42.285  50.063 
16.306  40.432  49.924 
17.419  38.951  48.828 
15.559  40.992  49.450 
17.094  39.774  48.415 
16.478  38.297  50.629 
15.268  39.929  51.864 
16.260  37.038  52.769 
14.898  40.718  52.207 
19.974  32.809  52.096 
17.818  35.538  50.774 
18.657  35.526  48.580 
21.906  31.773  49.193 
18.990  35.213  48.158 
22.207  31.285  46.646 
19.993  34.008  49.764 
23.155  27.974  52.453 
23.302  28.695  48.992 
21.217  32.202  47.450 
26.078  24.873  51.544 
24.617  26.856  51.281 
24.939  29.729  45.300 
20.445  33.652  47.642 
25.361  28.075  47.275 
25.574  28.191  45.166 
28.266  23.058  49.931 
29.870  21.274  50.541 
25.441  27.163  47.129 
32.010  21.022  48.385 
27.987  24.358  45.977 
30.388  24.802  43.844 
32.560  19.006  54.319 
30.977  21.491  50.527 
30.149  22.407  46.598 
34.184  19.494  49.918 
33.421  20.009  49.423 
38.286  18.300  47.426 
36.767  19.169  47.342 
36.985  19.518  47.075 
40.239  17.825  47.328 
39.115  18.228  47.289 
39.372  18.359  46.050 
43.666  16.185  45.866 
41.584  16.962  46.471 
41.572  16.579  47.247 
42.665  16.424  46.671 
41.719  18.001  43.574 
42.948  16.655  45.317 
44.473  16.220  44.710 
46.202  13.977  48.925 
44.842  14.882  46.836 
46.006  14.743  47.861 
48.101  15.610  43.139 
44.373  15.843  46.419 
48.044  13.454  47.788 
48.673  13.688  50.208 
48.459  14.483  46.167 
47.185  14.319  47.243 
50.997  13.764  45.328 
50.327  13.446  47.213 
52.256  13.174  47.738 
50.676  12.971  49.407 
54.793  11.422  49.901 
51.270  13.186  46.916 
53.065  13.866  44.488 
54.989  12.552  47.354 
52.551  13.627  45.143 
58.117  11.342  50.802 
56.654  11.984  48.033 
55.112  13.251  46.803 
57.482  11.948  46.768 
60.763  11.568  47.662 
55.720  11.850  48.090 
64.076  14.379  43.327 
61.356  11.638  47.789 
60.154  10.790  50.607 
72.724  13.809  50.420 
68.300  13.308  46.517 
68.914  14.270  47.004 
64.204  11.387  49.474 
67.729  13.503  46.572 
70.657  12.921  50.349 
71.591  14.385  46.870 
74.384  12.504  55.651 
71.314  13.808  49.403 
69.543  13.246  47.581 
70.987  13.806  47.114 
72.965  15.630  46.000 
70.997  13.546  48.043 
72.927  14.800  47.229 
75.134  14.684  48.064 
81.017  18.468  46.136 
79.485  16.922  49.025 
75.168  15.317  48.861 
79.650  17.640  47.067 
78.950  17.206  46.719 
80.000  17.961  48.250 
82.774  19.647  46.521 
81.692  17.851  49.434 
80.440  18.204  46.140 
81.694  18.633  47.310 
83.627  19.606  47.205 
85.066  20.071  50.031 
82.764  19.370  47.267 
85.534  20.316  49.537 
85.319  20.944  48.430 
85.886  21.398  47.118 
86.294  21.754  47.851 
86.750  22.012  49.336 
87.074  21.844  48.738 
88.183  22.697  48.494 
87.672  22.524  47.747 
88.213  23.911  47.756 
89.030  23.816  48.118 
89.047  24.292  46.556 
90.390  24.812  47.532 
91.630  25.456  47.919 
91.758  26.674  47.088 
92.502  27.147  46.113 
92.402  27.307  45.382 
92.091  27.304  44.926 
92.290  27.565  45.794 
93.244  27.660  46.141 
97.319  30.540  48.117 
96.447  29.229  48.966 
98.007  33.028  46.903 
95.640  29.277  47.660 
98.162  33.651  46.438 
97.742  33.726  44.898 
97.643  34.456  44.263 
99.673  36.965  47.486 
96.636  31.021  46.798 
100.480  35.969  50.368 
98.904  37.398  45.272 
99.438  35.443  49.173 
99.870  35.398  49.746 
100.433  37.311  47.410 
98.447  35.089  45.287 
100.877  38.944  45.711 
100.367  40.291  43.843 
100.871  39.948  45.708 
102.009  40.827  45.743 
101.293  40.531  46.746 
102.539  41.538  45.319 
102.676  42.526  46.081 
103.121  42.990  45.563 
103.223  43.451  46.566 
103.414  43.209  45.895 
103.308  44.390  46.165 
103.620  46.091  47.065 
104.393  45.994  48.001 
104.271  46.330  47.232 
104.684  47.161  48.175 
105.230  48.064  49.261 
104.901  48.756  48.156 
105.413  49.493  48.358 
105.590  50.589  48.203 
105.832  51.069  47.439 
105.841  51.540  48.456 
106.340  53.055  48.257 
106.469  53.070  48.755 
107.108  56.566  47.786 
108.332  56.913  52.901 
106.624  53.869  49.894 
107.793  55.857  51.778 
107.928  57.420  49.645 
107.549  57.365  48.126 
107.630  58.319  47.413 
108.425  57.362  51.654 
107.758  56.222  49.512 
107.637  62.825  47.402 
107.659  62.917  48.838 
107.306  63.686  47.181 
107.690  61.473  50.203 
107.763  63.021  48.254 
107.254  65.321  50.627 
105.725  60.943  41.751 
107.471  60.808  49.657 
106.982  67.037  45.286 
107.511  64.880  48.025 
107.057  69.770  48.539 
107.404  69.794  47.903 
106.321  70.843  48.571 
106.484  70.761  47.048 
104.599  77.060  47.445 
105.847  72.705  45.450 
106.146  70.029  44.945 
106.167  74.195  48.375 
105.917  72.434  49.996 
105.159  76.145  46.790 
104.794  78.907  50.405 
106.428  74.705  50.662 
104.487  81.353  52.635 
105.379  76.652  48.387 
103.730  82.826  54.453 
101.576  84.689  51.833 
102.210  77.998  40.470 
99.288  87.028  44.668 
102.850  82.058  47.221 
104.002  81.291  50.574 
102.490  82.923  50.545 
98.332  88.937  48.022 
101.061  82.861  44.434 
100.981  84.506  48.358 
99.484  87.242  48.469 
99.430  88.107  48.225 
97.082  90.323  48.312 
98.509  89.512  47.274 
97.769  90.020  47.273 
101.000  84.779  48.941 
99.317  88.596  47.895 
98.685  89.050  50.657 
99.302  89.004  50.064 
94.385  92.705  44.170 
95.668  92.923  49.267 
94.983  94.498  51.504 
94.461  93.937  47.180 
93.456  95.012  47.889 
89.565  97.832  47.092 
89.797  96.829  47.329 
87.304  98.477  44.503 
89.724  97.312  46.461 
92.663  93.762  44.264 
86.499  99.270  45.974 
91.935  93.467  42.814 
91.382  92.731  42.220 
89.749  96.531  45.417 
84.987  99.620  45.508 
86.419  98.566  44.247 
84.578  100.817  46.297 
86.510  100.095  47.466 
86.584  100.713  52.502 
87.825  100.120  49.667 
77.763  105.258  47.684 
85.511  101.825  48.891 
82.601  99.495  41.615 
77.784  103.929  44.384 
82.392  102.027  45.932 
82.677  100.708  44.658 
82.043  100.533  42.433 
79.647  104.367  47.512 
82.513  103.992  51.580 
80.198  103.891  50.283 
73.073  106.273  48.804 
80.813  103.825  49.533 
70.706  105.931  47.286 
71.452  106.786  51.138 
74.050  106.817  51.447 
69.041  106.693  48.615 
70.899  105.961  42.964 
70.256  105.589  43.200 
65.325  106.058  43.392 
67.534  104.897  40.824 
68.348  106.825  49.361 
68.761  106.749  47.727 
69.321  106.438  43.852 
61.689  107.434  47.834 
63.384  106.995  47.097 
63.673  106.416  46.164 
65.567  105.787  42.455 
60.028  108.106  47.868 
61.016  107.078  47.728 
61.429  106.918  45.665 
57.261  106.417  43.614 
58.706  108.338  48.317 
59.344  108.153  48.376 
57.388  108.250  47.460 
57.218  108.483  48.327 
54.807  108.630  49.595 
57.582  107.992  46.492 
54.259  108.239  46.710 
54.564  105.515  43.108 
56.226  108.454  48.104 
53.358  108.094  47.181 
50.391  107.797  47.002 
50.069  107.624  47.433 
50.593  107.245  46.363 
47.967  106.359  45.755 
50.742  106.891  45.525 
47.292  106.604  48.717 
47.016  107.044  48.953 
50.553  106.518  43.695 
46.321  106.720  48.939 
44.558  105.798  49.477 
45.405  106.317  46.753 
43.154  106.005  49.244 
42.890  105.838  48.466 
43.477  105.578  50.103 
41.621  104.960  50.642 
40.324  105.113  50.030 
39.698  104.202  47.496 
39.745  104.061  46.574 
38.526  103.940  48.673 
41.235  104.151  47.243 
38.647  103.020  44.764 
39.486  103.328  47.534 
37.592  102.430  44.345 
34.258  101.441  47.726 
36.008  101.553  45.156 
35.369  102.003  45.295 
36.929  101.363  42.647 
32.660  100.023  44.536 
35.781  102.673  47.809 
33.341  99.418  43.996 
30.441  96.474  43.208 
31.989  101.057  49.822 
28.848  96.921  45.147 
29.239  98.253  48.370 
28.220  96.510  45.180 
28.038  96.189  47.823 
26.258  96.348  50.021 
29.114  97.712  46.627 
28.474  97.013  46.713 
27.855  96.364  46.963 
27.810  96.273  45.820 
26.036  92.840  43.085 
25.405  96.031  51.564 
25.227  94.853  51.104 
25.450  95.431  49.917 
24.432  95.640  52.356 
22.608  91.931  49.746 
20.661  88.167  47.470 
21.772  90.520  49.069 
21.319  89.069  46.351 
22.793  91.973  48.468 
19.450  87.905  50.622 
19.641  85.000  48.584 
18.504  83.695  49.774 
19.038  84.763  49.251 
18.424  83.885  50.739 
17.886  83.577  48.997 
18.250  83.342  48.035 
18.012  83.164  49.296 
17.404  81.141  49.606 
16.809  80.531  49.766 
16.401  80.157  48.969 
16.032  79.012  50.079 
15.875  77.819  49.457 
16.255  78.608  49.669 
15.762  77.405  48.573 
15.775  76.552  48.776 
14.527  75.220  49.607 
14.599  74.526  48.948 
14.281  75.542  51.273 
14.167  73.431  50.473 
13.750  73.214  50.331 
14.176  73.122  48.758 
13.393  72.037  47.483 
13.604  72.479  50.415 
12.314  68.923  51.710 
13.039  68.992  47.507 
12.824  69.045  48.348 
12.698  68.948  49.200 
12.894  67.905  47.515 
13.536  68.262  47.177 
12.412  66.670  50.048 
12.712  65.188  47.585 
12.345  66.047  49.085 
13.118  62.730  46.796 
12.690  62.431  48.039 
12.308  65.317  49.541 
12.355  62.094  48.693 
12.790  61.060  49.369 
11.903  59.769  49.996 
10.688  58.507  57.876 
12.426  57.782  46.645 
12.002  57.870  48.279 
12.100  59.533  48.005 
12.028  56.630  49.601 
11.236  52.673  50.155 
11.059  58.770  54.742 
11.993  54.183  47.887 
10.777  54.685  54.466 
11.595  53.976  48.665 
10.501  53.755  51.576 
12.320  52.704  46.522 
12.054  51.101  46.479 
13.429  52.883  44.841 
12.198  46.359  50.724 
11.884  49.071  48.876 
13.747  48.671  44.496 
13.848  47.033  45.709 
14.177  45.781  47.885 
14.040  45.856  46.870 
14.810  44.701  48.035 
14.465  44.635  47.200 
14.854  43.741  48.282 
15.236  43.033  48.719 
15.404  42.369  48.451 
15.649  41.677  47.854 
14.411  42.423  50.961 
15.208  41.852  49.568 
16.234  39.528  50.342 
17.240  38.118  49.262 
18.114  37.156  46.996 
17.532  36.397  51.080 
16.014  38.253  51.692 
17.849  37.732  49.354 
18.895  36.540  46.152 
17.962  36.198  50.248 
18.334  35.003  52.568 
21.115  30.007  51.886 
19.321  34.990  48.916 
20.242  34.636  46.285 
22.457  29.795  49.803 
21.849  30.883  48.704 
23.163  30.172  47.360 
24.349  28.924  47.921 
22.220  31.738  47.588 
24.376  29.382  44.211 
24.705  28.066  47.849 
24.766  28.926  45.906 
24.963  28.735  45.190 
22.640  28.463  52.065 
21.798  31.637  48.172 
28.465  24.280  45.982 
26.687  24.217  50.715 
28.296  23.592  46.592 
33.326  19.818  51.051 
30.118  24.160  44.904 
35.078  20.345  48.624 
33.310  20.472  50.099 
30.899  21.842  48.498 
35.910  17.610  53.097 
36.838  18.522  49.600 
34.671  20.026  48.117 
35.437  20.161  47.773 
38.349  18.097  47.985 
38.271  19.145  47.234 
39.569  17.961  46.644 
38.835  18.390  46.722 
40.249  17.711  46.700 
40.930  17.281  47.320 
45.413  15.538  46.617 
43.058  17.245  44.367 
40.978  18.808  45.196 
43.456  17.507  44.239 
43.879  16.831  44.468 
42.367  17.769  42.976 
45.305  16.303  44.896 
43.634  17.577  43.765 
45.014  15.259  45.755 
45.077  16.070  44.104 
46.114  14.059  47.888 
49.018  13.923  45.868 
45.236  15.532  45.371 
48.663  13.298  48.561 
52.217  13.481  47.274 
46.898  14.744  45.943 
51.912  12.715  48.589 
54.248  11.679  48.883 
53.732  12.889  47.376 
51.864  13.827  45.725 
61.166  13.240  44.729 
58.836  11.724  46.555 
55.448  12.696  46.042 
55.547  11.549  49.515 
59.737  11.470  47.545 
52.862  13.480  45.985 
62.306  13.445  43.742 
58.115  10.467  51.863 
56.414  11.779  49.518 
63.037  12.712  45.115 
60.362  11.470  48.379 
58.996  10.617  52.549 
58.446  10.726  49.792 
61.517  12.395  45.641 
67.619  11.825  50.019 
69.266  14.008  45.234 
69.688  13.184  47.108 
69.501  13.907  46.436 
75.782  14.029  51.621 
69.824  14.668  44.706 
70.143  13.410  48.123 
70.506  13.303  49.391 
72.684  15.384  44.425 
71.437  13.772  47.315 
73.618  14.285  48.095 
76.528  15.408  48.426 
77.363  16.649  45.475 
75.642  16.289  44.840 
74.347  14.728  48.391 
75.185  15.549  45.750 
77.563  17.940  44.867 
79.219  18.112  44.219 
80.481  18.577  44.553 
81.405  18.236  47.246 
84.217  20.537  45.689 
80.869  17.434  49.141 
82.423  19.056  47.131 
84.360  20.606  47.388 
84.670  20.478  48.252 
82.364  19.789  46.057 
84.251  19.722  48.147 
86.074  21.604  46.695 
86.956  21.251  49.483 
86.773  22.405  47.324 
87.119  22.073  47.547 
87.450  22.240  48.354 
88.032  22.912  48.049 
88.106  23.170  47.366 
88.649  24.658  47.139 
88.380  24.080  46.907 
90.554  24.876  46.657 
91.571  25.517  47.141 
90.551  25.646  46.290 
90.834  25.695  45.674 
91.118  25.676  46.502 
91.442  27.391  44.411 
94.040  28.443  47.182 
92.689  28.609  44.109 
93.659  29.554  45.423 
94.751  30.447  45.610 
94.966  29.386  46.393 
96.662  31.191  45.936 
95.065  29.403  47.962 
94.791  30.017  46.838 
95.518  30.126  45.802 
97.266  34.032  43.615 
98.532  34.933  47.449 
97.453  35.017  44.746 
99.184  35.507  47.486 
99.441  34.499  49.219 
99.523  33.322  49.778 
100.128  36.823  47.230 
100.480  39.097  47.254 
99.576  39.053  42.701 
100.742  39.586  46.096 
100.484  39.468  44.381 
101.609  39.713  47.226 
102.360  40.553  48.075 
101.304  40.863  45.380 
101.991  41.608  45.236 
102.561  42.442  44.906 
102.804  43.667  45.784 
102.410  42.609  44.096 
103.971  45.634  46.327 
103.823  45.179  46.793 
104.200  46.479  46.442 
104.029  47.250  47.559 
104.406  46.488  47.796 
104.611  48.033  47.713 
105.342  48.969  48.481 
105.556  49.820  47.893 
105.696  49.881  47.127 
105.355  50.560  47.223 
106.172  52.291  48.373 
105.636  52.722  47.075 
106.139  52.439  47.733 
106.558  53.122  50.434 
107.379  55.481  49.019 
106.460  53.983  48.420 
107.723  55.350  51.939 
107.322  57.682  46.845 
108.050  58.639  47.831 
107.711  58.402  46.613 
108.097  58.027  48.234 
107.826  58.539  49.130 
105.848  57.988  43.605 
