64.704  109.428  68.383 
63.111  109.648  67.840 
58.654  109.506  69.478 
58.256  109.843  67.523 
60.642  109.034  71.911 
60.158  109.958  64.073 
59.732  109.813  61.408 
55.177  108.450  72.810 
60.549  109.997  65.683 
58.070  109.150  70.085 
54.325  109.380  69.910 
57.456  109.470  67.001 
50.831  108.087  69.762 
50.705  108.575  63.530 
50.199  108.870  67.690 
52.250  109.701  65.556 
48.611  108.813  57.042 
48.682  109.016  60.488 
48.707  109.085  64.007 
46.858  108.500  62.874 
42.110  106.677  63.346 
44.049  107.325  61.116 
45.898  108.038  61.904 
50.341  108.697  66.007 
45.088  107.983  61.499 
43.146  106.212  70.325 
40.165  104.858  70.900 
40.296  106.309  66.198 
43.192  105.312  72.165 
42.658  106.833  64.574 
42.841  105.485  71.423 
36.482  103.966  66.221 
38.050  104.338  67.334 
38.327  105.017  67.877 
34.327  102.082  67.169 
38.013  103.551  70.051 
34.386  101.478  68.612 
34.715  102.460  64.794 
32.221  100.485  67.102 
34.425  101.771  69.146 
32.599  100.913  67.376 
32.143  100.040  68.705 
31.158  99.550  67.507 
31.817  100.092  67.162 
30.627  98.837  68.648 
29.701  98.203  68.181 
29.129  97.958  67.692 
28.439  97.676  67.527 
27.856  96.830  68.227 
27.542  96.517  67.734 
27.149  96.344  68.281 
26.485  95.717  68.644 
25.816  95.305  67.906 
23.361  93.307  67.838 
23.602  93.671  69.191 
22.669  93.282  66.185 
22.536  92.880  67.778 
20.686  91.020  64.850 
22.075  93.760  60.936 
21.571  92.098  64.825 
21.493  91.546  69.928 
21.580  91.794  67.268 
20.296  90.051  69.675 
19.181  87.743  71.195 
20.448  89.044  69.690 
16.768  84.341  68.192 
18.537  88.197  67.070 
18.376  86.324  73.694 
17.159  85.266  66.536 
18.266  87.701  67.839 
17.841  86.408  66.710 
17.579  85.857  69.643 
17.221  85.583  68.160 
16.712  82.943  68.944 
16.462  82.191  68.369 
16.204  81.302  68.384 
15.272  80.313  69.027 
15.752  79.508  69.159 
15.120  78.822  69.363 
15.790  78.811  69.689 
15.008  77.378  69.662 
15.093  78.579  67.958 
14.205  77.079  66.437 
14.363  73.446  71.196 
12.757  73.837  68.363 
13.843  75.587  68.742 
13.124  73.819  69.075 
12.843  73.559  63.900 
12.807  72.863  67.076 
12.501  71.323  67.251 
12.410  71.025  69.553 
12.430  71.495  68.023 
11.820  69.751  67.967 
11.083  68.457  66.991 
12.094  69.696  71.408 
10.715  63.086  69.641 
10.525  64.370  61.720 
10.446  62.342  69.792 
10.306  61.367  69.658 
10.601  55.109  71.133 
10.542  57.910  72.012 
10.161  59.349  65.855 
10.475  59.085  69.013 
10.468  55.839  68.599 
11.401  58.946  72.359 
11.510  55.295  72.444 
11.309  52.403  73.689 
10.709  54.670  70.677 
11.449  54.082  72.191 
11.096  54.195  70.532 
10.790  56.494  68.538 
11.397  51.144  69.958 
10.743  54.020  68.116 
11.004  51.532  68.663 
11.629  51.411  68.343 
12.059  50.499  67.830 
12.026  49.775  67.968 
12.180  48.840  67.497 
11.760  48.915  66.701 
11.919  48.042  67.085 
12.378  47.486  67.466 
12.308  46.313  68.899 
12.595  45.418  64.680 
12.292  45.650  65.577 
12.538  44.996  65.287 
13.221  42.476  62.202 
13.368  43.660  63.308 
13.653  45.502  68.458 
14.626  38.397  67.180 
15.967  36.854  65.224 
14.431  41.975  71.459 
16.700  36.035  68.105 
15.205  41.539  72.737 
16.675  36.137  71.692 
16.822  35.080  68.020 
19.375  30.576  65.894 
18.941  31.841  62.468 
18.268  31.960  66.335 
21.673  28.818  70.448 
19.129  30.634  65.051 
20.016  31.919  69.934 
24.160  27.696  72.351 
19.051  33.598  74.235 
22.007  28.405  70.355 
23.987  27.367  73.629 
20.418  30.654  71.708 
20.352  29.041  63.186 
22.095  26.972  62.002 
26.263  23.916  66.907 
23.836  26.575  68.646 
21.991  27.970  67.306 
26.473  24.990  70.475 
26.577  23.652  66.085 
26.243  24.621  69.566 
26.509  24.624  68.247 
27.362  24.191  68.889 
29.314  23.332  70.528 
29.678  22.870  68.231 
30.190  21.603  67.655 
29.745  22.221  67.472 
32.040  20.382  67.611 
32.535  19.531  67.665 
32.596  19.667  66.313 
33.639  19.040  66.877 
33.339  19.071  67.582 
34.217  18.832  67.249 
34.594  17.917  67.013 
35.719  17.698  66.997 
37.201  16.910  67.180 
36.637  17.180  66.679 
37.332  16.638  66.186 
37.367  16.471  65.684 
37.908  15.983  63.768 
41.135  15.072  67.533 
40.479  15.532  69.205 
41.161  15.158  66.715 
41.998  14.136  65.275 
43.975  13.457  67.995 
42.889  13.968  68.381 
43.734  13.340  66.420 
44.174  12.966  65.801 
44.696  12.982  68.102 
44.517  13.628  68.479 
46.965  12.528  68.865 
44.612  12.603  65.697 
44.714  12.827  66.566 
48.385  11.237  65.733 
50.900  11.022  66.080 
46.964  12.706  65.949 
54.005  10.327  68.212 
56.725  9.899  65.800 
53.652  11.180  66.830 
57.794  9.742  63.662 
54.837  10.613  62.296 
55.131  9.979  62.653 
52.554  10.862  63.396 
55.798  9.586  63.752 
57.132  10.111  60.817 
58.154  10.639  63.171 
61.327  10.503  68.463 
62.661  10.472  68.773 
60.628  10.052  65.848 
63.932  10.829  67.573 
63.709  10.335  66.285 
62.393  10.192  64.451 
64.224  11.142  66.602 
65.552  11.850  68.994 
65.481  10.759  67.622 
65.180  10.857  65.052 
67.481  11.235  67.534 
68.121  11.232  63.455 
66.260  10.824  65.584 
68.053  10.929  65.489 
68.822  11.665  66.834 
70.225  10.730  61.241 
72.994  11.584  63.514 
71.366  11.117  62.147 
71.194  11.273  64.448 
70.949  11.165  63.198 
73.698  11.645  64.179 
77.498  13.039  68.019 
75.535  11.914  62.624 
79.118  14.459  68.523 
80.357  15.036  68.519 
81.872  16.187  71.482 
74.586  11.535  63.467 
84.051  16.047  64.615 
81.201  14.738  66.803 
81.120  13.837  64.549 
78.570  13.024  61.448 
83.900  16.140  69.365 
82.807  15.183  64.044 
88.372  19.285  65.657 
86.155  17.661  66.544 
84.101  16.055  66.731 
87.602  18.816  64.729 
85.684  17.058  64.896 
88.048  19.838  67.862 
84.871  16.687  64.735 
91.428  21.757  65.154 
88.047  19.334  68.632 
90.036  21.029  69.646 
90.756  20.943  62.969 
89.144  19.727  65.630 
86.721  18.698  65.075 
92.762  23.338  66.289 
93.592  25.161  70.329 
92.556  23.453  70.336 
91.047  22.011  66.303 
94.486  25.189  65.281 
97.812  28.328  66.612 
97.164  28.743  66.461 
98.042  30.069  68.792 
99.401  30.697  63.772 
97.443  28.446  67.795 
99.189  30.116  68.702 
98.460  29.303  65.337 
99.927  31.247  62.727 
101.591  33.374  61.636 
103.197  36.338  63.070 
99.385  30.403  67.518 
101.103  32.043  65.217 
103.329  37.125  63.861 
102.184  34.685  66.609 
102.600  35.478  66.526 
101.474  32.830  67.863 
100.748  33.144  64.913 
101.632  35.108  68.190 
103.912  37.378  64.999 
104.128  37.784  65.159 
103.597  40.278  74.202 
101.647  39.025  77.623 
104.918  39.574  63.860 
102.806  39.260  75.359 
104.109  38.903  69.262 
103.925  38.043  60.647 
104.000  37.608  69.376 
105.373  40.926  64.861 
106.246  43.468  69.364 
104.877  40.834  70.152 
104.414  38.744  70.474 
105.967  42.523  63.265 
106.771  45.925  65.750 
105.142  44.851  73.335 
106.689  44.766  63.043 
107.652  47.806  65.064 
107.715  46.877  65.918 
107.038  45.682  64.498 
107.451  48.162  64.702 
107.402  47.529  67.809 
107.888  47.571  67.206 
107.959  48.793  66.067 
108.381  51.864  66.956 
108.081  49.138  65.720 
107.665  50.001  66.832 
107.923  49.585  65.563 
108.066  52.335  64.212 
108.299  54.924  63.690 
108.538  56.050  63.918 
109.333  56.967  63.023 
109.104  56.429  63.467 
109.168  59.327  60.408 
108.887  61.567  61.441 
108.410  64.618  68.107 
108.002  61.870  69.671 
108.642  65.634  63.173 
108.328  64.739  65.711 
108.470  64.223  64.438 
108.217  61.675  68.203 
108.283  66.366  67.700 
107.923  68.961  65.020 
107.755  69.592  68.816 
107.821  70.258  64.381 
107.769  68.704  66.501 
107.613  71.196  67.216 
106.088  72.508  74.217 
106.911  73.387  66.329 
107.176  70.905  66.835 
107.295  73.630  62.825 
104.182  78.999  69.132 
104.317  79.710  68.401 
105.836  77.786  67.165 
106.946  75.119  64.879 
106.260  74.515  70.537 
104.819  78.076  70.011 
105.437  78.528  65.700 
106.052  76.841  66.384 
102.269  83.651  65.817 
102.177  84.993  67.021 
104.908  79.308  67.387 
102.887  82.944  63.389 
101.437  85.798  66.311 
102.426  84.641  64.162 
100.998  85.370  67.863 
100.197  85.963  69.990 
100.975  86.252  64.999 
100.021  85.978  68.795 
99.447  88.987  60.589 
101.343  84.869  67.996 
100.898  86.356  65.856 
99.519  87.151  68.962 
98.517  87.871  69.549 
99.284  88.965  64.101 
99.953  88.277  62.946 
95.793  91.427  66.775 
95.194  92.045  67.855 
92.544  97.058  63.839 
98.103  88.410  68.949 
96.502  90.967  67.773 
96.338  90.165  69.945 
95.281  94.527  59.694 
91.785  96.990  65.469 
93.432  94.508  68.658 
90.100  97.026  68.336 
91.095  97.371  65.385 
89.033  99.042  66.801 
89.324  97.248  67.816 
88.983  97.755  67.969 
88.408  99.379  66.838 
87.080  100.513  66.583 
87.778  99.882  66.228 
86.086  99.724  68.260 
82.989  102.331  70.208 
84.576  102.269  63.798 
83.658  101.648  69.985 
84.949  101.961  61.265 
81.204  103.658  64.810 
82.795  102.777  63.575 
80.538  103.453  67.164 
81.603  103.463  63.945 
83.409  102.821  63.910 
78.301  103.887  70.257 
80.751  103.482  64.928 
77.984  104.768  65.993 
77.164  104.410  67.109 
78.443  104.907  66.062 
77.087  105.704  65.804 
76.593  105.691  66.659 
75.765  105.499  66.779 
74.778  106.189  66.064 
73.844  107.005  66.083 
72.344  107.220  65.796 
70.724  106.895  68.263 
70.909  107.591  67.674 
68.917  108.136  65.097 
70.391  107.347  64.905 
66.716  109.313  64.001 
69.768  109.104  59.460 
67.415  109.126  64.506 
63.038  110.141  65.757 
61.551  109.041  71.769 
62.265  109.381  71.167 
65.488  109.376  62.778 
62.113  110.534  63.099 
66.622  109.036  62.553 
66.499  109.151  61.261 
62.543  107.964  74.377 
56.229  110.048  64.441 
61.147  109.497  69.202 
59.900  110.078  63.295 
63.861  109.686  68.218 
61.755  110.001  64.681 
60.088  109.418  67.061 
56.824  109.960  66.810 
59.095  109.851  66.967 
59.165  110.212  65.497 
55.204  109.502  60.501 
53.847  109.778  65.844 
46.671  108.462  63.808 
53.270  109.451  63.866 
50.546  109.076  58.765 
50.090  109.139  63.559 
47.215  108.330  66.757 
51.046  109.167  59.969 
43.339  107.228  64.803 
45.604  107.591  65.952 
44.225  107.707  62.318 
43.263  107.139  64.125 
51.000  109.392  61.210 
41.712  106.393  67.568 
39.982  105.787  66.598 
47.579  108.794  64.866 
42.000  105.706  70.114 
42.852  107.063  66.619 
42.442  106.844  67.767 
40.172  105.962  63.440 
36.516  103.883  65.196 
37.248  103.964  66.641 
35.251  102.970  66.141 
36.440  102.988  66.611 
38.379  104.662  68.543 
37.280  103.537  68.010 
35.783  102.396  67.886 
33.667  101.705  67.129 
33.915  100.972  67.976 
32.704  100.238  66.002 
33.519  101.702  66.286 
32.165  100.676  65.622 
31.976  100.313  66.290 
30.008  98.685  67.529 
30.096  98.863  68.057 
30.001  97.949  67.357 
29.007  97.402  67.070 
28.095  97.285  66.698 
28.532  97.759  66.966 
27.779  97.306  67.508 
26.717  96.224  66.910 
26.732  95.866  67.258 
26.122  94.993  67.440 
25.369  94.536  67.656 
24.588  94.585  68.144 
24.318  94.152  67.622 
22.538  94.119  64.109 
20.659  91.571  65.656 
21.512  92.853  65.130 
19.367  88.843  67.886 
20.116  90.935  65.602 
21.842  91.968  68.674 
18.645  87.843  70.574 
17.743  86.441  63.939 
19.683  89.266  69.171 
18.377  87.238  69.822 
17.606  85.621  71.564 
18.730  88.413  65.799 
17.782  87.628  62.825 
17.394  87.185  65.246 
17.587  85.194  69.990 
19.149  89.201  64.667 
17.648  85.599  68.953 
16.070  82.427  66.708 
15.927  81.846  68.176 
15.696  80.836  67.824 
15.903  80.591  68.628 
15.378  80.250  68.531 
14.888  79.406  68.063 
14.769  78.813  68.557 
15.518  79.646  66.863 
15.038  78.091  70.037 
13.700  75.009  70.305 
14.929  77.389  68.598 
14.918  75.955  70.383 
13.261  74.230  67.702 
13.486  74.525  69.530 
11.485  69.280  69.653 
12.462  70.796  70.973 
12.982  71.771  69.983 
11.262  68.098  61.366 
11.018  66.005  68.970 
11.515  65.516  71.413 
11.567  67.803  71.462 
11.363  64.369  70.326 
12.412  70.282  69.182 
10.324  58.018  67.606 
11.960  66.292  73.762 
11.106  67.758  67.446 
10.371  60.912  66.813 
10.822  55.943  70.903 
10.721  65.524  68.649 
10.763  57.201  70.997 
10.998  64.247  69.255 
10.459  57.750  66.175 
10.938  56.994  69.769 
11.044  55.727  72.782 
10.380  56.984  67.751 
10.434  62.154  68.611 
10.204  55.201  68.956 
10.304  55.364  68.126 
10.986  53.979  68.847 
10.981  53.251  68.468 
10.924  52.254  68.282 
11.404  50.985  68.290 
11.327  51.079  67.419 
11.446  50.462  67.769 
11.988  49.966  67.053 
11.901  48.310  66.204 
12.323  48.321  66.933 
12.414  46.746  66.940 
12.365  46.511  70.038 
12.621  45.002  66.797 
12.367  46.105  67.683 
12.372  45.163  63.752 
13.472  43.427  67.847 
13.938  44.043  72.497 
12.806  42.637  62.372 
14.452  41.133  66.322 
14.465  39.931  67.513 
13.417  41.123  64.646 
16.431  34.676  67.911 
16.161  35.931  66.903 
20.317  29.993  70.463 
17.012  34.227  64.094 
17.587  34.219  69.417 
19.835  31.747  71.943 
18.138  33.337  67.127 
19.391  30.170  66.689 
18.867  31.250  69.650 
25.080  26.936  74.224 
23.097  27.876  69.527 
22.190  28.319  67.908 
22.533  28.389  69.014 
21.038  28.560  65.867 
24.967  25.190  66.857 
21.767  29.063  69.816 
18.637  31.770  62.033 
22.793  26.753  66.948 
21.475  28.848  64.885 
24.054  26.028  67.074 
19.528  30.249  68.159 
23.798  27.201  69.377 
22.222  27.251  65.811 
20.871  29.512  67.978 
24.667  26.996  73.413 
27.514  23.022  66.101 
28.835  22.714  68.256 
29.597  21.926  68.199 
30.780  20.908  66.587 
31.297  20.283  65.406 
31.821  20.039  65.966 
32.254  20.176  66.717 
31.787  20.434  65.446 
33.946  18.583  66.470 
34.233  18.880  66.187 
34.601  17.967  66.058 
35.531  18.011  65.690 
35.581  17.510  66.025 
36.737  17.314  67.534 
36.893  16.590  65.924 
36.150  16.929  65.718 
38.251  15.789  66.598 
41.455  15.034  68.495 
39.435  16.235  66.763 
38.365  16.139  67.315 
40.224  15.174  65.560 
39.660  15.681  66.822 
42.591  14.650  66.838 
43.824  12.646  63.554 
41.626  14.678  66.671 
43.042  14.014  66.345 
42.316  13.695  64.414 
45.688  12.897  68.094 
44.464  13.483  69.340 
46.589  12.221  67.114 
48.871  11.550  67.805 
45.068  12.400  63.480 
48.847  11.866  65.540 
49.176  11.866  63.233 
54.071  10.330  66.521 
55.284  9.571  64.474 
55.244  10.190  61.472 
52.982  10.138  62.876 
58.953  10.058  67.257 
55.719  10.195  64.822 
57.428  10.136  61.270 
51.608  11.449  64.609 
57.764  9.800  66.898 
61.733  10.234  67.946 
60.929  10.889  68.024 
60.436  10.421  67.455 
63.591  10.804  68.859 
62.841  10.876  65.154 
62.570  10.668  66.290 
63.772  10.868  65.950 
64.463  10.384  65.727 
63.823  11.208  68.213 
71.801  11.454  65.743 
64.863  10.599  66.673 
68.064  11.185  65.899 
68.779  11.885  65.968 
65.293  10.346  65.175 
67.293  11.640  66.879 
69.820  11.276  63.603 
68.310  10.865  64.198 
69.348  11.051  64.500 
70.498  10.864  62.107 
70.729  11.365  65.656 
69.388  10.683  60.195 
75.298  11.970  61.932 
76.941  12.554  60.431 
70.408  11.346  64.387 
76.299  13.566  71.234 
77.141  12.815  66.719 
79.562  13.880  62.797 
82.778  16.021  67.720 
82.096  15.517  65.403 
82.383  15.964  68.582 
78.469  13.464  65.038 
84.036  15.893  65.430 
84.029  15.685  64.036 
81.777  15.227  60.497 
81.515  14.788  63.665 
76.967  12.607  65.522 
87.837  19.032  66.353 
88.786  19.848  66.076 
86.086  17.336  69.125 
86.826  18.116  68.196 
89.689  20.246  65.910 
87.465  18.756  68.438 
90.676  20.804  63.709 
89.534  20.306  61.651 
90.354  20.595  61.281 
92.973  23.264  64.513 
93.536  24.214  66.123 
91.635  22.655  68.704 
92.343  22.713  65.790 
94.097  25.454  62.947 
93.782  25.600  74.583 
91.384  21.650  65.671 
95.158  26.026  66.466 
94.613  25.581  68.188 
97.500  28.225  64.324 
97.140  28.194  62.389 
97.052  29.613  68.541 
98.989  29.579  65.672 
98.455  29.367  67.588 
99.436  30.450  61.849 
100.971  32.571  61.931 
100.882  32.810  66.165 
98.755  29.333  63.226 
100.972  32.711  64.830 
101.299  36.335  73.278 
104.611  38.867  64.235 
98.285  29.035  61.366 
99.843  32.706  57.049 
100.871  32.855  68.448 
102.591  36.039  65.632 
103.507  36.424  67.412 
104.816  39.230  66.168 
103.815  39.420  73.030 
100.156  34.953  72.967 
105.338  40.867  62.427 
102.881  41.045  76.345 
104.738  39.282  65.258 
104.676  40.342  62.238 
104.913  41.592  64.903 
105.205  40.167  66.060 
104.694  39.530  68.994 
102.862  37.340  70.316 
106.237  43.442  66.726 
107.320  46.389  65.202 
106.459  43.441  63.464 
106.749  44.890  68.871 
105.049  40.201  69.827 
106.587  46.570  63.235 
106.356  43.315  68.179 
107.656  49.891  64.992 
108.536  51.046  66.465 
108.196  51.892  68.722 
107.366  48.289  68.273 
107.253  49.616  64.628 
108.087  50.576  65.282 
107.944  50.485  68.789 
108.992  53.267  66.457 
108.215  51.878  64.320 
108.624  55.984  66.439 
108.957  58.964  64.034 
108.059  57.045  66.973 
108.805  58.472  60.757 
108.158  52.998  64.183 
108.632  59.208  60.676 
109.020  62.484  63.913 
108.578  63.066  68.216 
107.971  68.149  64.806 
108.875  62.136  65.688 
107.247  65.784  71.215 
108.613  62.448  61.710 
107.988  65.962  68.934 
107.227  69.366  67.891 
107.237  74.196  66.547 
107.517  68.414  67.935 
106.889  74.914  65.491 
108.391  65.744  67.106 
107.170  71.873  71.390 
106.306  76.706  68.258 
106.554  75.657  65.361 
106.946  73.602  63.638 
106.158  76.435  67.806 
107.206  72.652  68.816 
105.251  78.390  68.174 
106.325  76.362  65.874 
105.906  77.099  65.818 
104.174  79.636  66.972 
105.088  77.091  69.434 
105.709  77.692  66.329 
104.597  78.976  68.391 
104.873  79.507  64.521 
103.895  81.718  65.949 
104.911  79.078  66.433 
103.401  82.903  64.611 
103.232  81.699  67.288 
102.915  83.538  64.970 
103.279  83.659  63.920 
101.402  86.171  65.181 
101.933  83.986  66.775 
99.653  88.069  65.906 
100.730  86.235  68.308 
97.385  91.743  60.432 
97.101  91.248  64.676 
99.497  86.433  69.641 
97.505  90.440  67.266 
100.665  87.105  65.195 
96.787  91.430  63.946 
97.460  90.174  68.072 
98.394  88.616  68.011 
94.476  91.205  70.553 
99.428  88.588  67.060 
95.110  92.160  68.630 
93.364  93.772  68.282 
93.687  95.145  66.032 
91.988  96.099  66.277 
90.687  96.989  67.088 
90.983  97.808  64.079 
91.254  95.686  68.265 
87.946  100.290  64.797 
91.535  96.093  67.800 
91.350  96.525  67.201 
90.391  97.876  65.778 
88.020  99.616  67.044 
87.654  100.090  66.654 
82.384  103.167  63.267 
85.226  100.557  69.408 
84.213  101.946  65.166 
81.614  103.821  63.470 
83.029  102.910  64.916 
85.087  102.462  58.906 
83.261  102.632  67.242 
81.663  103.912  60.836 
83.325  101.844  69.724 
80.644  103.211  64.496 
80.718  103.302  67.906 
79.346  104.021  64.181 
78.117  104.601  66.888 
79.097  104.222  66.063 
77.848  105.276  65.800 
76.360  105.271  66.155 
75.878  106.267  66.273 
76.107  106.369  65.746 
74.343  106.824  66.163 
73.030  106.529  66.084 
72.172  107.110  66.563 
71.843  107.542  65.125 
71.193  106.905  66.059 
72.233  107.101  67.179 
71.133  107.911  64.479 
70.691  108.207  61.912 
70.118  108.092  65.126 
69.549  108.044  61.348 
67.323  108.611  64.707 
64.494  109.203  64.829 
64.645  109.839  62.772 
68.016  109.156  61.852 
64.601  109.842  63.721 
60.864  109.572  61.219 
63.109  110.290  63.886 
65.652  109.384  61.374 
62.836  110.135  64.701 
63.174  109.751  63.187 
60.220  109.525  68.265 
63.378  109.183  67.628 
61.979  109.528  60.427 
56.162  108.683  70.924 
59.967  110.429  65.762 
54.724  109.477  70.274 
48.939  108.747  64.662 
57.737  109.772  63.947 
57.927  108.855  71.714 
54.927  109.342  69.034 
49.450  109.113  66.438 
51.693  109.195  67.915 
53.033  109.308  61.893 
56.008  109.288  70.086 
54.128  109.177  63.262 
44.827  107.500  59.965 
49.485  109.160  60.387 
46.359  108.789  60.675 
44.362  107.413  65.471 
41.243  106.058  64.610 
42.440  106.664  62.072 
43.138  107.274  60.992 
43.177  107.037  67.844 
42.493  106.752  67.175 
39.884  105.088  62.062 
36.799  104.230  63.498 
40.974  106.205  67.650 
41.163  105.135  69.206 
37.448  104.206  69.940 
38.507  104.549  63.668 
35.841  103.116  65.928 
39.316  104.786  62.936 
36.363  104.016  64.260 
37.648  104.158  65.681 
36.588  104.092  69.006 
32.183  101.105  64.834 
32.568  101.197  65.785 
32.663  100.676  66.578 
33.133  100.994  68.051 
31.569  99.473  66.013 
31.148  99.605  66.606 
31.277  99.085  67.279 
30.747  98.815  66.940 
29.645  98.426  66.722 
29.290  98.254  67.228 
28.785  98.097  66.160 
27.565  97.338  66.545 
27.280  96.957  67.056 
27.204  96.583  67.342 
26.310  96.291  66.236 
24.722  94.952  67.295 
23.926  94.105  68.540 
24.090  94.444  67.920 
23.311  93.825  68.118 
21.009  91.900  68.374 
21.694  92.868  64.444 
20.328  90.638  66.596 
18.385  89.211  60.397 
20.705  91.902  64.870 
20.409  89.168  73.235 
21.631  92.213  67.804 
16.703  84.969  66.857 
18.539  86.399  68.512 
17.660  85.851  65.941 
19.125  89.368  63.432 
17.658  86.473  68.386 
18.393  87.353  71.121 
16.543  83.536  68.289 
17.144  84.579  67.294 
16.907  83.724  67.450 
17.219  85.030  68.948 
15.941  82.865  67.398 
16.297  82.540  67.615 
15.941  80.913  67.041 
15.550  79.901  67.694 
15.150  79.880  67.320 
15.100  79.279  67.575 
14.570  78.476  67.904 
15.173  79.594  68.381 
14.239  76.806  67.840 
13.808  74.075  67.738 
14.788  76.826  65.970 
13.682  75.346  66.844 
14.275  76.062  69.589 
13.256  73.335  68.959 
12.071  70.001  72.818 
12.076  69.381  68.797 
12.876  71.892  70.735 
10.986  64.655  69.898 
13.385  73.736  65.758 
13.091  72.884  66.076 
11.040  68.328  65.204 
10.812  66.488  68.563 
12.577  70.226  69.961 
12.448  71.280  66.458 
10.231  64.935  64.064 
11.981  62.934  74.404 
11.527  57.978  75.467 
10.819  61.784  67.778 
10.779  61.906  69.966 
10.316  58.887  69.538 
10.340  56.682  69.093 
11.238  55.468  66.170 
10.780  57.879  72.538 
11.078  60.072  69.580 
11.209  56.637  70.600 
10.304  57.559  66.978 
10.909  54.701  68.603 
11.103  54.842  68.051 
11.266  54.047  67.189 
11.327  51.743  67.766 
11.889  51.629  67.433 
11.708  50.863  66.657 
11.518  50.140  66.996 
12.155  49.864  66.257 
11.669  49.482  65.633 
12.537  48.095  65.998 
12.552  47.399  66.285 
12.487  46.373  66.183 
12.790  45.222  67.362 
12.314  46.158  65.411 
12.367  45.553  62.889 
12.964  44.404  64.311 
13.925  40.625  64.122 
15.986  35.609  64.507 
13.087  42.944  63.161 
16.602  34.597  66.681 
13.849  41.548  60.991 
14.203  41.697  67.452 
18.148  33.778  68.831 
16.044  35.515  65.540 
13.344  44.632  69.339 
16.231  36.450  64.801 
17.257  34.107  68.942 
19.261  30.991  68.083 
18.298  33.464  69.501 
17.752  32.464  64.448 
18.604  31.422  65.144 
21.755  28.763  68.674 
21.358  29.597  69.521 
22.603  28.804  75.150 
20.210  30.666  69.430 
20.910  29.892  69.358 
21.744  27.669  65.569 
21.137  28.471  59.796 
25.028  25.425  67.766 
24.241  25.184  66.126 
21.625  27.643  61.589 
21.589  28.000  66.484 
22.495  27.523  66.697 
24.562  26.557  68.996 
22.042  27.012  57.420 
26.817  23.381  66.888 
26.178  23.637  62.235 
26.712  23.030  62.823 
30.009  21.995  70.141 
28.667  21.884  65.361 
24.220  26.291  71.171 
29.759  21.822  66.921 
30.989  22.085  70.017 
30.435  20.914  65.735 
33.370  19.389  66.601 
34.093  18.240  64.941 
34.669  18.443  65.419 
34.836  17.740  65.043 
35.360  17.561  64.586 
36.486  17.215  66.131 
35.503  17.250  65.238 
37.322  16.618  64.230 
37.883  16.078  65.387 
37.268  17.089  63.852 
38.743  16.124  65.783 
40.122  15.517  66.609 
38.259  15.709  64.464 
39.424  15.613  65.025 
41.863  14.119  64.405 
43.368  13.210  65.899 
42.401  14.398  65.530 
41.265  14.170  62.525 
42.754  13.544  65.274 
42.101  13.419  63.235 
42.430  14.003  60.776 
46.179  12.898  67.960 
46.229  12.024  65.412 
49.069  11.691  63.689 
43.324  13.769  68.048 
51.328  11.756  66.112 
49.815  11.160  66.258 
47.868  11.969  66.275 
52.857  11.440  62.082 
56.566  9.807  63.204 
60.113  9.950  66.638 
57.872  9.584  58.627 
57.690  10.043  62.922 
58.911  9.982  65.118 
58.404  9.865  67.375 
58.141  10.213  62.270 
62.141  10.315  67.379 
60.371  10.183  63.763 
61.020  9.992  63.438 
61.647  10.649  66.218 
62.959  10.257  65.182 
62.563  10.358  63.732 
62.096  10.598  65.350 
61.079  10.060  64.413 
63.598  10.893  65.496 
64.673  10.408  64.679 
67.655  11.267  65.237 
65.095  10.686  65.902 
66.725  10.629  64.120 
67.794  10.814  64.127 
65.546  10.907  66.718 
70.762  10.940  63.776 
72.202  11.838  63.319 
71.115  11.027  61.282 
71.361  11.090  64.958 
72.560  11.527  64.771 
72.902  11.276  61.631 
77.936  13.039  66.202 
78.134  13.289  67.666 
80.407  14.290  65.999 
81.838  15.346  66.683 
81.056  14.878  67.716 
71.150  11.637  62.482 
81.785  15.151  68.237 
76.672  12.176  61.608 
79.508  14.013  63.702 
79.796  14.006  65.353 
84.812  17.053  65.506 
82.764  15.486  62.668 
88.917  19.630  62.841 
81.898  14.664  64.886 
86.822  18.085  65.635 
86.060  17.398  63.612 
85.913  18.241  65.543 
87.208  19.081  62.643 
86.604  18.154  67.298 
87.183  18.309  66.473 
90.614  21.246  65.304 
88.623  19.834  60.955 
90.347  20.601  62.124 
91.295  20.785  62.380 
92.627  22.813  61.172 
90.845  20.836  62.165 
90.262  21.499  67.084 
94.460  24.699  64.785 
90.168  20.331  64.115 
90.333  20.708  62.802 
95.678  26.470  62.118 
93.109  23.217  63.820 
98.482  29.576  64.163 
97.387  28.692  68.999 
96.225  26.902  62.561 
97.934  29.318  65.280 
97.367  27.994  65.220 
97.026  28.228  65.547 
99.100  30.167  63.175 
100.593  31.416  64.290 
101.111  32.447  65.522 
99.711  30.489  64.838 
101.294  34.575  63.948 
99.674  30.428  62.812 
100.527  32.008  67.091 
101.682  33.530  63.640 
101.564  33.830  67.698 
103.335  36.491  66.173 
103.744  37.705  63.585 
106.103  42.561  62.668 
104.398  39.311  64.546 
101.281  33.081  66.591 
105.583  42.050  62.163 
103.346  36.610  62.353 
103.267  37.408  64.368 
104.918  41.097  63.277 
104.972  40.386  68.924 
105.497  41.199  63.252 
105.675  41.712  63.277 
104.155  38.519  67.574 
106.565  44.656  67.981 
106.233  42.404  66.457 
106.676  44.268  64.487 
106.938  44.903  64.069 
106.992  45.066  65.826 
106.815  44.256  67.303 
106.159  42.570  64.650 
106.406  44.274  65.989 
107.720  48.910  64.896 
107.477  49.967  63.958 
106.910  46.252  70.568 
107.789  51.341  68.149 
108.400  53.593  66.592 
108.695  52.059  65.077 
107.772  50.304  64.549 
107.765  52.240  62.547 
107.889  51.104  64.569 
107.764  53.243  63.437 
108.414  54.785  64.809 
109.032  58.060  65.163 
108.675  56.150  65.113 
109.502  59.574  62.654 
108.551  60.684  61.338 
108.807  62.875  65.884 
108.419  63.130  60.070 
108.277  64.538  62.995 
107.925  64.619  62.269 
107.822  66.626  61.440 
108.694  64.554  64.972 
107.621  69.737  70.459 
108.488  64.349  66.595 
108.451  66.180  65.245 
107.706  69.897  62.449 
107.675  70.723  62.569 
107.992  70.248  62.597 
107.573  73.500  64.241 
107.155  72.519  66.572 
106.464  74.966  69.423 
106.997  72.663  65.278 
106.676  74.672  67.833 
107.154  72.867  62.189 
107.186  74.117  65.349 
107.069  74.927  66.684 
105.092  77.470  64.970 
105.763  77.215  65.168 
104.538  79.788  64.757 
103.383  79.430  70.614 
105.169  79.050  64.735 
105.532  78.959  63.753 
104.099  80.826  64.033 
104.270  81.411  66.297 
102.965  82.948  65.934 
104.481  80.277  65.905 
104.355  81.039  65.517 
101.556  84.867  65.864 
101.805  85.880  64.497 
101.171  86.388  66.817 
100.799  86.010  67.552 
100.157  87.704  64.222 
101.169  86.881  60.833 
96.677  91.692  65.310 
100.067  88.054  60.316 
98.685  90.245  64.150 
96.837  90.703  68.505 
97.601  89.473  68.604 
98.849  89.514  64.647 
96.572  92.821  64.379 
97.468  88.966  69.509 
95.044  92.255  69.551 
95.671  91.898  66.761 
98.160  90.774  63.743 
93.430  95.083  66.545 
92.275  95.701  66.901 
91.588  96.806  66.251 
86.129  101.186  65.159 
93.103  94.455  67.632 
91.023  97.222  65.978 
93.225  96.363  62.080 
89.258  98.875  65.393 
84.762  102.355  63.122 
87.310  100.779  63.532 
83.402  102.213  68.799 
84.838  101.631  64.077 
85.640  101.490  67.260 
82.920  103.751  61.637 
86.516  101.683  59.499 
83.997  102.175  64.402 
82.393  102.836  62.478 
81.203  103.995  62.227 
81.654  103.294  65.542 
81.835  103.298  66.069 
80.084  104.299  64.666 
82.605  103.113  67.549 
79.320  104.088  65.095 
78.205  104.846  64.442 
78.105  104.613  65.264 
77.100  105.221  65.381 
76.688  106.014  65.738 
76.333  105.925  65.325 
75.504  105.969  65.545 
75.486  106.449  65.395 
74.278  106.439  65.185 
74.088  106.977  65.186 
72.765  107.186  65.226 
70.364  107.758  63.092 
70.168  108.005  64.243 
71.349  107.491  65.160 
71.950  108.044  59.205 
66.751  108.577  57.785 
71.824  107.860  60.940 
67.700  108.919  65.259 
65.365  109.110  60.516 
67.411  108.839  61.601 
65.734  108.765  62.292 
67.383  109.181  61.190 
61.343  110.304  65.840 
59.867  109.292  70.469 
63.909  109.823  63.832 
63.696  109.160  61.110 
62.913  109.532  65.037 
62.114  110.184  65.747 
65.382  109.371  65.106 
57.935  109.631  62.403 
57.805  109.350  68.211 
61.384  110.361  64.755 
58.600  110.002  66.079 
55.927  109.806  65.921 
53.365  108.703  69.088 
56.010  109.718  67.645 
55.341  110.051  67.072 
53.179  109.689  66.002 
56.841  109.841  65.067 
51.452  109.379  63.554 
49.247  109.127  63.270 
50.565  109.309  62.299 
54.566  109.834  64.309 
50.805  109.081  60.777 
47.969  108.032  67.350 
45.324  108.379  60.044 
49.482  108.984  58.090 
41.800  105.899  69.295 
46.520  108.073  64.596 
43.356  107.018  62.529 
42.887  107.309  65.886 
42.420  106.219  68.254 
38.171  104.665  65.853 
37.241  104.544  62.844 
38.080  104.189  66.593 
39.990  105.893  64.490 
41.696  106.386  64.177 
42.382  106.151  69.645 
35.028  102.996  65.620 
36.486  103.401  64.214 
39.427  105.474  65.939 
34.716  102.636  66.520 
34.227  102.077  66.076 
32.694  101.120  64.333 
34.943  102.846  64.652 
33.000  101.115  66.697 
31.704  100.584  65.226 
31.323  100.337  65.933 
30.823  99.256  66.387 
30.038  98.199  66.407 
29.561  97.768  65.925 
29.458  98.503  65.750 
27.781  97.726  65.114 
26.986  96.884  66.200 
27.250  96.169  65.595 
27.206  96.437  66.290 
26.044  95.303  66.006 
25.394  95.290  67.110 
25.108  94.377  66.687 
24.070  94.984  66.286 
20.083  89.441  68.399 
19.912  91.064  64.787 
23.218  93.951  65.488 
21.049  92.907  62.801 
22.385  92.738  68.725 
19.806  90.561  66.884 
21.208  92.422  65.731 
20.398  91.203  67.108 
19.144  88.815  67.091 
16.659  85.550  64.089 
18.018  87.128  67.080 
17.895  88.242  64.398 
17.501  86.783  65.988 
17.608  86.935  64.766 
16.638  82.600  66.124 
16.332  85.601  62.030 
17.749  86.549  70.688 
15.834  81.548  66.410 
15.941  82.642  65.835 
16.093  80.878  65.289 
15.568  80.373  67.793 
14.382  78.653  64.577 
15.306  80.398  66.441 
14.620  78.040  65.655 
14.214  77.170  67.442 
13.541  74.908  67.718 
14.101  75.799  68.369 
13.488  74.030  64.547 
12.739  72.740  68.442 
13.299  74.208  68.810 
14.568  77.097  68.819 
11.334  69.452  65.938 
11.484  70.914  63.907 
12.217  71.079  68.763 
12.511  73.388  61.034 
11.210  69.959  63.324 
11.907  70.577  67.442 
12.230  70.922  71.976 
12.107  68.373  69.076 
11.158  67.085  67.406 
10.967  59.032  71.695 
12.782  72.333  67.079 
10.903  65.681  65.732 
10.728  58.503  70.845 
10.147  65.136  65.660 
10.249  63.958  65.450 
10.486  60.243  70.327 
10.631  58.424  64.148 
10.190  57.457  65.532 
10.203  60.126  66.596 
10.544  57.560  68.310 
10.602  58.443  68.115 
10.991  57.026  66.539 
10.686  55.766  66.091 
10.632  54.471  67.684 
10.959  53.561  67.342 
11.111  52.742  67.724 
11.248  52.384  66.628 
11.622  51.621  66.240 
11.178  51.515  66.716 
11.335  50.912  66.011 
11.632  50.146  66.092 
12.052  47.668  65.764 
11.914  48.145  65.062 
11.680  48.028  64.288 
12.230  47.015  65.583 
12.016  46.711  64.789 
11.982  46.552  64.322 
12.644  45.157  61.446 
14.997  39.674  66.110 
12.808  44.489  66.168 
13.820  42.914  70.654 
14.643  38.967  66.483 
14.832  40.660  69.132 
14.798  38.874  67.893 
15.636  37.439  69.933 
14.766  40.557  67.356 
17.320  34.885  69.526 
18.153  31.740  65.824 
18.887  30.799  66.510 
18.004  33.036  65.491 
16.978  33.682  62.515 
17.665  32.600  65.554 
22.223  27.499  64.097 
20.178  29.609  68.444 
18.124  32.864  67.274 
18.394  31.257  62.930 
20.519  29.857  61.403 
21.225  29.069  68.965 
25.732  24.391  63.301 
20.221  29.844  64.633 
22.938  26.598  60.834 
23.039  25.955  62.438 
21.314  28.193  65.705 
24.048  25.585  65.941 
26.329  25.276  68.102 
25.676  23.869  63.031 
24.119  26.668  67.757 
25.601  25.048  67.477 
26.668  22.700  64.465 
27.116  22.536  64.609 
26.113  24.099  63.983 
29.121  22.451  69.002 
30.206  21.064  68.068 
28.900  22.238  66.595 
31.863  20.860  66.154 
30.061  20.780  64.839 
31.097  20.547  65.965 
33.838  18.273  65.744 
33.312  18.859  66.086 
34.212  18.159  64.483 
35.067  18.282  64.787 
35.638  17.207  64.469 
36.616  16.715  64.211 
36.094  16.795  63.968 
36.205  17.092  64.871 
37.146  16.783  65.029 
40.150  15.549  64.232 
37.037  16.274  64.944 
39.056  15.791  64.683 
40.571  14.888  64.918 
41.483  14.622  64.765 
43.687  13.421  65.247 
42.815  13.244  63.270 
43.227  13.685  64.587 
42.830  13.313  62.248 
44.066  12.546  65.076 
45.074  12.393  62.938 
46.813  12.140  67.838 
45.627  12.957  66.189 
50.019  11.445  65.474 
54.816  9.752  63.959 
48.065  11.830  65.199 
51.623  11.462  64.128 
52.832  10.975  64.928 
54.120  10.112  67.142 
54.659  10.283  60.465 
57.053  9.538  63.339 
58.506  9.702  61.780 
52.060  10.664  65.320 
49.883  11.673  64.037 
59.450  9.919  66.258 
59.275  9.881  62.321 
61.237  10.020  65.147 
60.423  10.007  62.569 
60.126  9.977  63.300 
62.164  10.380  68.778 
61.325  10.241  66.144 
61.252  10.321  62.954 
61.523  10.092  64.226 
61.760  10.443  64.866 
66.877  10.859  66.847 
63.939  10.851  63.702 
62.966  10.654  63.950 
66.187  10.519  64.690 
64.616  10.465  63.412 
67.398  10.878  62.799 
70.491  11.028  60.541 
67.921  10.751  63.467 
66.928  10.651  64.890 
72.845  11.292  60.668 
72.573  11.603  65.587 
77.694  12.906  63.951 
72.134  11.634  60.423 
72.725  11.633  62.257 
75.309  11.925  58.780 
75.124  12.981  56.666 
79.904  14.037  61.094 
78.105  13.079  61.658 
76.424  12.603  66.495 
75.799  12.442  61.204 
79.573  13.665  64.060 
78.117  12.998  63.700 
77.486  12.796  65.711 
84.497  16.346  64.008 
82.030  14.713  61.802 
81.224  14.775  62.007 
87.063  18.188  61.890 
84.239  16.209  63.360 
85.681  17.130  66.477 
85.565  17.201  64.197 
86.749  17.910  63.865 
87.925  18.981  67.591 
87.239  18.103  63.535 
88.301  19.931  63.639 
88.942  19.286  64.949 
88.823  20.815  60.179 
90.143  20.744  60.477 
88.109  19.722  64.148 
91.722  21.308  62.949 
92.937  23.247  60.656 
92.155  22.402  64.488 
93.157  23.715  65.574 
92.034  23.046  66.860 
93.464  23.796  66.665 
96.739  27.358  65.492 
97.998  28.881  66.031 
97.057  27.578  68.398 
98.232  29.344  64.535 
96.569  27.220  63.492 
97.204  27.571  66.074 
96.917  27.611  67.586 
100.192  31.551  63.544 
96.345  26.882  57.511 
96.520  26.888  59.381 
97.795  28.337  57.950 
100.381  32.184  61.070 
99.993  30.657  63.975 
100.178  31.615  61.842 
101.062  33.315  61.018 
103.556  36.503  64.654 
100.850  33.175  58.364 
102.900  35.934  64.303 
102.685  35.572  67.439 
102.979  36.736  65.131 
102.796  35.195  64.038 
104.987  39.988  62.538 
104.477  38.940  66.973 
104.820  39.253  67.177 
103.028  36.100  65.905 
104.310  39.118  69.682 
106.211  43.188  62.170 
104.735  39.938  65.685 
105.670  42.758  66.952 
105.838  41.481  67.207 
105.507  40.795  66.657 
105.484  41.967  61.244 
105.929  42.490  67.338 
106.668  44.325  63.589 
106.405  45.745  63.676 
106.749  43.456  63.935 
107.147  45.137  68.513 
107.020  47.110  64.506 
107.314  47.747  63.630 
107.021  47.604  62.240 
107.235  47.051  63.947 
107.287  49.753  63.065 
107.930  50.797  63.779 
107.471  51.214  62.714 
108.369  53.100  64.606 
108.040  58.189  70.946 
109.053  55.200  66.413 
108.322  54.290  63.554 
109.047  57.649  62.563 
108.806  57.379  67.112 
107.639  53.235  70.677 
108.140  62.589  70.020 
108.674  62.324  59.566 
108.592  60.479  65.184 
108.442  61.699  57.683 
108.814  63.009  62.231 
108.627  60.834  63.161 
108.200  68.445  63.853 
107.613  67.977  66.203 
107.525  67.835  70.552 
107.705  67.504  65.236 
108.391  67.557  63.932 
108.152  69.247  66.389 
107.544  68.781  64.570 
107.749  70.007  63.589 
107.491  72.044  64.122 
107.825  70.529  66.609 
107.653  70.547  61.170 
107.291  71.579  66.175 
107.348  74.502  63.849 
106.758  75.534  66.970 
106.377  75.607  68.650 
105.599  75.148  68.810 
107.061  74.213  64.717 
105.956  77.934  64.144 
105.118  79.275  65.545 
105.635  77.942  65.557 
105.174  78.148  63.432 
105.034  79.786  63.811 
104.039  80.440  64.385 
104.864  80.343  64.520 
104.042  81.514  62.853 
103.656  82.431  63.542 
102.047  85.607  63.420 
101.998  84.859  63.517 
102.526  84.949  62.159 
101.945  85.375  64.238 
98.741  88.414  63.727 
101.537  85.688  65.579 
98.493  89.333  65.521 
100.847  87.191  63.633 
98.433  89.534  67.816 
97.972  91.285  61.193 
96.540  93.031  60.740 
96.638  92.108  63.837 
98.905  88.751  62.527 
100.222  88.134  63.595 
100.790  87.724  60.432 
99.756  88.511  64.378 
97.086  90.025  69.051 
95.503  91.591  67.982 
95.587  92.157  65.757 
95.244  93.262  65.003 
94.861  93.317  66.459 
93.344  96.397  63.306 
89.551  99.669  64.454 
89.817  98.357  65.871 
92.635  97.025  62.917 
92.822  96.382  63.725 
90.900  97.684  64.893 
88.097  100.507  61.990 
82.883  102.507  65.209 
85.768  102.032  60.096 
85.963  101.153  66.877 
84.406  101.898  67.118 
80.573  103.422  63.966 
81.947  103.240  64.799 
86.394  101.530  63.004 
81.729  103.838  60.038 
83.775  102.509  65.253 
83.065  102.804  65.854 
82.451  102.470  68.008 
78.872  104.502  65.658 
81.060  103.836  65.621 
79.309  104.438  64.702 
78.024  105.395  65.068 
77.534  105.166  64.485 
76.912  105.990  64.574 
76.664  106.019  65.005 
76.117  106.354  64.938 
75.102  106.089  64.715 
74.902  106.634  65.300 
73.611  106.903  64.505 
73.235  106.987  65.241 
71.141  107.954  63.572 
70.348  108.270  61.379 
69.746  108.327  55.361 
67.881  108.460  66.753 
67.435  108.548  65.571 
71.163  107.487  61.545 
68.969  108.201  58.663 
63.385  109.764  64.376 
65.487  108.775  59.248 
62.344  109.708  62.100 
64.612  109.127  58.699 
60.528  109.217  59.528 
65.136  108.950  63.079 
65.268  108.987  60.046 
61.670  109.793  66.433 
63.577  109.114  68.921 
60.107  110.062  67.419 
56.755  110.062  66.012 
63.213  109.510  61.746 
58.003  109.947  63.164 
57.133  109.159  57.481 
60.475  109.505  67.589 
51.614  109.509  66.204 
57.537  109.287  68.821 
48.472  108.630  62.869 
52.256  109.417  67.668 
54.939  109.143  64.852 
51.053  109.470  67.102 
50.187  109.016  61.457 
47.669  108.220  65.481 
47.292  108.712  59.290 
53.817  109.749  63.531 
49.085  108.919  58.949 
50.029  108.669  64.204 
42.793  107.156  64.977 
48.308  108.376  61.073 
41.143  105.911  61.441 
40.423  105.849  60.891 
41.795  106.852  64.970 
41.502  106.390  66.765 
39.631  105.505  62.388 
39.880  105.680  63.745 
38.788  105.312  62.734 
38.681  105.019  62.035 
38.965  104.531  66.093 
36.630  103.861  59.965 
38.062  104.839  63.066 
38.093  104.039  67.883 
35.268  102.414  68.738 
37.716  104.756  65.257 
39.926  106.023  65.259 
33.790  102.106  65.390 
34.171  102.157  64.114 
33.156  101.230  66.203 
33.380  101.970  65.807 
31.386  100.603  64.025 
30.955  99.829  64.920 
30.765  99.093  65.506 
29.799  98.740  64.971 
30.199  99.010  66.204 
28.519  97.537  64.894 
28.040  97.644  66.057 
27.396  97.418  65.795 
27.786  97.209  65.217 
26.273  96.259  64.696 
26.024  95.975  65.363 
25.373  95.747  66.283 
25.604  95.109  66.671 
24.766  95.346  66.316 
24.360  94.683  67.214 
23.103  92.865  66.389 
22.145  93.518  64.200 
20.056  89.707  66.418 
19.910  89.669  68.887 
18.637  88.774  63.918 
18.502  87.227  69.038 
20.966  90.803  69.653 
18.596  89.188  65.994 
21.393  89.723  71.131 
16.354  84.234  64.520 
17.387  86.881  64.146 
16.371  84.415  67.381 
16.863  84.774  65.974 
17.471  86.042  67.752 
16.112  83.194  66.464 
18.404  88.208  67.964 
16.230  83.532  64.602 
15.831  81.748  67.240 
15.787  82.388  65.071 
16.130  80.792  65.825 
15.306  80.017  66.012 
15.638  81.018  64.722 
15.138  78.746  67.276 
13.937  75.513  65.030 
14.435  78.033  66.875 
13.974  76.275  64.577 
14.660  77.044  67.851 
14.104  74.375  69.031 
13.129  74.617  66.208 
13.984  75.741  67.511 
13.338  74.461  67.025 
11.894  71.624  65.932 
10.231  65.992  64.958 
12.522  71.826  65.703 
11.280  67.299  68.433 
11.673  71.208  65.132 
10.809  69.053  66.598 
13.453  71.424  72.832 
10.537  62.475  70.529 
11.998  69.779  72.138 
11.890  67.832  70.502 
10.400  65.185  66.625 
10.708  57.731  70.355 
11.693  63.194  72.965 
10.605  60.343  67.280 
11.002  64.496  67.062 
10.414  62.972  68.275 
10.066  57.825  64.120 
10.245  61.456  63.516 
10.818  56.869  65.357 
10.258  58.529  67.145 
10.743  55.606  70.579 
10.022  58.304  65.787 
10.575  55.026  67.425 
11.226  54.077  66.095 
11.435  52.934  67.116 
11.315  53.237  66.416 
11.443  52.034  65.889 
11.546  52.004  65.290 
11.323  51.195  65.253 
11.407  50.220  65.089 
12.027  49.599  65.256 
12.051  48.804  65.647 
12.238  48.524  64.840 
12.308  47.489  65.382 
11.866  47.373  64.767 
12.124  45.278  62.440 
12.388  44.676  61.871 
11.923  46.037  62.037 
13.568  43.869  65.661 
13.922  39.800  59.969 
13.604  42.287  66.134 
14.097  39.594  63.165 
14.800  39.460  66.858 
16.783  34.124  67.231 
16.235  36.224  69.736 
16.933  34.846  68.876 
14.504  39.649  69.134 
22.711  28.341  69.961 
17.513  32.973  66.458 
18.213  32.110  64.488 
17.999  32.320  67.918 
16.184  36.014  66.187 
20.066  29.648  66.798 
15.141  38.623  67.233 
20.100  29.883  63.042 
16.873  33.838  65.050 
18.387  32.262  62.854 
24.236  25.509  64.864 
19.765  30.250  63.919 
23.425  27.085  68.507 
20.656  29.360  67.448 
21.259  28.313  62.315 
22.986  26.733  68.308 
25.861  24.002  57.695 
25.654  26.121  72.212 
22.596  26.354  63.732 
26.942  22.999  66.012 
24.913  24.638  61.860 
28.556  23.029  67.548 
24.813  25.529  60.749 
27.541  22.299  64.966 
30.126  20.593  63.526 
27.250  22.297  63.324 
30.073  21.419  66.925 
30.908  21.470  66.606 
27.759  21.852  64.908 
29.509  21.861  65.899 
33.176  19.018  63.794 
33.169  19.739  65.444 
33.560  18.746  64.468 
34.850  18.591  63.987 
36.023  17.507  64.246 
33.780  18.315  62.736 
35.325  17.639  60.442 
38.047  16.011  66.113 
37.837  15.833  63.027 
35.300  17.452  61.116 
39.222  15.214  62.631 
39.595  15.849  65.424 
41.130  15.023  65.680 
41.337  14.875  64.170 
42.140  13.734  62.344 
42.149  13.973  63.077 
42.065  14.165  66.137 
44.337  13.336  62.396 
43.106  13.317  60.692 
44.272  12.609  64.120 
45.268  12.910  65.311 
48.494  11.544  68.503 
47.021  12.262  66.509 
47.545  11.863  68.178 
47.890  12.214  62.926 
45.632  12.018  64.710 
53.608  10.239  61.707 
58.146  10.058  65.935 
48.015  11.703  64.389 
54.262  10.367  61.488 
49.955  11.396  63.154 
58.831  10.390  62.968 
58.122  9.865  60.935 
61.270  10.177  67.770 
54.559  9.854  60.650 
57.574  9.475  57.401 
58.814  10.314  64.745 
60.833  9.835  61.357 
56.821  10.287  61.837 
62.128  10.300  62.825 
63.115  10.836  63.314 
60.492  9.999  64.943 
63.463  10.262  64.422 
66.141  11.251  64.132 
65.208  10.252  63.216 
64.987  10.723  63.861 
65.470  10.187  64.205 
66.215  10.405  63.688 
68.151  11.089  62.348 
65.898  11.063  63.263 
70.255  11.572  63.183 
68.600  10.690  62.846 
69.522  10.821  63.126 
70.942  11.207  60.306 
69.425  10.788  62.475 
75.539  12.173  59.514 
71.437  10.814  60.712 
77.197  12.730  63.491 
77.210  12.475  62.667 
72.793  11.110  58.309 
75.993  13.523  68.485 
77.448  13.272  68.891 
78.033  13.649  68.349 
80.177  14.238  59.574 
80.583  14.813  60.232 
80.913  14.470  60.422 
78.823  14.083  64.475 
82.100  14.756  63.203 
88.607  19.145  66.350 
82.718  15.740  61.955 
85.991  17.222  62.355 
85.703  17.598  64.910 
82.431  15.631  64.657 
85.870  18.267  61.168 
89.386  20.079  65.142 
86.008  17.597  65.773 
87.966  19.399  60.460 
88.158  19.669  59.640 
89.286  20.274  60.734 
90.704  21.375  60.783 
90.839  21.759  64.920 
93.950  24.154  64.259 
92.509  23.174  67.579 
92.248  22.415  62.345 
92.245  23.166  69.534 
91.018  22.406  65.452 
94.429  24.698  62.154 
91.547  22.635  69.806 
93.872  24.392  65.195 
93.233  23.759  64.258 
96.827  28.018  63.846 
96.826  27.219  62.789 
97.169  28.795  63.676 
100.451  32.396  64.088 
98.239  29.366  63.249 
95.282  25.617  60.876 
99.829  31.054  61.758 
99.154  29.797  62.409 
95.713  25.698  58.002 
101.955  33.818  62.292 
100.660  31.215  65.135 
98.611  29.137  62.064 
101.909  35.413  64.853 
101.501  33.183  64.267 
103.651  37.198  62.788 
103.967  37.227  65.990 
103.663  36.805  66.453 
103.649  36.676  65.576 
103.711  37.793  62.103 
105.116  43.214  71.677 
104.366  38.635  62.382 
104.722  38.600  66.056 
105.412  40.887  64.235 
105.232  40.235  63.415 
106.155  44.716  60.534 
105.603  42.131  63.963 
106.475  43.723  67.506 
106.301  43.859  58.808 
106.884  44.622  60.948 
105.848  42.654  61.902 
106.754  44.031  61.770 
107.058  45.585  61.387 
106.746  45.442  62.353 
107.508  47.015  64.741 
106.716  44.562  62.427 
107.053  47.514  62.759 
107.396  49.245  63.079 
107.490  48.542  63.513 
108.147  49.562  66.511 
107.944  51.109  62.950 
107.861  50.662  62.282 
107.519  52.159  63.717 
107.962  54.215  62.349 
108.906  59.975  64.229 
108.867  54.357  65.560 
108.212  52.026  63.180 
108.784  57.474  60.266 
109.042  56.376  64.402 
109.291  60.191  63.450 
109.091  60.638  61.343 
108.433  64.204  61.437 
108.754  64.572  65.907 
108.517  65.110  64.297 
107.797  63.854  59.912 
108.165  65.728  62.966 
108.098  63.110  66.466 
108.555  66.087  63.484 
107.944  69.792  61.325 
108.455  62.611  68.649 
108.168  65.537  67.948 
107.666  69.164  62.798 
107.258  71.169  60.917 
107.627  71.146  62.829 
108.172  65.619  66.534 
107.410  72.434  61.464 
107.810  71.143  64.118 
108.220  69.645  64.101 
106.871  75.148  67.629 
107.528  72.369  63.488 
106.501  74.478  68.708 
106.154  76.195  63.861 
105.394  78.206  64.535 
106.024  77.198  63.041 
105.172  78.246  64.052 
105.565  77.774  63.313 
104.618  79.713  63.456 
104.561  80.993  63.891 
103.710  82.626  65.292 
103.863  81.707  63.998 
104.146  81.327  64.170 
103.577  82.023  65.053 
103.896  81.618  64.985 
102.646  83.495  63.876 
103.506  83.277  63.613 
100.490  87.067  64.218 
101.630  86.695  61.813 
100.662  87.752  61.111 
96.215  90.754  66.862 
101.161  86.322  59.159 
97.798  90.340  65.179 
96.976  92.655  60.435 
95.553  94.138  61.768 
99.765  88.127  66.868 
94.383  95.000  63.978 
96.620  91.052  67.064 
96.013  91.033  65.919 
98.246  89.108  68.469 
97.782  90.945  64.646 
94.660  91.922  68.574 
94.635  94.948  64.871 
91.769  96.803  64.447 
92.088  96.889  63.130 
90.229  96.025  68.648 
94.035  95.462  64.598 
87.120  100.268  65.395 
92.538  97.251  60.719 
93.446  95.080  65.508 
89.857  99.652  63.985 
84.589  102.203  60.217 
81.613  103.864  61.742 
85.046  102.607  60.852 
86.388  101.479  62.224 
83.936  103.324  59.876 
87.651  100.568  60.934 
87.488  101.169  61.969 
85.005  102.951  58.799 
80.792  103.878  63.096 
82.736  103.033  59.794 
80.585  104.101  65.352 
79.534  104.499  63.442 
79.873  104.777  62.131 
78.805  105.000  63.692 
78.118  105.638  64.079 
77.478  105.916  64.078 
