99.217  31.159  52.703 
99.665  31.894  52.548 
98.556  30.335  52.599 
100.400  35.582  51.574 
101.627  37.103  52.487 
101.048  35.722  52.871 
102.014  37.927  52.059 
103.399  39.693  54.007 
103.528  40.855  53.251 
103.097  39.548  53.562 
103.321  40.433  54.442 
103.611  41.822  52.766 
105.348  44.636  53.075 
104.717  44.061  50.972 
104.697  43.506  52.769 
105.004  44.206  51.933 
105.256  42.710  54.952 
105.901  45.541  53.253 
106.262  47.397  52.287 
105.931  47.022  54.064 
106.555  48.250  52.945 
106.424  48.733  53.611 
106.719  49.768  53.717 
107.369  51.296  54.105 
106.561  50.319  54.083 
106.735  51.397  54.570 
107.544  52.462  55.075 
107.635  53.078  54.424 
107.737  53.732  54.450 
107.805  54.068  55.353 
107.945  55.816  55.144 
108.149  56.555  55.273 
108.275  59.219  55.138 
107.973  57.813  54.900 
108.698  59.412  55.430 
108.447  62.553  54.546 
108.494  58.590  52.429 
108.801  61.133  59.136 
108.017  59.837  50.497 
107.578  65.547  52.715 
107.840  64.568  52.419 
107.927  65.518  53.992 
107.846  65.711  53.187 
107.315  67.080  52.151 
107.590  65.843  51.836 
108.026  66.326  53.949 
107.997  67.810  54.703 
107.973  68.656  54.675 
107.591  69.020  55.349 
107.009  69.789  54.971 
107.352  71.002  54.294 
106.793  71.192  54.038 
106.927  72.297  54.602 
106.681  73.685  53.809 
106.547  72.624  51.616 
106.182  73.769  54.459 
106.532  73.209  52.932 
106.638  73.998  54.655 
104.720  78.724  52.432 
105.107  77.526  53.052 
104.825  78.129  56.437 
104.895  78.752  56.273 
104.782  79.354  55.625 
103.832  78.280  46.893 
104.359  81.218  54.963 
102.593  83.191  56.438 
103.577  81.019  52.676 
102.550  84.131  52.785 
104.614  80.034  55.727 
102.067  85.829  56.383 
103.534  82.490  52.433 
100.583  86.438  54.170 
100.829  86.740  55.401 
102.787  83.271  55.163 
101.485  83.994  51.378 
98.910  90.297  52.075 
101.442  85.601  54.494 
99.122  90.061  53.734 
98.392  91.167  55.588 
98.585  90.473  55.555 
96.764  92.042  49.081 
98.360  91.388  58.731 
96.265  93.312  56.996 
95.181  94.368  55.972 
95.662  94.002  53.375 
94.321  95.088  57.638 
96.168  93.621  57.744 
93.956  95.570  57.291 
96.085  93.430  56.033 
90.296  97.997  49.507 
90.799  95.357  46.250 
90.945  97.763  58.521 
91.787  97.370  55.259 
95.573  93.953  50.238 
86.978  101.277  54.267 
90.003  99.096  53.282 
89.959  99.107  54.948 
87.348  101.455  56.693 
89.036  99.963  56.861 
86.932  100.484  49.543 
81.259  104.423  54.326 
85.819  101.622  49.785 
84.599  102.473  55.544 
81.177  104.818  55.206 
82.031  104.673  55.551 
79.953  105.276  53.813 
78.651  106.038  54.346 
77.156  106.740  53.246 
77.304  106.639  55.774 
79.604  105.971  57.137 
76.520  107.752  57.583 
75.682  106.993  53.000 
79.539  106.312  56.443 
74.482  107.847  54.567 
74.500  108.409  59.172 
76.082  107.061  51.834 
71.928  108.525  54.998 
80.325  105.205  52.732 
69.836  107.699  53.389 
69.338  108.510  56.743 
72.279  106.895  50.753 
70.864  107.286  51.814 
66.403  108.123  49.228 
69.505  107.438  50.291 
67.325  107.800  51.301 
66.056  108.283  51.827 
64.950  108.107  50.975 
63.936  108.579  52.216 
64.289  108.181  52.654 
63.573  108.511  53.077 
62.869  109.031  53.643 
62.155  108.676  53.003 
61.537  109.310  53.467 
61.059  109.656  53.577 
60.111  108.906  54.260 
59.286  109.292  54.837 
59.178  108.987  53.489 
58.447  109.463  55.161 
55.787  109.402  53.307 
54.540  109.238  53.455 
56.991  109.710  54.172 
53.586  108.965  53.271 
53.075  108.290  53.768 
52.301  109.053  54.253 
53.088  108.865  55.252 
51.958  108.501  53.812 
47.484  108.760  58.914 
47.333  108.044  55.996 
44.739  106.842  54.456 
47.864  107.402  54.084 
46.256  107.978  56.901 
43.315  106.329  53.858 
44.280  106.266  54.586 
42.592  106.160  54.734 
40.237  105.912  54.488 
40.103  106.071  55.358 
40.634  105.796  53.952 
42.014  106.609  57.682 
39.504  105.642  54.813 
39.649  105.421  55.267 
38.122  104.437  53.592 
37.890  104.607  53.216 
37.159  104.442  53.451 
36.244  104.110  54.460 
35.859  103.758  53.763 
34.830  102.564  53.918 
34.340  102.709  53.766 
32.401  102.036  51.653 
29.896  100.915  53.080 
34.012  101.956  48.889 
31.401  101.661  57.179 
31.067  101.403  55.266 
26.182  97.898  58.415 
28.935  99.098  60.025 
29.114  100.148  55.660 
28.836  100.731  55.131 
30.005  100.811  57.389 
30.063  101.222  54.070 
27.049  97.963  53.350 
28.193  98.395  50.870 
24.643  96.122  61.422 
26.886  98.526  55.091 
23.453  95.271  60.822 
24.154  96.207  59.578 
27.130  97.965  52.700 
24.882  96.343  55.563 
25.466  96.274  54.954 
24.427  95.266  53.252 
24.794  95.620  54.755 
20.463  90.495  52.278 
22.679  93.032  53.062 
21.978  93.420  55.605 
24.038  95.322  56.639 
20.430  90.849  55.872 
18.890  86.830  52.399 
19.149  89.226  56.856 
18.162  87.912  54.844 
18.175  85.964  55.690 
20.549  91.084  53.937 
16.306  84.135  59.576 
17.087  84.273  56.415 
16.512  84.326  57.264 
16.474  83.352  56.061 
16.431  82.638  56.406 
16.177  82.433  56.048 
15.127  80.505  56.488 
14.964  80.216  56.083 
14.905  79.458  55.813 
14.830  79.438  56.455 
14.627  78.375  56.233 
14.032  77.519  57.048 
14.676  77.380  56.418 
13.463  75.855  56.654 
13.544  76.072  57.371 
13.810  74.928  56.900 
13.207  74.612  57.461 
12.962  72.818  56.189 
13.103  73.543  55.812 
13.731  74.102  57.006 
12.054  70.840  56.201 
10.598  65.112  61.860 
11.475  69.337  56.848 
12.652  69.216  51.568 
11.361  65.844  53.229 
11.204  68.436  59.573 
11.416  69.305  64.899 
13.170  70.841  52.780 
10.873  68.064  61.263 
12.275  69.231  52.376 
11.439  63.694  53.279 
10.817  65.868  58.109 
11.428  63.494  54.520 
12.365  63.645  53.402 
11.090  59.633  52.614 
10.150  61.930  61.897 
10.681  58.134  59.222 
11.463  63.437  55.195 
10.397  55.941  54.388 
10.304  56.326  60.539 
10.378  57.492  56.233 
10.609  56.127  60.869 
10.607  54.417  53.267 
10.742  52.893  57.100 
10.535  54.119  51.810 
10.950  53.324  51.988 
10.900  52.699  60.120 
10.684  51.241  54.030 
10.682  50.071  57.319 
10.726  54.348  55.035 
10.938  53.936  56.971 
11.161  50.363  56.920 
11.004  49.093  55.051 
12.042  45.327  54.341 
13.019  42.035  55.330 
11.318  48.012  53.478 
11.143  49.200  56.303 
11.940  45.583  54.911 
13.393  41.446  52.401 
11.362  47.463  55.590 
16.248  36.111  50.617 
14.920  39.927  54.360 
14.288  39.168  53.912 
14.878  37.829  60.143 
16.013  36.897  60.879 
16.393  36.010  60.595 
13.837  40.825  53.980 
14.154  40.041  53.387 
15.424  37.485  55.955 
15.618  36.566  55.622 
18.058  33.093  51.568 
17.892  32.321  57.394 
17.836  32.917  55.640 
19.257  30.736  58.850 
18.836  31.155  54.651 
18.538  31.382  53.026 
20.600  28.294  54.433 
19.027  31.286  52.862 
20.273  29.362  54.606 
17.563  32.874  54.716 
23.908  26.077  56.262 
24.843  24.510  56.642 
22.878  28.242  50.088 
23.000  27.006  51.795 
26.247  23.834  53.099 
23.844  26.019  53.541 
23.825  27.073  48.481 
26.309  23.540  54.061 
27.269  23.229  50.993 
31.513  19.295  52.540 
28.577  22.352  51.148 
32.336  19.306  52.264 
28.067  22.127  60.688 
29.936  21.464  52.383 
31.719  19.752  52.917 
29.869  19.932  58.569 
33.707  19.017  49.724 
32.585  18.337  54.173 
34.553  17.295  59.238 
40.174  16.208  53.977 
35.859  17.140  55.959 
34.370  16.937  56.187 
35.810  18.127  49.719 
34.803  17.620  52.767 
40.627  15.950  49.008 
38.186  18.130  49.199 
45.323  14.525  48.492 
38.100  17.170  49.509 
43.166  14.829  53.077 
44.925  14.183  49.988 
42.946  14.480  50.143 
40.918  15.474  52.032 
43.394  14.412  51.075 
42.961  14.724  51.436 
44.153  13.861  53.821 
45.581  13.400  52.453 
44.756  13.392  53.534 
47.088  13.004  52.876 
46.864  13.264  53.446 
48.412  13.041  54.259 
47.976  12.723  52.905 
48.463  12.633  53.589 
50.139  11.864  53.795 
50.831  12.073  54.337 
52.225  11.613  54.061 
51.719  11.702  54.817 
52.125  12.209  54.335 
52.038  12.029  55.146 
54.634  11.717  55.236 
56.033  10.554  57.456 
54.562  11.285  56.512 
58.669  10.507  55.568 
62.687  10.072  52.730 
67.149  11.381  50.929 
55.657  11.519  52.377 
57.163  11.096  50.795 
57.595  10.600  53.234 
62.093  11.121  50.054 
63.593  10.800  51.924 
60.506  10.632  56.825 
64.391  10.913  56.470 
64.526  11.757  48.614 
67.994  10.979  52.365 
65.947  10.796  56.406 
67.578  11.076  52.820 
68.843  11.239  51.049 
69.446  11.552  50.414 
68.502  10.606  53.031 
70.251  11.587  51.477 
71.230  11.617  52.998 
76.845  14.057  51.499 
78.944  15.202  54.167 
73.432  12.373  52.189 
73.688  14.376  49.209 
77.393  14.589  51.000 
80.187  16.932  50.631 
77.184  15.177  49.526 
76.875  16.637  45.860 
78.894  15.905  50.133 
77.279  15.107  50.684 
78.507  15.258  51.980 
80.296  15.550  56.560 
80.336  16.744  51.608 
82.041  17.264  53.338 
80.631  16.372  54.390 
82.776  17.832  52.746 
83.378  17.586  54.713 
84.700  18.930  54.348 
84.116  18.564  55.405 
85.401  19.972  54.398 
85.145  20.368  52.042 
86.000  20.443  52.637 
85.967  20.136  52.220 
87.928  21.443  53.243 
88.328  22.031  52.726 
88.847  21.538  53.673 
89.979  22.746  53.043 
90.084  23.309  53.238 
90.587  23.781  52.559 
91.817  24.590  53.644 
92.459  24.571  53.425 
92.054  24.774  53.138 
92.547  24.830  52.040 
93.031  26.334  51.660 
93.615  25.882  51.768 
94.130  26.699  51.024 
93.537  24.712  56.185 
95.966  27.865  52.050 
94.396  25.617  54.135 
96.741  28.120  52.233 
98.790  30.588  52.153 
97.562  31.615  48.662 
96.744  28.732  51.627 
96.646  29.507  51.138 
99.317  32.424  50.427 
99.586  30.904  53.987 
100.764  33.561  54.167 
97.197  32.064  46.479 
99.917  35.182  48.831 
101.410  33.655  55.487 
100.140  32.929  54.020 
101.564  36.971  51.560 
101.189  36.661  51.634 
101.709  37.447  52.071 
102.031  38.267  51.536 
102.275  39.433  52.096 
103.059  40.083  52.303 
102.967  40.333  53.769 
103.217  41.583  51.563 
104.160  42.872  52.147 
103.657  42.593  52.156 
105.048  44.430  52.746 
105.166  45.556  51.459 
104.030  43.559  50.645 
105.508  46.978  52.601 
106.388  45.481  55.581 
105.536  45.272  52.573 
105.655  45.837  53.538 
105.708  46.219  51.728 
105.807  48.345  51.748 
106.348  49.964  52.433 
106.161  49.924  53.302 
107.444  51.893  53.796 
107.091  50.638  53.496 
107.186  51.458  52.945 
107.295  52.148  54.376 
107.256  53.090  54.006 
107.680  54.305  53.941 
107.827  55.215  54.190 
107.600  55.956  54.326 
108.243  56.638  54.650 
107.873  57.438  55.683 
108.602  59.941  55.461 
109.024  58.715  57.062 
108.273  61.854  54.257 
108.534  57.718  55.836 
108.389  60.936  55.940 
108.239  61.935  52.040 
107.459  63.319  53.623 
107.424  64.097  52.479 
108.199  64.497  53.184 
106.881  68.069  49.253 
107.330  67.348  51.309 
107.762  66.422  53.120 
107.208  67.270  53.208 
107.524  67.968  54.265 
107.644  68.369  53.945 
107.716  69.439  54.584 
107.314  70.055  54.013 
106.801  70.319  54.081 
107.174  70.877  53.470 
106.825  71.633  53.820 
107.166  72.348  53.900 
106.411  73.201  53.586 
105.508  75.933  50.918 
106.352  74.545  53.978 
104.438  79.775  50.959 
105.089  76.227  52.629 
104.423  80.551  54.308 
103.754  78.979  51.328 
104.756  79.761  57.216 
105.165  77.417  55.057 
104.634  78.561  55.346 
102.488  81.651  48.686 
103.619  80.560  50.634 
103.251  82.850  54.755 
102.859  82.695  55.667 
102.071  82.328  48.673 
103.620  82.175  55.432 
100.996  86.005  51.855 
102.202  84.495  54.884 
103.897  81.419  51.330 
102.396  82.916  50.308 
102.504  82.669  48.873 
97.550  91.574  53.532 
96.295  93.390  54.472 
99.564  88.797  52.572 
96.799  91.916  53.475 
97.309  92.091  54.262 
96.117  91.179  46.948 
97.287  91.848  52.805 
93.804  96.147  54.594 
97.801  91.400  54.724 
90.927  96.696  47.230 
93.271  96.132  54.008 
92.538  96.466  51.671 
90.434  98.149  50.434 
88.557  98.395  46.851 
96.487  92.817  51.440 
93.549  95.172  51.349 
90.748  98.135  53.941 
91.780  97.129  52.823 
89.584  98.328  53.118 
86.506  99.143  46.072 
90.408  99.075  56.563 
89.869  99.668  60.763 
87.113  100.550  54.293 
91.810  97.861  55.149 
89.559  98.819  50.911 
81.176  103.372  47.555 
83.068  103.662  53.498 
82.402  103.684  52.567 
80.389  105.759  55.500 
80.218  104.794  51.309 
82.259  104.202  58.074 
75.969  106.664  53.906 
78.115  107.018  58.066 
76.182  107.882  56.017 
76.956  105.885  50.206 
77.714  105.653  50.881 
78.773  106.666  56.303 
77.358  106.094  48.384 
71.248  108.508  58.306 
69.985  107.367  48.809 
80.786  104.613  52.575 
70.056  108.616  56.241 
72.330  106.558  47.907 
70.231  108.265  54.664 
67.246  107.905  49.779 
69.580  107.523  51.828 
65.388  108.353  49.917 
67.345  106.682  43.730 
64.774  107.758  50.234 
70.657  106.699  50.718 
67.407  108.265  53.645 
66.677  108.053  50.997 
64.346  108.963  51.113 
64.540  108.424  51.849 
62.878  108.285  52.919 
62.881  108.459  52.038 
62.569  108.800  52.786 
61.641  109.177  52.720 
60.741  109.039  53.099 
59.985  109.290  52.875 
58.456  109.235  53.716 
58.764  109.208  54.293 
58.067  109.152  53.962 
54.225  109.189  52.554 
56.273  108.980  52.564 
54.168  109.287  55.714 
52.441  108.606  52.636 
53.603  108.961  53.927 
51.653  108.762  52.878 
52.115  108.087  52.960 
48.203  108.335  54.370 
51.407  109.059  55.070 
45.284  107.532  55.547 
50.460  108.777  52.342 
48.231  108.756  56.158 
45.252  107.313  54.695 
44.955  106.423  53.807 
44.615  107.115  55.254 
42.068  106.123  53.985 
44.656  106.549  51.741 
42.599  106.105  53.282 
41.366  106.159  53.707 
40.859  105.711  53.366 
39.872  104.995  52.804 
41.745  105.991  53.179 
38.879  104.763  53.432 
38.511  104.366  54.051 
36.036  104.076  52.878 
35.355  103.444  53.209 
36.246  104.256  51.953 
34.490  103.209  53.454 
35.144  102.779  53.109 
34.233  102.714  51.225 
32.531  102.040  53.104 
29.023  100.471  53.017 
32.238  101.843  55.674 
30.298  100.652  59.883 
26.758  98.253  58.853 
29.128  99.202  51.105 
31.701  100.970  56.934 
30.637  101.291  56.163 
27.549  99.248  56.348 
28.489  98.691  52.687 
29.460  99.504  50.310 
27.852  99.122  57.480 
28.076  99.522  58.132 
26.610  98.571  57.437 
25.958  97.203  52.339 
25.736  97.373  53.985 
23.975  95.911  57.579 
21.731  93.419  58.199 
23.854  94.553  53.335 
23.825  95.023  55.496 
23.590  93.589  52.946 
26.500  97.198  54.136 
22.946  94.103  56.128 
21.875  92.986  57.934 
20.909  90.805  54.324 
18.850  85.207  51.517 
18.105  87.035  53.982 
19.442  89.793  54.358 
17.206  86.631  57.133 
18.342  85.309  53.427 
17.543  86.968  57.314 
16.569  83.813  57.892 
17.056  83.459  55.735 
16.617  84.343  56.645 
16.811  82.437  55.495 
15.813  81.739  55.661 
16.021  81.305  55.497 
15.568  81.000  56.037 
15.403  80.625  55.491 
14.986  79.528  54.968 
14.322  78.833  56.152 
14.354  77.989  55.808 
14.921  77.537  55.616 
14.232  76.810  55.855 
14.117  75.777  56.684 
13.693  74.512  55.051 
13.305  75.338  56.849 
13.208  74.924  56.172 
13.850  74.834  58.072 
12.569  72.543  57.615 
12.824  72.333  55.235 
12.792  71.270  53.925 
13.284  70.880  49.645 
13.181  71.610  50.034 
11.635  68.913  59.393 
11.678  70.354  59.779 
12.123  64.798  51.781 
12.455  67.383  52.578 
11.393  66.224  54.371 
11.515  65.418  53.992 
11.146  63.883  54.695 
11.927  66.842  53.999 
10.760  64.267  58.798 
10.946  67.975  56.397 
11.119  60.796  57.754 
10.445  57.968  56.082 
10.739  64.960  60.795 
10.908  61.316  56.383 
10.456  56.156  53.849 
10.496  57.937  58.473 
10.557  58.959  60.183 
10.480  57.135  60.525 
11.116  51.494  55.321 
11.014  57.248  57.226 
11.266  51.067  58.314 
10.678  54.274  61.091 
10.812  55.055  53.328 
11.860  50.843  50.024 
10.975  51.514  58.207 
11.180  51.283  57.376 
10.782  55.667  55.273 
10.927  48.511  53.074 
10.605  51.415  56.707 
12.203  45.664  55.641 
11.550  48.166  57.085 
13.600  41.743  53.943 
12.695  47.056  58.296 
13.166  44.313  51.370 
12.298  45.130  57.066 
12.735  44.098  55.336 
15.176  38.394  56.910 
14.604  39.327  52.954 
13.291  43.211  59.942 
14.762  39.636  55.090 
14.155  40.389  54.264 
14.489  39.293  59.503 
14.592  40.368  55.115 
13.031  41.931  56.160 
15.891  36.280  53.571 
15.188  37.187  53.162 
16.462  34.584  58.454 
19.342  31.966  52.179 
17.548  33.719  55.442 
15.670  35.252  55.000 
18.430  33.416  52.803 
19.111  32.750  49.777 
19.614  31.271  56.744 
19.607  30.185  54.140 
22.419  27.746  52.057 
23.746  26.708  52.900 
21.343  28.271  54.620 
21.750  28.438  50.891 
29.047  21.368  57.055 
24.867  25.501  50.487 
25.597  23.965  57.929 
27.979  22.604  51.012 
24.613  25.194  54.769 
26.400  22.954  56.369 
30.712  20.506  51.752 
31.744  18.813  54.262 
31.615  20.515  50.275 
28.904  22.045  51.440 
27.631  23.030  52.649 
29.423  22.099  51.972 
31.099  21.472  48.217 
31.608  19.529  58.274 
30.947  19.355  55.645 
32.201  18.795  52.922 
33.870  17.555  57.245 
29.936  20.638  54.164 
36.092  16.218  56.741 
34.157  17.658  56.604 
32.429  19.264  50.121 
36.364  16.680  54.521 
38.685  16.706  50.763 
42.863  15.722  47.370 
37.963  17.220  51.671 
41.255  15.047  53.378 
43.314  14.980  50.823 
45.397  14.665  50.498 
40.123  15.600  52.472 
40.123  15.595  51.449 
42.778  14.427  53.068 
43.607  14.184  51.808 
44.713  13.505  52.586 
45.652  13.309  53.494 
46.299  13.410  51.949 
46.105  13.305  52.732 
47.038  13.359  52.482 
47.608  12.747  53.491 
48.426  12.880  52.597 
48.754  12.392  53.207 
50.488  11.901  52.970 
50.409  12.500  53.519 
51.333  12.105  53.430 
52.270  11.960  53.283 
52.473  11.486  55.350 
53.193  12.185  55.298 
53.189  11.448  54.956 
53.956  11.358  54.119 
55.199  11.053  56.451 
54.431  10.895  58.145 
55.217  11.742  55.392 
55.473  11.165  53.127 
58.365  10.746  53.380 
57.937  11.188  48.900 
54.675  11.509  49.894 
59.403  11.683  46.609 
65.938  11.145  50.866 
62.732  10.913  52.555 
59.271  12.180  44.879 
64.247  10.578  54.139 
63.311  10.417  55.435 
64.616  11.163  50.251 
65.243  12.036  47.117 
64.325  12.153  48.917 
72.929  12.514  54.799 
72.542  12.379  53.682 
71.466  12.218  53.633 
76.518  14.324  50.768 
74.508  12.962  55.854 
78.478  15.492  50.706 
70.906  11.245  56.174 
79.712  15.778  53.459 
81.006  18.332  49.296 
75.005  13.112  52.324 
79.830  16.883  48.980 
78.843  15.377  52.421 
78.966  16.409  51.371 
81.211  16.847  51.673 
81.739  17.747  50.984 
79.622  15.921  52.083 
79.980  17.565  47.221 
82.588  17.467  52.434 
83.705  18.383  52.212 
82.701  17.533  54.046 
82.960  17.822  53.727 
85.466  19.269  53.672 
85.389  19.665  52.504 
83.847  18.848  52.424 
84.758  19.554  53.274 
86.829  20.492  52.184 
87.417  21.086  51.852 
88.040  21.486  52.414 
88.892  22.103  52.295 
89.138  21.988  53.388 
89.389  22.500  52.711 
89.906  23.259  52.066 
90.689  23.464  52.922 
91.232  24.036  51.610 
91.696  23.892  53.203 
92.161  25.081  50.726 
92.844  25.423  51.805 
92.413  25.667  50.584 
93.753  27.034  49.759 
96.596  28.059  51.220 
94.534  29.127  47.482 
94.122  27.813  48.727 
93.473  26.350  50.469 
94.834  27.384  50.736 
93.966  25.539  53.319 
97.626  30.228  50.593 
95.548  29.334  49.617 
99.129  34.348  49.233 
98.159  32.865  48.848 
98.526  30.910  51.296 
96.349  30.412  48.870 
97.945  30.697  49.740 
98.737  34.204  48.278 
100.887  37.043  50.296 
100.771  35.545  51.285 
101.155  36.585  50.834 
101.663  37.279  50.780 
101.211  36.359  52.350 
102.058  37.766  52.634 
102.557  39.584  52.485 
103.632  41.060  52.429 
103.225  40.653  51.705 
103.661  41.223  51.693 
103.999  41.638  52.195 
103.901  42.171  51.418 
103.848  43.070  49.866 
104.541  44.370  50.476 
106.068  46.528  53.277 
104.753  43.619  51.339 
104.834  45.253  50.225 
103.449  43.080  49.118 
105.081  45.373  51.978 
105.563  45.871  51.279 
106.150  48.331  52.701 
106.372  48.505  51.626 
106.506  49.129  52.874 
107.112  51.529  53.674 
106.372  50.954  52.391 
107.338  52.354  52.698 
106.793  52.023  53.159 
106.787  52.857  53.147 
106.910  54.051  54.100 
107.502  55.536  53.387 
107.199  54.008  53.289 
108.290  56.538  55.793 
108.827  57.129  57.443 
107.581  59.503  53.571 
108.462  61.440  52.869 
108.845  60.190  58.058 
108.381  61.206  54.440 
108.250  57.073  53.874 
107.150  62.664  51.944 
107.919  57.459  53.261 
107.732  64.544  51.736 
107.714  65.049  52.539 
108.194  64.287  54.034 
106.815  66.163  47.613 
107.454  67.886  52.464 
107.037  66.669  52.907 
106.983  67.780  53.661 
107.497  68.592  52.859 
107.858  69.002  54.386 
106.888  70.190  53.257 
107.229  70.583  54.120 
106.710  70.716  53.204 
106.573  72.082  52.830 
106.951  72.489  53.406 
106.934  72.496  52.511 
105.975  74.853  53.053 
105.495  75.382  52.501 
105.453  75.168  53.348 
104.291  79.950  53.146 
103.669  81.665  52.162 
103.584  81.954  50.763 
102.804  82.317  50.945 
105.240  76.690  53.315 
105.059  79.180  56.471 
103.482  81.866  52.896 
102.846  82.763  53.911 
100.488  87.423  51.948 
103.010  80.583  47.154 
101.897  84.600  52.836 
100.629  84.311  46.406 
100.618  81.830  43.141 
99.939  88.845  54.088 
99.718  89.670  55.098 
100.533  86.315  50.486 
100.020  89.007  54.716 
98.364  90.807  54.804 
99.344  89.876  56.656 
99.037  89.827  52.874 
96.418  92.803  53.312 
93.994  94.694  52.779 
95.329  93.908  52.987 
100.040  89.176  55.917 
92.860  96.806  52.861 
94.882  95.171  55.888 
95.230  94.242  50.868 
93.410  95.272  52.533 
95.296  94.638  53.235 
95.374  93.793  51.515 
89.813  98.846  50.519 
92.094  95.293  48.766 
88.968  100.132  56.137 
93.866  95.525  53.494 
89.953  98.660  52.451 
90.094  98.560  51.243 
89.818  99.777  56.224 
88.410  99.449  50.523 
88.946  99.301  51.178 
85.928  102.159  54.247 
85.269  101.863  56.247 
83.177  102.751  48.893 
85.192  101.811  49.969 
84.502  102.830  51.804 
82.829  103.768  55.041 
80.142  105.873  57.836 
78.669  105.467  54.374 
80.360  104.964  53.514 
82.329  104.584  56.342 
77.785  106.237  53.124 
76.169  105.901  49.748 
85.304  102.464  52.004 
78.847  106.514  58.011 
79.537  105.412  51.331 
81.438  104.650  52.287 
70.070  107.505  51.008 
73.881  108.373  56.120 
79.092  105.597  52.213 
75.690  107.823  55.178 
72.197  108.080  54.418 
76.030  106.538  50.227 
72.890  108.483  55.184 
67.686  107.487  47.931 
66.767  107.266  47.287 
67.831  107.835  50.908 
66.291  107.993  50.256 
65.710  108.282  50.783 
66.792  107.799  51.964 
64.771  108.838  51.601 
63.559  108.754  51.740 
63.485  108.609  52.583 
62.174  108.996  51.508 
61.746  108.789  52.264 
61.239  109.208  52.044 
60.943  109.229  52.660 
60.259  109.163  52.185 
59.163  108.753  52.588 
58.271  109.225  52.380 
58.482  109.227  53.229 
57.111  109.198  53.646 
55.978  109.034  52.111 
57.009  108.778  51.229 
55.940  109.308  52.767 
54.310  108.720  53.529 
51.193  108.974  51.681 
50.660  108.413  49.506 
51.826  108.736  51.874 
52.797  108.713  51.759 
49.780  107.941  49.391 
48.189  107.965  54.658 
47.398  108.746  58.236 
49.896  108.369  52.176 
46.537  107.919  55.809 
45.548  107.174  53.943 
44.036  107.092  55.520 
42.837  106.272  53.940 
43.587  106.366  53.345 
40.666  105.415  52.523 
39.703  104.979  51.553 
39.701  106.020  54.567 
39.648  104.906  53.725 
39.471  104.634  52.248 
39.357  105.056  53.214 
38.556  104.484  52.226 
36.554  104.103  52.930 
35.915  103.485  52.990 
35.801  103.626  51.198 
34.596  103.287  51.801 
34.771  102.655  52.358 
33.929  102.384  52.185 
33.328  101.856  56.328 
33.340  102.292  53.491 
29.190  100.935  55.836 
32.153  101.211  48.675 
30.970  100.019  49.373 
27.142  98.497  54.255 
28.038  99.562  56.183 
31.067  101.951  52.231 
30.963  100.004  47.916 
30.254  100.387  50.722 
26.718  97.762  52.470 
28.909  100.127  56.821 
28.556  100.343  54.379 
28.371  98.171  51.950 
27.894  98.863  56.205 
27.362  97.570  51.036 
27.636  99.417  56.969 
22.848  94.397  57.661 
25.076  96.896  53.909 
24.338  94.486  53.386 
24.518  94.337  50.255 
22.199  92.680  52.988 
20.680  90.427  51.469 
21.915  92.204  51.269 
18.419  86.251  52.235 
21.238  91.691  53.316 
20.154  87.884  45.737 
18.026  87.452  58.313 
17.771  84.866  53.527 
16.985  84.454  55.648 
17.574  85.034  55.336 
17.641  85.315  56.085 
17.039  85.201  56.422 
16.762  83.353  55.266 
16.309  82.394  55.012 
16.250  81.756  54.976 
16.112  81.245  54.580 
15.611  81.099  55.262 
15.590  79.879  55.275 
14.710  78.714  54.566 
14.662  78.776  55.337 
14.503  78.162  55.227 
14.578  77.021  55.129 
13.904  76.654  55.084 
14.429  77.253  54.347 
13.701  75.365  56.007 
13.670  74.559  54.245 
12.695  71.219  55.417 
11.559  69.997  57.624 
13.175  71.986  55.389 
12.355  71.501  57.855 
12.251  70.240  54.667 
12.928  70.055  52.587 
12.805  73.821  59.921 
11.876  67.110  53.273 
11.357  67.465  54.889 
10.833  65.437  56.950 
11.587  62.476  53.753 
11.681  68.129  54.372 
10.673  63.724  56.202 
11.116  64.695  54.458 
11.495  64.823  54.854 
10.911  68.056  57.366 
11.094  62.229  58.708 
11.971  62.190  53.283 
11.925  61.394  51.362 
10.952  57.618  62.132 
10.513  57.223  55.551 
11.185  66.201  58.878 
11.156  57.067  52.247 
10.790  60.210  58.426 
10.797  54.228  58.148 
11.277  55.892  51.398 
11.053  54.596  59.114 
10.975  53.400  57.861 
10.770  51.192  54.559 
11.057  52.188  51.267 
11.164  52.319  54.802 
11.074  53.375  54.322 
11.093  49.518  56.787 
12.030  51.777  50.820 
10.903  50.530  53.423 
12.572  43.970  58.680 
12.547  45.428  51.861 
15.544  38.051  51.214 
13.156  41.504  55.689 
14.696  38.483  53.447 
12.350  45.946  57.360 
12.838  44.047  56.429 
14.887  38.305  54.265 
13.491  44.191  50.464 
12.111  46.085  54.851 
15.276  37.645  55.082 
16.530  36.397  52.298 
15.542  37.507  53.147 
15.370  38.194  53.713 
15.011  36.805  56.198 
14.505  38.242  53.930 
16.023  35.202  57.493 
16.446  35.291  51.048 
17.550  33.433  54.292 
17.306  34.263  53.805 
17.851  32.813  57.136 
18.751  31.835  53.958 
19.900  31.239  49.504 
20.619  30.427  51.355 
18.271  32.422  54.434 
20.215  29.817  53.920 
21.440  28.613  51.944 
21.098  27.949  55.945 
23.567  27.504  51.608 
20.340  29.320  53.135 
25.595  24.760  55.559 
24.825  26.094  49.248 
25.409  25.223  54.152 
25.164  26.446  45.773 
25.838  26.088  47.537 
26.716  23.544  50.396 
26.451  24.748  50.109 
29.281  22.325  50.717 
31.852  19.982  51.452 
33.898  17.847  55.870 
31.078  20.389  50.612 
31.286  19.975  52.147 
28.521  22.624  50.407 
29.234  20.945  54.197 
35.318  17.430  58.784 
32.385  18.430  55.563 
31.547  19.176  53.393 
35.277  16.905  56.244 
32.445  18.796  53.427 
35.391  17.663  54.215 
36.270  17.774  51.099 
37.673  16.556  52.184 
39.573  17.067  48.712 
41.606  15.625  47.839 
38.490  15.663  53.872 
41.974  15.286  50.779 
36.832  16.368  53.705 
45.229  14.157  47.993 
40.490  15.904  51.719 
44.649  13.850  51.035 
41.191  15.349  49.575 
44.290  13.913  52.051 
45.424  13.977  52.579 
44.551  13.614  51.532 
46.532  13.736  51.151 
46.696  12.966  52.492 
47.154  13.473  51.929 
48.398  13.206  51.808 
49.121  12.529  52.386 
49.247  12.694  53.138 
49.862  12.290  52.708 
50.970  11.950  52.713 
51.765  11.819  52.594 
52.369  11.838  52.734 
52.828  11.490  53.261 
52.771  11.425  54.045 
53.752  11.453  55.436 
55.800  11.070  53.905 
55.892  11.186  56.321 
55.596  10.988  55.620 
57.148  10.391  56.278 
56.287  11.070  52.245 
58.718  11.427  48.622 
57.115  11.651  45.873 
59.967  12.760  44.645 
60.672  11.369  48.745 
65.579  10.980  53.746 
62.734  10.210  53.837 
64.835  11.359  51.025 
66.420  11.045  53.043 
65.314  11.455  49.622 
68.800  10.757  53.917 
74.617  13.199  54.236 
71.354  11.601  54.894 
66.240  10.878  51.195 
69.325  12.638  49.260 
70.110  11.098  55.086 
71.795  12.678  52.483 
72.087  11.881  53.072 
77.081  15.852  47.028 
77.487  15.771  50.126 
73.304  13.253  49.921 
78.078  15.031  52.233 
73.753  12.421  52.964 
79.153  15.871  50.720 
78.495  16.826  48.613 
80.766  17.092  50.973 
81.108  17.437  50.237 
81.007  17.329  49.551 
81.735  17.299  51.247 
82.998  18.354  50.350 
82.046  17.252  52.614 
82.200  17.890  49.697 
82.850  18.668  51.093 
84.479  19.554  50.006 
84.581  19.121  53.366 
83.611  18.636  50.881 
83.869  18.440  53.537 
84.482  19.497  52.444 
86.092  21.048  51.999 
86.852  20.571  51.544 
87.944  22.081  51.856 
89.231  22.730  51.754 
89.607  23.008  52.402 
89.710  23.542  51.552 
90.582  23.772  51.068 
91.359  24.178  51.109 
91.501  24.715  51.055 
92.025  25.153  51.548 
91.561  24.463  52.396 
94.106  26.904  50.555 
94.366  27.537  50.020 
92.973  26.057  49.884 
93.659  28.088  47.983 
94.724  28.064  50.010 
95.470  28.879  48.254 
94.184  26.083  52.869 
95.438  29.477  47.765 
94.140  27.431  49.070 
96.280  28.493  51.551 
97.807  30.022  51.636 
97.138  30.437  49.491 
97.279  32.795  46.420 
100.226  35.016  50.803 
99.934  32.593  51.817 
98.232  32.369  47.678 
98.446  33.013  48.162 
99.998  34.869  49.315 
100.303  34.284  51.790 
101.794  37.973  50.512 
100.329  36.515  48.726 
102.225  38.438  51.141 
101.888  39.692  49.361 
103.042  39.152  52.641 
102.926  40.530  52.585 
102.981  40.168  51.006 
103.406  41.743  50.925 
104.253  42.731  51.363 
102.869  41.754  49.029 
104.282  43.999  50.197 
103.111  42.373  50.866 
103.090  43.141  47.852 
103.735  42.438  50.396 
105.948  46.693  51.783 
105.084  45.732  53.027 
105.479  46.806  49.983 
105.718  46.654  51.019 
105.683  47.374  51.712 
106.773  48.738  52.285 
106.781  49.194  52.063 
106.684  50.396  52.562 
106.956  50.679  51.299 
106.753  51.194  52.168 
107.405  52.594  53.184 
107.149  51.835  52.305 
107.328  53.421  53.571 
107.145  54.852  53.772 
107.869  56.168  53.664 
108.424  57.814  53.854 
108.562  57.215  55.310 
108.637  58.403  55.295 
108.845  58.859  54.630 
109.032  57.968  57.616 
107.904  58.693  50.396 
107.057  61.133  45.574 
107.968  61.265  49.999 
107.649  61.049  49.252 
108.385  61.370  51.440 
108.327  61.121  52.319 
107.261  65.778  50.253 
106.802  68.627  48.387 
107.479  65.285  51.679 
107.524  66.405  52.134 
107.145  68.255  51.383 
107.407  67.897  53.321 
107.301  69.330  53.850 
106.518  69.066  52.266 
107.100  70.224  52.278 
106.436  71.276  52.464 
106.752  71.720  52.073 
106.340  72.861  52.547 
106.074  73.122  51.230 
105.839  74.154  52.365 
105.748  73.836  50.970 
103.482  82.126  51.482 
105.770  74.151  50.128 
105.452  75.900  51.815 
104.594  79.060  56.621 
103.862  80.426  49.816 
100.258  86.237  48.584 
104.018  79.176  50.508 
102.207  83.382  50.530 
104.188  81.604  54.507 
101.697  84.992  54.394 
101.062  86.242  52.339 
102.555  83.624  54.073 
101.367  85.475  53.639 
103.377  81.251  49.652 
102.856  83.645  54.810 
100.503  87.775  54.253 
101.898  85.716  55.227 
100.155  88.453  53.694 
96.545  92.803  60.449 
97.047  91.867  51.495 
92.562  97.514  54.939 
100.218  86.706  50.801 
96.817  93.229  54.954 
97.760  91.394  58.392 
97.076  91.073  51.574 
98.185  88.901  46.420 
96.766  92.465  49.819 
95.836  94.197  52.277 
96.745  92.588  54.325 
94.858  94.807  59.531 
89.931  97.624  48.223 
90.806  97.952  52.144 
90.112  97.718  47.781 
90.821  97.435  48.195 
90.721  98.766  53.970 
88.416  99.047  47.737 
89.109  99.333  56.575 
92.245  96.646  52.900 
86.867  100.815  51.765 
88.558  97.438  45.838 
87.727  99.953  51.418 
84.884  102.826  55.325 
83.101  103.770  57.043 
83.680  103.718  54.331 
79.636  104.792  52.016 
86.529  100.518  47.424 
84.646  102.635  52.536 
79.247  105.411  52.828 
76.691  106.909  53.931 
78.105  105.907  55.415 
80.343  105.165  50.899 
75.800  107.531  52.442 
77.675  106.907  56.534 
76.423  107.814  55.471 
77.242  105.203  50.326 
74.965  107.223  52.159 
71.452  107.094  49.231 
76.276  106.487  51.240 
68.826  107.743  53.537 
69.261  107.379  50.951 
73.211  108.053  54.590 
70.174  107.576  52.443 
69.736  106.986  48.536 
68.585  107.728  49.770 
70.455  107.719  53.225 
67.961  106.280  45.791 
67.471  107.172  48.312 
66.326  108.053  49.750 
64.113  108.390  49.756 
63.247  108.646  50.283 
64.935  108.563  50.686 
63.581  108.443  50.545 
61.985  108.611  51.310 
61.854  108.969  50.611 
61.161  108.733  52.080 
60.819  109.100  51.797 
59.538  108.749  51.839 
59.115  109.333  52.552 
57.818  109.389  53.103 
57.622  109.505  52.318 
57.041  109.125  52.831 
56.353  109.598  53.523 
56.301  109.323  50.845 
56.026  108.467  51.583 
53.696  108.678  51.909 
52.135  108.789  51.277 
52.755  108.988  53.838 
51.325  108.169  49.066 
51.176  108.620  50.641 
47.303  107.796  54.709 
50.947  108.954  52.279 
48.774  107.865  52.655 
48.325  108.257  53.378 
45.597  106.893  52.539 
45.404  106.621  53.423 
44.359  106.560  53.129 
44.769  106.300  52.642 
41.768  105.424  53.088 
43.048  106.006  52.570 
40.971  106.067  54.778 
41.782  105.717  51.775 
40.366  104.832  51.941 
39.093  104.570  51.509 
38.354  104.096  52.766 
37.645  104.505  52.339 
36.622  103.685  52.401 
35.475  103.936  52.259 
34.799  102.825  50.116 
35.178  103.286  51.032 
34.264  102.348  50.077 
33.350  101.871  49.370 
29.462  100.714  53.609 
30.554  101.256  57.062 
33.566  100.424  44.504 
29.968  99.978  59.315 
31.837  101.743  52.550 
29.366  97.963  45.541 
31.923  101.764  53.405 
29.485  100.982  52.780 
29.748  99.669  51.146 
31.081  100.909  52.606 
29.693  98.368  48.926 
26.922  97.373  52.212 
28.952  97.704  47.741 
26.887  98.060  55.154 
29.418  99.118  51.834 
28.380  99.061  51.319 
26.379  97.923  54.528 
25.079  95.916  56.497 
23.437  95.458  58.340 
24.385  95.045  54.085 
23.509  94.500  54.400 
22.483  93.666  55.146 
21.707  90.994  49.510 
22.954  94.221  56.948 
21.480  93.058  55.682 
22.652  93.303  55.873 
19.174  86.492  51.008 
18.899  86.072  52.133 
18.422  84.861  52.206 
17.869  85.298  54.595 
17.862  86.039  54.355 
17.295  84.141  55.535 
17.083  84.793  56.110 
16.803  82.507  53.885 
16.892  82.530  54.530 
16.315  81.983  54.200 
16.471  80.991  54.410 
15.731  80.507  54.596 
15.329  79.856  54.871 
15.372  79.200  54.474 
14.594  78.104  54.303 
14.408  77.675  54.903 
14.220  77.080  53.446 
14.469  76.783  54.696 
13.537  76.209  56.268 
13.754  73.946  54.171 
13.826  74.454  53.289 
13.330  74.266  55.549 
12.941  68.979  52.297 
13.439  72.397  53.657 
13.069  71.573  54.709 
12.907  72.022  52.971 
11.801  68.890  54.824 
11.298  68.411  55.791 
12.742  71.364  51.871 
11.868  67.609  53.610 
11.146  65.961  55.529 
12.450  70.663  52.481 
10.824  67.120  56.960 
10.840  63.986  57.447 
11.328  63.076  56.202 
10.780  59.029  54.034 
10.978  67.706  59.093 
10.914  61.042  54.301 
11.982  62.350  50.502 
12.114  62.091  51.969 
10.794  62.850  57.078 
10.537  61.397  60.476 
11.032  60.375  53.778 
11.044  53.135  51.075 
11.494  54.423  51.093 
10.679  57.561  60.109 
11.021  55.267  58.063 
11.006  56.684  55.040 
11.677  53.536  50.079 
10.186  55.767  61.286 
11.347  56.346  57.120 
11.268  55.172  51.658 
10.794  53.462  55.299 
12.609  47.098  49.592 
11.637  47.393  51.945 
12.674  44.724  52.228 
12.363  45.470  52.566 
10.964  50.107  52.356 
11.658  47.729  56.456 
14.446  38.458  55.760 
12.650  49.315  47.384 
14.179  43.759  50.202 
13.039  42.702  53.466 
13.271  45.318  49.577 
12.476  46.134  53.827 
15.004  37.033  58.169 
15.185  37.066  57.180 
16.094  36.161  55.184 
15.062  37.867  51.323 
14.405  39.524  52.134 
15.455  37.012  53.801 
14.582  39.401  51.625 
16.592  35.585  50.474 
17.942  33.669  55.099 
18.137  31.986  53.359 
16.458  35.045  52.011 
16.246  35.316  52.924 
18.260  33.655  50.200 
20.400  30.657  52.201 
20.633  29.909  52.099 
18.767  31.644  54.735 
19.315  31.375  53.315 
22.284  28.817  51.373 
24.231  26.315  50.740 
21.332  31.682  48.241 
25.875  25.240  49.588 
24.111  25.875  55.643 
24.194  24.195  59.887 
23.530  26.285  52.006 
27.919  22.513  54.444 
25.405  25.345  51.206 
24.227  25.803  52.219 
27.448  22.449  54.115 
34.371  18.274  51.612 
32.429  19.334  50.995 
32.943  18.732  51.639 
35.542  17.817  50.542 
33.956  18.296  52.832 
33.215  19.357  51.519 
31.908  18.904  57.849 
33.887  19.422  50.824 
31.745  19.298  54.321 
34.731  17.282  57.001 
39.290  17.576  47.869 
31.463  18.715  55.755 
38.603  16.116  52.048 
37.743  15.915  54.851 
38.969  16.978  49.166 
40.192  17.555  47.622 
40.272  15.571  50.159 
42.403  14.852  48.768 
43.193  14.922  49.822 
42.256  16.182  48.233 
44.308  14.305  49.786 
44.579  14.448  51.575 
44.747  14.161  50.515 
44.047  14.243  51.008 
45.555  13.839  50.736 
46.210  13.905  49.477 
45.714  13.803  51.637 
47.601  13.351  51.135 
47.756  12.878  51.981 
48.391  12.571  51.806 
49.713  12.880  51.831 
49.783  12.429  51.813 
50.347  12.465  51.306 
50.654  12.201  52.092 
52.511  12.006  51.560 
52.260  12.437  52.355 
53.149  11.879  52.422 
53.443  11.567  53.522 
53.657  11.914  54.326 
54.408  11.638  52.912 
55.198  10.956  54.468 
56.295  11.686  51.717 
56.277  11.484  55.008 
54.428  11.179  54.781 
56.602  11.065  51.369 
60.570  10.349  54.521 
60.922  10.614  52.388 
62.434  11.061  51.379 
62.500  10.426  51.431 
59.125  11.304  47.796 
61.725  10.498  50.771 
68.553  11.218  52.764 
65.132  10.552  56.749 
67.848  12.230  48.917 
65.460  11.081  53.269 
71.012  12.266  50.439 
71.688  12.425  51.032 
70.365  11.207  57.006 
69.883  11.881  53.122 
70.632  11.715  52.178 
74.972  13.654  50.695 
77.076  14.942  49.913 
75.448  15.166  48.707 
75.051  15.060  47.831 
73.323  13.213  50.440 
72.470  12.840  49.905 
77.037  15.752  49.233 
80.330  16.264  51.737 
79.139  16.982  49.216 
81.898  17.554  50.488 
79.271  15.587  52.758 
82.085  18.323  50.128 
82.496  18.001  50.402 
78.996  16.590  50.060 
83.397  18.040  52.788 
81.115  17.533  52.221 
82.833  17.446  53.130 
83.104  18.173  51.693 
84.556  19.461  51.102 
84.070  19.498  51.398 
83.638  18.766  53.192 
86.345  21.134  50.975 
87.331  21.409  51.359 
88.155  21.557  51.798 
88.422  21.586  51.271 
89.109  22.299  50.927 
88.916  22.146  51.634 
90.184  24.127  50.967 
90.341  23.446  50.396 
90.918  24.468  50.429 
92.080  25.158  49.927 
92.977  25.562  50.626 
92.819  26.418  48.898 
92.771  26.703  47.873 
94.471  28.087  49.252 
93.017  27.411  48.331 
92.797  26.845  50.000 
95.552  27.827  50.960 
97.096  30.891  48.691 
97.488  29.244  51.395 
95.717  30.064  47.297 
96.719  28.996  52.452 
100.461  33.343  51.649 
100.430  33.979  51.409 
99.185  32.471  49.649 
97.570  33.652  45.142 
100.765  35.732  50.477 
99.212  33.758  49.330 
99.561  34.993  47.913 
100.205  34.556  50.619 
100.884  37.033  49.235 
101.689  37.908  49.774 
101.406  36.896  50.409 
101.672  37.715  51.054 
101.567  37.447  49.781 
101.911  38.880  51.192 
102.636  39.364  51.779 
102.336  39.615  50.919 
103.250  40.933  51.033 
102.507  40.783  49.959 
102.803  41.493  49.623 
103.075  42.444  49.971 
103.582  43.466  48.407 
104.109  43.170  51.066 
103.822  43.825  49.638 
103.656  44.467  49.073 
104.417  44.893  50.735 
105.206  44.834  51.173 
105.451  47.850  52.268 
106.035  48.551  50.762 
106.646  49.745  51.452 
106.553  49.843  51.909 
106.591  50.177  50.628 
106.826  50.706  51.827 
106.154  52.018  51.237 
107.038  52.519  52.196 
106.693  53.284  52.337 
107.345  53.405  52.760 
107.974  58.248  52.047 
107.143  54.040  52.164 
107.599  56.756  53.928 
108.310  58.512  56.141 
107.991  57.148  54.529 
107.331  56.692  51.058 
108.564  59.406  54.190 
108.101  58.562  54.532 
107.590  57.683  52.047 
108.203  61.011  53.176 
107.917  60.560  49.345 
108.477  59.135  53.213 
108.100  60.263  50.816 
107.017  65.249  49.314 
106.772  66.406  50.367 
106.643  68.790  48.860 
106.782  68.305  52.206 
107.523  67.200  52.705 
106.775  68.964  53.001 
107.095  68.834  51.718 
107.020  69.710  52.074 
106.976  70.224  51.488 
106.765  70.806  52.138 
106.913  71.203  51.225 
106.851  72.344  51.930 
105.462  72.762  48.138 
105.903  75.386  53.964 
105.583  73.016  52.086 
105.551  74.888  54.707 
104.471  79.648  54.754 
104.325  80.489  53.795 
102.648  83.288  53.241 
104.232  80.133  51.632 
104.751  77.864  48.353 
102.210  83.639  51.258 
101.896  82.983  49.640 
103.842  81.869  53.685 
101.902  83.645  50.826 
99.164  88.124  48.322 
101.398  84.929  51.910 
103.018  83.588  53.470 
101.157  86.819  57.041 
102.225  84.356  53.492 
99.254  89.579  53.593 
99.203  89.636  55.772 
101.254  86.711  55.639 
98.203  90.990  53.340 
99.982  87.930  52.195 
99.064  91.021  58.440 
97.585  90.994  50.660 
94.481  94.696  51.193 
91.829  96.530  52.115 
94.689  95.148  53.037 
94.689  92.919  48.330 
97.325  91.221  49.820 
92.896  96.589  53.388 
90.193  97.113  47.146 
90.437  97.923  52.976 
89.404  98.240  49.289 
92.800  96.283  52.099 
84.608  101.970  48.570 
86.084  101.444  50.723 
91.056  97.027  50.016 
82.566  102.568  46.535 
90.111  98.705  49.986 
88.800  99.595  51.890 
90.597  98.552  55.196 
88.552  99.254  51.481 
86.612  101.956  55.579 
89.178  98.555  48.536 
89.284  99.489  53.929 
80.202  102.668  43.321 
84.169  102.445  50.179 
81.522  104.916  56.119 
77.518  105.118  46.896 
81.796  104.222  51.091 
76.926  106.545  52.138 
79.495  105.669  54.435 
80.399  105.257  54.327 
78.385  105.522  52.709 
75.381  107.034  50.597 
79.313  104.273  48.312 
79.259  105.256  50.337 
77.356  106.733  58.913 
75.690  106.868  51.042 
72.711  107.659  51.316 
69.535  107.738  54.090 
72.829  106.876  49.738 
73.711  106.820  50.249 
72.316  107.679  51.804 
71.832  107.865  52.647 
71.019  107.774  52.589 
71.284  106.811  48.285 
67.014  107.507  47.625 
65.802  107.688  49.078 
65.048  108.209  48.726 
65.673  107.902  50.381 
63.680  108.185  49.187 
63.777  108.728  51.025 
62.761  108.654  50.880 
62.218  108.279  50.684 
61.262  108.247  50.647 
60.616  108.912  50.729 
59.992  108.583  51.042 
59.085  108.778  51.605 
58.430  109.100  51.165 
58.365  109.499  51.918 
56.978  109.160  52.033 
56.565  109.255  51.683 
54.771  109.126  51.146 
54.090  109.008  51.677 
55.103  109.315  52.658 
53.277  108.931  52.455 
51.389  108.912  54.126 
47.883  106.604  49.190 
48.867  107.992  51.316 
51.685  108.680  48.292 
50.341  108.862  51.598 
47.989  107.789  52.220 
47.882  108.068  51.407 
46.888  106.751  52.629 
46.198  107.137  52.828 
46.771  107.896  54.639 
45.378  106.516  51.588 
43.850  106.405  52.308 
44.491  106.014  52.175 
41.882  105.645  50.752 
40.082  104.780  49.530 
43.415  105.699  54.559 
39.706  104.465  49.059 
38.043  103.892  51.917 
37.726  104.376  50.851 
37.108  104.159  51.642 
37.327  104.221  52.575 
36.844  103.812  51.290 
36.115  103.907  51.519 
35.052  103.120  51.812 
33.966  102.886  51.898 
33.124  101.880  54.418 
35.518  102.865  48.097 
30.974  101.410  52.573 
32.311  101.682  54.412 
30.074  100.123  49.907 
34.203  101.285  45.040 
31.229  101.175  51.154 
30.434  99.475  48.905 
32.693  101.802  48.676 
30.954  101.234  53.517 
26.866  96.109  47.765 
31.286  100.832  49.359 
26.834  96.851  51.015 
27.661  98.658  55.307 
26.503  97.389  53.146 
28.218  98.013  49.543 
26.193  97.821  57.020 
28.210  99.744  54.019 
25.417  95.890  52.596 
25.052  95.777  51.792 
27.575  97.789  49.590 
23.473  92.800  49.764 
22.819  93.303  52.597 
20.116  90.259  53.752 
20.104  89.831  52.867 
18.282  85.246  54.209 
17.837  87.856  55.729 
19.980  89.144  49.864 
18.643  86.813  51.439 
17.461  86.263  55.871 
18.973  88.601  54.016 
17.210  83.360  54.840 
17.695  84.036  53.895 
17.055  83.366  53.961 
16.859  82.897  53.367 
16.276  81.633  53.757 
16.063  80.862  53.773 
15.853  80.431  54.160 
16.186  79.993  53.751 
15.431  79.532  54.036 
15.173  78.731  54.095 
14.819  77.859  53.858 
14.513  77.468  53.568 
14.161  76.224  53.067 
14.452  75.685  51.648 
14.506  75.509  53.736 
14.032  75.233  54.649 
13.808  75.977  55.432 
13.400  74.443  56.555 
12.770  71.950  53.899 
13.050  73.652  54.805 
13.145  69.415  48.475 
12.534  68.596  51.029 
11.792  70.167  56.757 
11.188  66.867  55.692 
12.767  68.051  52.359 
12.226  65.464  52.366 
11.633  67.633  54.335 
12.156  66.172  51.996 
11.527  69.509  53.575 
11.225  58.545  56.994 
10.702  58.633  53.396 
10.694  63.282  59.230 
12.401  62.908  52.798 
11.228  64.302  53.917 
11.995  60.787  52.131 
10.614  59.329  56.088 
12.207  60.718  50.675 
11.218  60.554  56.276 
11.752  58.039  50.941 
11.012  60.207  54.688 
10.751  55.937  57.758 
11.111  58.137  59.662 
10.610  52.582  53.940 
11.149  54.420  57.747 
10.956  59.028  59.708 
13.503  46.624  48.853 
11.062  50.451  58.841 
11.734  49.905  49.976 
11.736  50.358  50.827 
11.592  49.448  51.086 
11.936  50.442  49.366 
11.467  46.598  54.629 
10.857  51.233  53.620 
12.800  43.748  53.994 
12.846  43.032  55.138 
13.020  44.924  51.565 
12.361  45.737  53.207 
12.349  44.942  52.718 
13.569  44.030  51.306 
14.068  40.676  55.815 
14.269  38.946  56.243 
14.211  40.334  52.508 
13.355  41.063  53.767 
15.100  40.024  49.963 
13.245  42.070  52.124 
13.078  42.129  57.516 
15.610  37.011  52.203 
15.744  36.350  51.649 
14.567  39.956  50.091 
16.663  34.526  54.241 
16.452  37.165  49.821 
18.001  32.841  53.275 
17.089  34.033  53.069 
20.078  30.675  51.388 
17.660  34.491  50.282 
19.116  32.869  48.925 
21.470  29.570  48.647 
22.787  27.609  51.205 
23.579  25.782  55.611 
23.262  28.701  47.554 
22.984  26.572  53.278 
26.954  25.979  45.167 
26.183  25.498  46.982 
26.966  25.260  47.997 
24.999  25.885  49.686 
24.805  26.684  46.725 
26.551  24.192  52.460 
28.398  21.970  52.158 
32.039  21.339  47.130 
27.108  23.306  52.172 
29.652  21.425  51.363 
30.590  20.384  52.676 
30.397  23.107  46.840 
35.057  17.976  52.079 
37.834  17.319  49.937 
34.492  18.503  55.100 
34.161  18.384  53.717 
35.321  17.148  58.326 
34.636  17.719  54.913 
33.763  19.345  48.913 
33.731  18.637  51.204 
36.089  17.701  52.869 
39.066  17.684  48.683 
37.181  17.891  48.588 
36.690  18.840  49.277 
38.942  16.898  49.844 
42.407  15.359  48.119 
42.488  15.787  46.334 
44.829  14.312  46.570 
43.648  14.538  47.628 
39.463  16.370  49.140 
45.856  13.969  49.900 
44.113  13.958  52.587 
50.402  13.387  46.285 
46.236  14.108  50.891 
47.132  13.196  50.806 
46.706  13.625  49.289 
47.863  12.708  51.180 
49.018  13.166  51.004 
49.771  12.682  51.019 
50.732  12.349  51.595 
51.299  11.967  51.255 
51.360  11.996  52.010 
53.513  12.298  51.880 
53.589  11.518  53.019 
55.138  11.595  53.572 
54.085  11.724  52.360 
56.225  11.266  53.018 
54.402  11.674  53.800 
59.191  10.457  52.012 
56.502  10.580  56.256 
57.883  10.811  54.353 
60.078  10.469  52.919 
57.826  11.054  48.269 
56.783  11.199  54.173 
58.625  10.852  49.225 
61.710  10.251  51.733 
65.402  11.634  50.545 
66.494  11.615  49.688 
63.635  11.905  48.107 
65.292  12.083  48.200 
66.598  11.352  49.146 
66.386  11.280  51.770 
63.074  11.265  49.977 
71.446  12.921  48.296 
69.711  10.883  55.965 
66.798  11.116  50.428 
66.413  12.526  47.022 
74.405  12.937  53.629 
76.121  15.224  45.840 
77.009  15.900  46.274 
74.549  13.841  49.423 
78.068  14.959  51.386 
78.181  16.506  46.903 
77.737  15.586  49.473 
79.754  16.076  51.048 
81.895  17.522  49.936 
78.586  16.414  49.493 
82.428  17.546  51.625 
79.726  16.538  50.588 
78.895  16.465  48.227 
78.037  16.748  46.134 
83.613  19.192  49.507 
84.684  19.427  51.593 
83.292  18.105  51.239 
80.664  17.329  48.677 
84.253  19.753  46.329 
85.203  19.200  52.933 
85.923  20.321  51.311 
84.821  19.824  51.852 
86.766  20.922  51.229 
87.615  21.270  50.939 
88.223  21.996  50.439 
88.329  22.098  50.970 
89.463  22.842  50.801 
89.918  22.870  51.075 
90.579  23.688  49.960 
91.104  24.145  49.703 
91.105  24.602  49.947 
91.561  25.245  50.113 
91.752  25.136  49.050 
