45.703  32.543  99.166 
45.816  32.230  98.348 
45.569  30.663  97.334 
42.402  30.729  96.349 
44.419  28.482  95.113 
45.202  28.452  95.506 
40.493  28.725  94.233 
50.668  26.313  95.516 
42.537  32.483  98.525 
43.146  30.480  96.427 
45.645  24.641  93.173 
51.464  24.222  93.706 
52.365  29.725  98.705 
50.678  24.920  94.238 
47.297  23.902  92.907 
53.779  29.156  98.232 
57.832  21.751  91.892 
53.307  26.041  95.598 
54.408  25.982  95.667 
54.222  24.932  95.458 
52.935  24.315  93.810 
57.398  27.519  97.352 
58.181  27.571  97.813 
55.679  29.989  99.911 
56.276  30.147  99.494 
55.685  25.603  95.389 
63.726  25.203  95.451 
58.412  25.316  96.282 
61.755  29.464  99.553 
63.186  25.796  95.592 
63.179  26.053  96.350 
64.541  24.018  94.324 
64.456  26.200  95.198 
65.408  25.953  95.474 
67.340  26.647  94.967 
67.430  26.156  94.824 
67.668  26.871  94.665 
68.779  27.464  95.650 
69.567  27.342  94.581 
69.954  27.554  95.688 
71.313  27.619  95.279 
71.130  26.999  94.681 
72.799  26.897  94.710 
72.143  27.568  94.996 
73.812  27.948  95.177 
73.022  27.553  95.241 
74.561  28.011  94.890 
74.092  28.686  95.368 
75.570  29.058  94.960 
77.040  29.620  94.692 
77.770  30.759  95.376 
77.134  30.192  95.400 
81.540  28.190  91.564 
83.262  32.887  93.297 
80.005  31.513  95.244 
78.994  31.992  95.780 
86.789  33.883  92.114 
80.069  32.605  95.718 
82.685  32.391  93.797 
84.980  35.428  93.570 
83.575  38.897  97.713 
84.306  37.387  96.399 
84.896  37.638  95.657 
85.804  38.878  95.869 
85.735  40.182  96.774 
84.247  39.628  97.794 
83.125  37.051  96.176 
87.320  40.176  94.838 
85.982  43.001  97.780 
88.772  40.286  93.950 
89.272  43.692  94.948 
90.710  44.928  94.481 
95.264  46.177  91.424 
92.220  46.987  94.428 
92.670  47.351  93.936 
93.422  44.062  92.513 
91.447  48.787  94.990 
94.336  48.406  91.382 
94.834  47.602  91.353 
94.171  52.336  93.626 
95.043  45.558  90.663 
91.250  47.784  94.389 
93.516  50.550  93.585 
91.499  51.623  95.596 
93.476  54.482  94.749 
95.663  54.072  92.767 
94.939  53.786  94.005 
94.769  55.912  93.920 
95.244  58.144  94.202 
91.556  53.937  96.494 
94.620  57.383  94.253 
92.815  59.856  95.596 
93.009  58.170  94.491 
94.045  54.270  94.515 
91.970  57.800  95.579 
92.593  62.344  94.836 
94.208  60.963  94.516 
93.330  60.256  95.309 
94.491  62.443  94.114 
95.963  64.034  93.167 
94.384  65.207  94.125 
94.184  65.800  94.530 
93.815  66.523  94.466 
94.151  67.198  94.308 
93.725  67.868  95.122 
93.523  69.034  95.310 
93.732  69.752  94.758 
93.020  69.966  95.165 
91.949  70.745  94.950 
91.605  71.238  95.325 
92.442  72.612  94.955 
94.048  72.267  94.276 
89.753  74.803  96.408 
91.959  74.135  94.971 
89.650  74.153  96.734 
92.969  73.232  94.700 
91.297  80.354  91.473 
89.423  76.491  97.097 
91.559  74.596  95.922 
91.352  75.759  95.728 
85.146  79.184  97.476 
89.237  78.624  94.600 
88.818  81.328  93.892 
87.480  81.698  94.560 
86.964  79.985  96.322 
83.660  82.757  97.116 
85.664  83.080  95.111 
84.258  82.963  95.486 
84.092  83.340  96.434 
82.781  82.830  97.524 
83.289  84.755  95.939 
82.540  84.296  96.124 
83.168  85.235  95.380 
81.860  85.485  95.428 
81.521  85.799  96.004 
81.768  85.237  96.540 
79.268  83.211  98.927 
80.994  89.669  92.882 
78.430  85.756  97.151 
79.618  89.781  93.416 
70.890  88.053  98.891 
73.803  90.429  95.857 
74.032  91.788  94.494 
70.175  92.703  95.000 
74.343  89.530  97.720 
72.590  92.727  93.109 
73.775  93.470  92.572 
70.384  91.191  96.039 
72.560  92.171  94.460 
77.273  92.673  91.380 
73.066  91.958  95.050 
72.646  94.447  92.311 
66.959  94.283  93.433 
66.929  90.920  97.716 
70.829  92.329  94.901 
66.445  92.100  95.773 
65.767  94.627  93.922 
67.702  92.367  95.739 
61.079  96.465  91.865 
61.948  96.264  91.668 
62.837  95.896  92.755 
61.501  97.875  91.158 
60.691  98.962  89.711 
61.843  97.190  91.342 
57.427  97.560  90.574 
55.837  96.183  92.618 
59.019  93.478  95.142 
55.549  97.251  91.696 
60.098  96.676  91.142 
53.405  92.760  95.537 
51.858  96.598  92.210 
51.605  96.837  91.592 
52.400  93.661  94.486 
52.643  94.596  93.197 
52.558  95.068  93.300 
51.567  94.494  92.851 
51.552  93.633  94.018 
49.813  93.410  94.029 
48.748  93.808  93.206 
48.914  93.320  93.229 
48.293  93.214  93.676 
47.478  92.742  94.052 
47.183  91.763  94.188 
45.962  91.281  94.896 
46.421  90.592  95.544 
45.605  90.493  94.933 
44.759  89.962  95.129 
43.949  89.289  95.784 
44.027  90.030  95.452 
42.850  88.895  95.786 
42.730  88.046  96.339 
41.944  88.461  95.782 
41.341  88.008  95.421 
40.387  87.800  95.461 
40.632  87.576  95.906 
39.832  87.107  95.524 
39.145  86.574  95.750 
37.590  86.583  94.629 
38.682  84.202  97.022 
37.783  85.563  95.322 
36.024  82.579  97.238 
33.690  83.514  94.665 
35.862  80.814  97.596 
35.218  81.872  95.935 
32.343  81.026  94.617 
35.390  85.030  94.231 
32.011  80.171  94.281 
33.526  80.589  95.489 
32.240  78.280  95.736 
31.427  78.055  95.163 
31.909  77.284  95.496 
30.497  76.539  95.297 
32.120  76.347  95.374 
31.178  74.879  96.158 
31.194  74.380  96.159 
30.952  74.385  95.703 
29.651  72.674  95.957 
30.244  73.517  96.215 
29.335  71.682  95.887 
29.442  70.860  95.623 
29.357  70.153  95.904 
30.158  69.736  96.681 
29.412  69.046  96.040 
30.055  67.359  96.943 
29.543  67.268  97.562 
27.952  67.016  96.108 
28.135  66.318  96.335 
27.133  63.921  95.734 
26.302  62.632  94.811 
28.267  63.327  96.569 
27.633  62.411  96.262 
27.319  63.020  95.726 
28.636  60.455  97.083 
27.586  60.313  96.196 
26.041  60.259  95.102 
26.142  59.775  95.266 
27.913  60.562  96.676 
27.283  57.434  95.794 
27.878  56.716  95.992 
28.196  56.755  96.528 
27.911  55.904  95.630 
28.350  54.108  96.638 
27.316  54.340  95.418 
27.484  53.483  95.558 
28.409  51.670  96.140 
27.014  51.322  94.526 
27.121  50.009  94.787 
28.983  46.158  95.698 
27.896  50.365  95.834 
25.310  47.574  93.047 
26.932  47.189  94.529 
29.412  45.004  95.698 
29.725  45.745  96.210 
30.156  44.786  95.473 
29.183  43.349  94.926 
30.246  43.195  95.703 
30.432  42.664  95.262 
31.590  42.782  96.008 
31.384  41.005  95.821 
31.624  40.818  95.261 
33.367  39.646  95.855 
33.060  40.248  96.354 
33.459  38.872  95.375 
34.891  37.929  96.364 
35.518  38.072  97.071 
34.186  37.356  95.542 
35.465  36.425  95.949 
36.775  36.481  96.703 
37.343  36.130  96.393 
37.471  35.518  96.142 
37.652  36.278  97.182 
38.272  34.732  96.229 
39.282  33.013  96.197 
43.384  29.664  96.258 
39.420  33.661  96.690 
45.830  28.918  96.303 
39.922  34.035  97.417 
41.056  32.404  96.424 
41.588  31.345  95.967 
39.549  29.646  93.521 
40.740  32.155  95.591 
41.938  29.323  95.125 
47.251  29.506  97.145 
49.385  26.957  96.206 
47.897  26.176  95.376 
49.926  24.589  94.254 
46.877  23.667  91.990 
49.701  25.980  95.427 
53.016  27.591  97.173 
44.438  31.248  97.461 
50.052  26.156  94.806 
47.349  25.822  94.851 
49.124  28.276  96.799 
53.311  26.865  96.335 
46.626  23.860  93.032 
51.157  25.744  95.154 
48.463  24.346  93.275 
53.737  24.179  94.489 
56.274  20.449  90.550 
56.695  25.644  96.597 
50.804  24.310  94.195 
54.323  24.568  94.869 
59.382  24.695  94.826 
55.656  26.425  96.951 
60.217  30.179  99.839 
58.414  23.388  94.104 
61.000  22.557  92.483 
59.764  26.444  96.958 
58.630  25.757  95.998 
60.849  27.405  97.159 
61.838  25.438  95.748 
64.277  23.582  94.196 
66.737  25.422  94.549 
67.719  26.261  94.102 
67.024  26.015  94.634 
69.077  26.079  94.560 
68.279  26.461  94.878 
68.881  26.524  94.710 
69.920  26.484  94.675 
70.187  26.957  95.165 
71.682  27.014  94.484 
72.012  27.111  94.851 
73.522  27.420  94.677 
73.978  26.903  94.174 
74.151  27.306  94.507 
74.485  28.798  94.842 
76.436  29.123  95.327 
76.402  28.972  94.415 
77.573  28.242  93.069 
77.836  29.361  94.615 
77.777  30.130  94.790 
78.883  31.410  94.866 
78.736  31.175  95.291 
81.800  31.344  94.101 
84.471  34.634  94.699 
79.569  30.202  93.671 
81.714  32.469  95.219 
84.331  38.167  96.571 
87.460  34.096  90.346 
83.648  37.048  96.808 
86.248  36.964  93.922 
82.262  33.647  95.659 
87.404  38.222  93.776 
84.877  39.313  96.450 
86.961  42.510  96.510 
87.071  40.416  95.481 
86.246  39.727  95.667 
89.445  37.596  92.224 
87.543  42.999  95.931 
88.933  41.617  94.337 
91.585  38.641  90.147 
92.556  45.996  93.362 
88.321  42.927  95.694 
89.701  41.843  93.907 
91.275  43.882  93.205 
89.753  41.484  93.589 
92.010  44.470  93.374 
93.927  44.669  91.731 
96.171  43.443  88.087 
94.757  46.952  91.817 
94.327  51.560  93.401 
94.417  53.671  94.076 
94.814  50.203  92.679 
93.052  55.377  94.844 
96.231  54.502  91.958 
95.316  52.508  92.248 
92.727  51.854  95.333 
92.312  52.701  95.684 
95.692  57.738  93.526 
93.039  57.181  95.138 
91.205  57.703  96.317 
95.221  57.205  94.090 
91.898  60.464  96.579 
93.436  61.249  94.763 
95.029  62.109  94.363 
97.010  61.571  92.467 
93.842  59.702  94.443 
95.895  58.476  93.941 
94.600  63.444  94.538 
96.087  63.580  93.287 
95.374  63.927  93.624 
94.828  66.357  93.582 
94.932  67.140  93.860 
93.921  68.180  94.336 
93.843  68.552  94.642 
93.716  68.429  95.136 
93.678  69.487  94.338 
93.510  70.779  95.010 
92.648  70.584  94.961 
92.150  71.047  95.550 
93.169  72.543  94.413 
91.816  73.722  95.917 
93.984  72.996  93.571 
92.809  75.156  94.378 
90.134  73.409  96.550 
93.348  73.249  93.927 
91.787  76.715  94.332 
94.325  80.059  89.501 
93.854  76.718  92.827 
93.013  79.392  91.171 
90.142  77.560  95.998 
90.747  77.548  94.880 
90.955  77.212  94.077 
91.463  81.632  91.366 
85.093  77.377  99.202 
86.894  82.883  94.279 
85.600  81.731  95.545 
85.551  83.580  95.115 
83.749  82.773  96.201 
82.395  80.668  98.054 
83.462  84.299  95.451 
81.627  84.494  96.308 
83.975  84.976  94.997 
82.945  85.715  94.673 
82.011  86.959  95.129 
81.608  86.332  95.763 
79.680  86.401  96.379 
79.289  89.570  94.639 
78.225  91.230  93.029 
78.922  89.066  95.378 
80.890  87.564  95.308 
76.351  90.920  94.909 
78.027  87.223  97.469 
74.838  88.998  98.277 
73.328  91.713  94.561 
78.299  89.727  95.250 
76.522  88.912  96.246 
75.610  92.805  91.352 
75.957  92.691  92.909 
68.549  91.508  97.071 
68.502  93.409  94.051 
71.092  92.823  94.785 
69.198  93.668  93.864 
68.137  93.098  94.675 
67.422  93.576  93.888 
66.905  91.789  96.944 
67.516  94.324  94.121 
65.253  92.339  96.712 
64.068  94.239  94.535 
63.441  93.882  94.956 
67.404  94.055  93.630 
61.541  96.087  92.484 
62.174  97.008  91.993 
53.906  97.414  91.228 
62.228  95.891  93.188 
59.168  95.802  93.465 
61.240  98.710  90.088 
52.275  95.885  92.588 
64.717  90.137  99.380 
53.601  96.020  92.519 
58.244  93.821  94.919 
56.770  95.817  92.858 
53.085  94.443  93.634 
50.537  95.782  92.159 
50.755  93.279  93.416 
48.885  95.702  91.052 
54.056  94.219  94.836 
54.727  93.620  95.644 
48.325  94.207  92.681 
50.760  94.724  93.152 
49.484  94.277  92.462 
48.192  92.827  92.933 
47.674  92.871  93.569 
46.262  91.924  94.304 
46.044  91.160  94.396 
45.289  91.387  94.307 
45.208  90.759  94.984 
44.928  90.429  95.327 
43.983  90.277  94.701 
43.422  90.165  94.826 
43.300  89.079  95.790 
42.994  89.350  94.978 
41.878  88.464  95.047 
40.018  88.323  94.815 
40.674  88.110  95.152 
40.546  88.016  94.650 
40.014  87.400  94.920 
39.748  87.808  94.844 
38.575  86.757  95.056 
37.231  86.037  95.460 
36.836  84.654  95.989 
37.306  84.673  96.732 
36.373  84.952  95.292 
35.206  79.669  97.250 
35.309  83.372  95.707 
35.540  82.962  96.653 
32.229  81.299  93.815 
33.877  80.003  96.097 
31.829  80.052  93.780 
33.093  79.144  95.398 
31.625  78.534  95.253 
31.036  77.593  94.732 
30.806  77.385  95.153 
30.701  75.162  95.918 
30.730  76.119  95.016 
30.188  74.461  95.913 
30.067  74.112  95.187 
30.244  73.897  95.930 
30.373  72.423  96.167 
30.347  71.913  95.877 
29.062  72.079  95.744 
28.786  70.929  94.898 
28.782  70.100  95.482 
30.118  69.186  96.159 
29.616  67.940  96.262 
28.638  67.592  96.253 
29.209  66.778  97.059 
28.514  66.027  96.851 
28.637  65.157  96.863 
27.670  64.695  96.084 
26.375  64.053  94.796 
26.588  63.413  95.204 
27.554  61.048  95.458 
27.965  62.258  95.756 
27.148  61.307  95.258 
27.985  59.471  96.007 
26.616  58.736  94.576 
26.341  58.910  95.320 
26.256  57.286  94.728 
27.252  56.178  95.747 
27.450  56.648  95.704 
27.841  55.868  96.111 
27.480  55.162  95.600 
28.256  55.033  96.113 
27.651  53.665  95.074 
27.579  52.756  95.523 
26.712  52.455  94.945 
27.262  51.323  95.166 
26.421  50.005  94.804 
26.781  48.422  94.649 
29.019  47.381  96.403 
24.725  47.973  92.569 
27.258  48.246  95.002 
28.587  46.901  95.556 
28.197  48.258  95.306 
29.416  44.829  95.197 
30.467  45.803  96.111 
29.625  43.370  95.168 
31.372  41.518  95.953 
31.693  42.197  96.494 
32.198  41.708  96.693 
30.997  41.107  94.781 
32.101  39.559  95.731 
32.984  39.139  95.318 
32.997  38.720  95.594 
34.150  38.225  95.228 
35.446  38.199  96.517 
34.133  37.893  95.870 
35.017  37.061  96.027 
35.850  36.808  95.754 
36.659  35.657  95.894 
36.922  35.827  96.561 
37.969  35.603  96.895 
38.883  35.542  97.125 
37.641  34.128  95.526 
39.132  32.431  95.592 
38.530  32.150  94.431 
43.342  29.591  95.718 
40.110  33.623  97.186 
41.507  35.215  97.968 
41.507  32.345  97.319 
40.007  29.766  94.188 
40.794  30.800  95.609 
46.872  30.200  98.201 
46.264  25.723  94.027 
48.612  30.146  97.638 
46.486  29.944  97.456 
46.854  28.100  96.570 
41.479  28.879  94.613 
46.096  30.714  97.866 
48.583  26.836  95.678 
52.066  20.659  90.542 
46.542  27.098  94.880 
48.873  25.352  94.938 
43.128  29.030  94.922 
51.054  23.018  93.089 
46.446  25.556  93.383 
47.673  30.264  98.541 
51.272  26.818  96.414 
54.929  23.489  94.159 
51.834  25.101  94.982 
53.944  25.616  95.616 
57.643  25.009  96.139 
56.113  21.070  91.820 
59.451  22.145  92.403 
56.313  27.304  97.108 
57.525  21.765  92.463 
53.484  26.121  96.134 
56.909  24.612  95.367 
64.846  25.490  95.190 
61.795  26.487  97.116 
58.713  24.140  94.216 
67.908  23.990  92.674 
66.455  25.158  94.158 
65.295  23.662  93.409 
53.755  26.325  96.809 
66.296  26.227  95.326 
67.195  24.973  93.862 
67.109  25.679  94.302 
69.453  26.430  93.942 
68.215  25.665  93.573 
69.999  25.774  94.061 
70.590  26.233  94.284 
70.817  26.358  94.745 
71.619  26.165  94.440 
73.455  26.884  93.989 
73.786  25.847  93.138 
74.641  27.594  93.922 
74.951  27.430  94.434 
75.716  28.223  94.666 
75.746  29.159  95.467 
76.444  28.214  94.344 
77.320  28.870  94.299 
79.565  30.619  94.442 
77.911  29.381  93.889 
78.557  29.329  94.140 
80.769  31.890  94.639 
83.769  30.967  91.350 
82.825  29.245  91.226 
79.747  33.880  96.955 
82.978  37.330  97.471 
82.682  35.713  96.579 
82.309  38.470  97.702 
83.141  35.969  96.086 
87.981  35.043  92.103 
88.560  38.421  92.776 
89.474  38.901  91.830 
86.741  37.411  94.503 
85.763  39.565  95.574 
86.712  39.274  94.078 
90.614  37.065  90.923 
85.440  42.011  97.614 
87.244  40.894  95.195 
89.997  43.969  94.357 
87.581  41.282  95.162 
89.267  43.179  94.840 
90.974  43.753  94.003 
88.099  38.733  93.035 
92.834  45.628  93.630 
94.208  47.710  92.738 
95.242  41.855  89.731 
93.422  46.309  93.494 
93.277  41.265  91.033 
95.773  49.068  90.115 
95.528  52.559  91.631 
94.210  50.723  92.743 
94.740  48.533  92.701 
95.555  56.069  93.517 
92.861  49.444  94.714 
94.796  52.680  93.894 
93.492  50.316  94.333 
90.013  57.689  97.711 
90.749  57.413  97.045 
93.836  56.883  95.178 
92.148  60.453  96.123 
94.611  60.641  94.263 
94.506  59.078  94.208 
95.082  58.959  94.258 
95.446  61.781  93.654 
95.246  62.755  93.520 
97.366  64.994  91.903 
96.262  64.179  92.142 
94.944  61.690  93.596 
94.918  65.591  93.146 
95.676  65.099  92.927 
94.509  65.960  94.064 
95.037  66.670  92.974 
94.589  67.701  94.469 
94.706  67.905  94.068 
94.550  68.658  94.150 
94.066  69.035  94.595 
93.770  70.488  94.680 
92.967  71.767  94.923 
93.223  71.309  94.685 
93.547  72.115  94.588 
94.356  72.076  93.873 
92.333  73.043  95.423 
90.945  75.050  96.060 
93.571  73.523  94.305 
92.310  73.546  95.470 
91.896  75.551  94.418 
92.928  77.246  92.954 
90.558  78.419  94.743 
92.328  76.918  93.712 
93.149  79.991  90.529 
91.066  79.990  92.934 
93.516  78.824  90.371 
92.174  81.268  90.399 
92.784  74.569  93.677 
85.312  81.186  96.460 
86.408  81.819  95.486 
83.888  82.431  96.690 
85.021  82.714  95.322 
84.898  83.510  95.417 
84.623  84.656  95.021 
83.197  83.523  96.306 
84.722  84.097  95.133 
83.585  86.821  94.654 
82.308  87.424  94.444 
81.537  87.556  94.771 
80.941  86.545  95.586 
81.113  88.265  94.649 
81.919  88.848  93.030 
79.317  88.296  95.352 
81.444  92.449  91.120 
78.352  88.918  95.114 
79.603  87.494  95.408 
77.698  86.654  97.599 
76.583  89.641  95.925 
76.906  91.179  94.173 
72.990  93.360  93.022 
75.624  84.207  100.495 
69.254  91.358  96.770 
75.448  92.404  93.606 
75.019  92.592  92.813 
71.036  92.499  93.995 
66.184  91.212  97.711 
68.604  92.427  95.990 
69.144  91.926  96.325 
65.850  93.924  94.357 
69.105  94.755  92.906 
67.318  93.127  95.083 
65.732  94.422  93.365 
65.020  94.974  93.152 
63.047  95.552  94.151 
64.118  96.195  91.582 
60.343  95.370  92.700 
60.163  94.970  93.435 
61.724  97.774  90.289 
59.110  97.757  90.812 
61.207  98.072  90.782 
60.631  96.738  91.392 
57.527  92.793  96.222 
55.602  93.816  95.432 
52.869  94.040  94.481 
57.540  94.350  94.683 
52.456  96.944  91.681 
55.477  92.719  96.297 
52.085  98.189  90.418 
51.679  94.959  93.056 
49.150  96.177  91.665 
51.079  96.083  92.070 
55.524  94.046  94.245 
50.081  94.063  92.929 
48.112  94.832  92.232 
47.959  93.557  93.117 
47.849  94.072  92.716 
47.480  93.289  93.023 
47.010  92.401  93.784 
46.435  92.636  93.529 
46.055  92.036  93.421 
44.767  90.938  94.619 
44.501  90.462  94.450 
44.133  90.195  94.154 
43.437  89.541  94.226 
43.398  89.745  95.221 
41.691  90.028  94.260 
42.416  88.999  95.438 
41.008  88.729  94.728 
40.199  89.091  94.382 
39.765  89.605  93.775 
39.301  88.307  94.224 
39.080  87.505  94.530 
38.973  87.014  95.210 
36.532  85.765  94.854 
38.002  85.363  96.532 
36.368  85.944  95.263 
35.406  83.787  95.258 
35.265  80.989  96.861 
33.685  81.055  94.836 
30.448  80.340  92.317 
33.574  81.739  95.064 
32.885  80.050  95.435 
31.267  81.105  92.593 
34.562  83.248  95.294 
33.590  79.791  95.475 
31.662  78.858  93.712 
30.921  78.057  94.697 
31.198  75.626  95.602 
30.373  75.588  95.566 
29.881  75.234  95.556 
29.793  74.550  95.364 
29.595  73.391  95.462 
29.604  73.520  94.948 
29.234  72.932  95.596 
29.104  72.435  95.412 
28.649  71.037  95.514 
29.108  71.833  95.111 
28.746  69.614  95.034 
29.590  69.740  95.882 
28.809  68.267  95.736 
29.196  68.224  96.253 
28.509  67.129  96.697 
27.994  65.038  95.606 
27.201  64.803  95.201 
28.081  64.190  96.541 
26.820  62.701  95.691 
27.084  61.860  95.577 
25.802  61.723  94.906 
26.281  61.102  95.091 
26.706  60.583  95.328 
26.366  61.331  95.495 
27.484  59.920  95.958 
26.004  59.497  94.409 
25.747  58.700  93.944 
27.327  56.786  95.198 
27.047  55.928  95.078 
27.227  55.419  94.875 
27.971  54.856  95.380 
26.745  54.689  94.853 
26.721  54.048  95.126 
27.364  52.922  94.821 
26.563  52.418  94.435 
26.234  51.333  94.361 
27.870  49.484  95.686 
26.352  49.618  94.437 
27.431  44.838  93.106 
25.603  48.283  93.797 
26.275  46.463  93.363 
26.632  45.946  93.810 
29.641  46.069  95.533 
27.264  44.875  93.958 
30.573  46.136  97.271 
29.300  43.847  94.911 
30.054  43.479  94.987 
30.978  42.176  95.447 
32.023  41.008  96.164 
32.043  39.712  94.675 
31.281  39.481  94.775 
31.038  38.786  93.919 
32.876  39.436  96.053 
32.331  38.728  95.023 
34.267  37.267  94.953 
34.175  36.669  95.165 
34.759  36.146  95.279 
34.729  36.731  95.738 
36.067  35.975  96.159 
36.502  34.974  95.747 
37.222  35.126  96.395 
37.531  33.325  95.138 
38.800  33.284  95.511 
39.147  26.302  90.556 
37.838  29.861  92.821 
38.299  32.999  95.537 
38.714  30.532  93.762 
40.053  31.550  95.610 
39.678  30.731  94.126 
41.407  31.720  96.686 
43.602  27.533  94.778 
44.243  33.393  99.194 
45.424  28.418  96.177 
46.941  28.587  96.708 
45.397  29.678  96.859 
41.370  28.341  94.437 
50.279  23.702  93.870 
47.717  28.890  96.653 
39.070  27.085  91.104 
48.843  22.978  92.103 
46.151  24.138  92.375 
46.802  22.440  90.320 
52.197  25.808  95.686 
56.027  24.627  94.443 
46.656  28.962  97.354 
47.872  23.562  92.900 
49.670  22.989  92.274 
49.335  23.499  93.618 
54.543  22.385  92.728 
56.876  22.055  92.630 
56.696  23.225  94.013 
56.281  23.236  93.573 
60.878  28.502  98.927 
58.000  28.299  99.002 
52.469  27.369  96.484 
62.697  27.418  97.690 
59.684  21.103  91.533 
58.186  20.777  91.137 
54.902  25.071  95.916 
59.272  21.644  92.276 
61.728  23.274  93.435 
67.354  23.391  92.645 
63.821  25.397  96.058 
64.863  24.550  93.524 
62.499  24.062  94.874 
64.374  22.680  92.419 
61.201  24.561  94.464 
68.024  24.757  93.322 
69.027  26.177  93.822 
70.232  25.274  92.735 
69.713  25.563  93.685 
71.517  26.214  93.730 
71.569  25.609  93.810 
72.839  26.794  93.634 
72.231  26.433  94.247 
74.700  26.680  93.712 
75.304  27.571  93.688 
75.594  27.391  93.327 
74.986  28.200  94.599 
77.209  28.141  94.105 
78.083  27.633  92.653 
77.607  28.396  93.732 
78.377  28.764  93.363 
78.926  30.016  94.513 
80.039  29.109  93.280 
80.192  29.917  93.835 
83.122  33.055  94.792 
80.869  32.718  95.631 
84.918  32.810  91.707 
84.017  33.931  94.187 
83.026  35.031  95.396 
84.035  36.786  96.164 
85.075  33.764  92.851 
84.292  33.647  93.748 
90.893  40.697  92.986 
88.974  34.949  90.775 
88.982  37.963  91.870 
86.253  35.544  93.901 
85.294  35.512  94.536 
84.403  36.325  95.581 
87.558  39.282  94.402 
85.720  39.571  96.355 
86.933  39.088  94.820 
92.085  45.293  93.782 
90.053  37.334  91.534 
88.442  43.621  95.875 
87.784  38.538  94.030 
94.086  46.438  92.065 
88.524  38.535  93.278 
92.956  43.400  91.771 
90.946  42.994  93.561 
95.892  46.899  90.050 
93.916  48.775  93.729 
93.317  48.007  93.979 
93.839  47.337  92.587 
92.305  47.823  94.231 
95.797  55.307  93.241 
94.208  51.916  94.171 
92.085  51.669  94.801 
95.810  56.572  92.985 
93.728  57.583  94.804 
92.908  54.147  95.664 
96.423  60.100  93.582 
94.088  55.603  94.212 
97.414  58.000  92.686 
95.907  62.666  93.730 
95.492  60.927  93.815 
94.401  59.925  94.479 
93.758  58.940  94.652 
97.041  66.246  91.375 
97.463  63.353  91.839 
95.381  63.498  93.932 
97.871  61.875  92.289 
95.215  64.882  93.612 
95.855  66.665  92.462 
95.458  66.320  93.038 
95.293  67.469  93.210 
94.444  67.627  93.150 
95.111  68.541  93.604 
94.090  69.538  93.501 
94.495  70.266  93.634 
94.340  69.945  94.319 
93.738  71.403  94.375 
93.813  72.090  93.787 
94.490  73.755  92.285 
94.180  74.655  93.370 
93.499  74.426  94.161 
96.253  74.437  90.818 
94.054  73.800  93.476 
87.091  77.204  97.897 
92.617  75.204  94.882 
92.707  73.809  94.247 
90.885  78.398  93.817 
87.359  79.233  96.142 
90.214  80.888  92.286 
89.848  82.007  91.032 
95.998  79.239  88.424 
87.719  79.625  96.303 
90.477  78.745  94.200 
86.962  82.432  94.090 
86.726  80.809  95.999 
86.198  83.032  94.628 
85.194  83.029  95.653 
85.354  83.354  94.683 
85.277  84.048  94.584 
84.862  84.589  94.469 
83.841  85.534  94.682 
83.334  86.040  95.007 
82.195  86.247  95.179 
76.734  87.383  97.946 
83.068  86.808  94.512 
81.586  87.249  94.261 
80.684  88.858  93.211 
82.622  88.896  92.271 
81.285  93.141  90.579 
77.548  89.054  96.414 
76.210  92.166  93.660 
78.786  87.328  96.023 
77.190  86.117  97.928 
78.785  90.128  93.568 
74.644  90.174  96.471 
75.537  91.349  94.479 
78.156  92.669  91.856 
73.271  92.613  93.985 
70.784  93.757  93.780 
70.328  92.259  94.686 
70.217  94.640  92.492 
74.863  92.144  94.226 
68.972  94.185  93.644 
70.441  94.201  93.083 
65.195  95.101  93.704 
66.002  95.017  93.389 
66.481  94.824  92.840 
63.136  94.968  94.162 
67.364  95.055  93.240 
63.674  95.208  93.438 
61.542  95.777  93.111 
61.779  95.216  93.417 
63.457  95.443  92.497 
56.243  95.501  93.067 
57.644  96.983  91.852 
51.968  101.383  86.883 
58.038  94.432  94.863 
59.749  97.955  90.563 
57.550  94.416  93.918 
54.273  95.007  93.158 
51.375  97.756  90.544 
54.969  98.954  89.272 
52.644  100.668  87.685 
51.716  97.752  91.086 
51.435  95.848  92.773 
49.499  97.399  89.786 
50.114  96.273  91.725 
48.238  95.880  91.438 
48.732  94.259  91.985 
47.376  94.463  91.930 
47.397  96.087  90.748 
46.439  93.750  92.169 
46.081  93.574  92.538 
46.722  93.273  92.955 
46.002  92.909  93.125 
45.471  91.466  93.857 
45.242  92.319  93.354 
43.851  90.695  93.421 
43.209  90.355  94.019 
42.617  90.047  94.379 
42.125  89.555  94.870 
41.450  90.394  93.776 
41.479  89.428  94.411 
39.169  88.480  93.166 
38.733  89.251  93.161 
40.140  88.734  93.944 
38.576  87.964  93.938 
37.662  87.077  94.560 
37.936  86.525  95.219 
35.782  85.552  94.668 
36.351  86.084  93.919 
36.193  85.462  94.239 
36.835  85.297  95.491 
34.805  85.020  94.050 
35.695  82.499  96.658 
35.057  84.332  94.543 
31.340  82.415  92.841 
34.644  83.663  94.981 
29.928  82.411  91.579 
31.870  80.950  94.029 
31.177  79.510  93.725 
32.087  78.517  94.943 
30.223  77.698  94.050 
29.944  76.608  94.562 
30.666  76.952  94.181 
29.602  75.607  95.195 
29.072  74.946  93.867 
29.379  74.717  95.088 
28.979  74.965  94.718 
28.459  73.586  94.642 
28.719  72.986  94.900 
28.536  71.756  95.202 
28.701  71.249  94.534 
28.642  70.422  94.748 
27.769  69.556  94.780 
28.427  69.191  95.517 
28.307  68.363  95.516 
27.471  65.511  96.326 
27.659  66.163  95.903 
27.174  65.390  95.804 
26.851  65.467  94.856 
26.727  64.621  95.384 
25.684  62.964  94.383 
26.193  62.185  95.386 
25.278  62.024  94.363 
25.627  61.067  94.528 
24.763  60.886  94.047 
25.545  60.217  94.333 
26.931  60.644  95.765 
25.437  59.788  94.735 
25.433  58.120  94.491 
26.182  58.210  94.932 
25.759  56.440  94.384 
26.741  55.472  95.111 
26.096  55.165  94.488 
26.317  53.911  94.516 
26.765  53.251  94.163 
26.376  53.173  94.837 
26.447  52.064  94.824 
25.913  50.572  94.299 
26.387  50.798  94.282 
25.698  49.221  94.069 
25.982  47.855  93.253 
27.880  49.505  95.203 
27.933  45.197  94.372 
27.663  46.657  94.333 
28.781  45.473  94.637 
28.246  44.508  94.667 
29.163  43.668  94.355 
29.708  44.148  95.850 
30.084  42.043  94.928 
30.867  41.731  95.382 
31.633  41.613  95.085 
31.740  38.905  94.809 
31.624  40.280  95.706 
32.226  39.196  95.405 
31.864  38.824  94.296 
33.159  37.970  95.076 
33.615  37.492  95.196 
33.944  35.977  94.565 
34.719  35.722  95.059 
35.454  36.097  95.509 
35.670  35.147  95.479 
36.800  33.831  95.408 
37.019  34.406  95.900 
38.049  34.407  96.605 
38.002  33.637  95.725 
37.698  32.604  94.576 
38.340  32.638  95.181 
45.250  30.699  96.776 
38.293  29.141  92.797 
41.948  32.792  97.581 
42.794  30.671  97.072 
39.321  31.790  95.081 
41.566  29.533  94.859 
40.542  27.136  92.833 
38.690  29.558  92.712 
42.791  27.657  94.432 
47.565  25.348  94.210 
52.047  29.549  98.389 
47.321  24.763  93.774 
46.086  27.049  95.237 
46.156  26.389  93.871 
51.588  21.280  90.264 
43.489  26.584  94.248 
52.069  25.634  94.783 
52.733  21.639  90.958 
45.951  23.473  91.424 
48.839  21.115  90.292 
49.424  25.251  94.717 
52.839  25.219  95.559 
51.580  24.679  94.024 
50.964  22.589  92.204 
51.514  21.791  91.570 
52.039  23.706  93.725 
56.070  25.918  96.483 
58.576  24.387  95.077 
58.279  22.239  92.593 
57.208  25.247  95.934 
59.176  21.045  91.388 
62.454  22.655  92.797 
57.031  26.177  96.959 
57.393  26.008  96.292 
60.896  23.923  93.744 
58.675  27.376  97.612 
58.981  26.696  97.111 
67.938  22.865  92.027 
66.638  24.326  93.192 
61.938  24.126  94.432 
69.757  24.593  92.617 
65.312  25.276  94.554 
68.068  25.290  93.915 
70.689  23.832  91.874 
68.409  23.985  92.869 
71.249  25.124  92.927 
70.781  25.410  93.515 
70.894  25.769  94.097 
72.817  26.273  93.155 
73.031  26.043  93.656 
74.248  26.526  93.610 
74.529  25.776  92.328 
77.017  26.730  92.344 
75.514  27.754  94.429 
76.322  28.660  95.035 
75.985  27.348  93.973 
78.409  28.597  93.831 
79.026  30.236  94.010 
79.175  29.454  93.482 
79.459  28.120  92.996 
80.664  30.669  93.647 
82.117  30.093  92.607 
82.365  28.701  91.908 
80.952  31.329  94.035 
83.483  33.773  94.751 
82.915  31.337  92.793 
83.076  34.026  95.302 
83.823  31.762  92.676 
85.864  34.934  92.773 
85.717  37.758  94.457 
87.479  37.639  93.726 
86.417  36.674  94.406 
84.420  33.312  92.486 
84.864  40.160  96.997 
85.738  37.556  95.338 
86.975  38.565  94.456 
85.980  38.830  95.069 
87.231  35.544  93.152 
86.646  37.939  94.033 
89.254  43.153  94.329 
93.360  45.186  93.117 
88.481  43.123  95.036 
92.673  45.077  93.606 
89.256  41.136  93.882 
94.569  44.253  91.730 
93.034  42.262  92.198 
95.960  46.389  89.421 
93.597  46.526  93.028 
95.510  47.532  90.019 
95.450  47.878  90.822 
95.845  51.285  91.202 
95.260  50.278  91.281 
94.890  51.211  92.832 
95.288  52.470  92.816 
96.115  52.063  91.073 
96.106  52.524  90.826 
95.595  49.523  91.047 
93.463  52.191  95.004 
92.784  58.453  95.221 
94.818  57.861  93.602 
93.847  52.901  94.338 
98.111  58.696  90.550 
96.446  62.577  92.868 
96.031  57.324  93.745 
96.868  62.725  92.409 
97.745  64.098  91.479 
99.985  64.541  87.839 
97.490  61.458  91.869 
97.237  63.879  92.080 
96.048  64.426  92.810 
96.294  64.714  92.468 
95.770  65.786  92.309 
95.241  67.441  92.742 
94.960  68.065  93.510 
95.512  68.976  92.858 
94.918  69.094  93.432 
94.628  70.214  92.934 
94.248  71.348  94.126 
94.671  71.862  93.374 
95.136  71.261  93.069 
92.221  76.767  93.202 
93.941  77.312  91.526 
94.515  80.032  89.038 
93.825  80.458  90.001 
93.127  75.977  93.656 
94.229  74.662  92.356 
94.863  77.242  90.897 
93.689  76.346  92.457 
89.361  75.511  97.033 
96.097  77.475  89.934 
91.471  80.522  92.151 
89.192  78.505  95.964 
89.683  81.404  92.572 
89.163  79.356  94.357 
89.110  75.976  97.077 
88.519  80.176  94.571 
89.044  80.881  94.057 
85.978  82.374  95.235 
86.388  84.138  93.694 
86.144  83.668  94.447 
85.539  83.881  93.631 
86.419  84.593  93.801 
84.608  85.444  94.740 
84.957  85.399  94.029 
83.941  86.460  94.282 
82.823  86.706  94.945 
83.058  87.010  93.966 
80.323  88.414  94.491 
82.240  87.719  94.087 
80.229  89.451  93.600 
80.279  90.035  93.094 
78.543  93.191  91.152 
77.934  90.353  94.875 
76.990  85.213  98.310 
76.417  92.803  92.265 
79.713  88.684  94.767 
72.408  91.785  94.702 
72.556  93.609  92.617 
73.005  95.274  91.055 
74.980  95.621  89.558 
73.063  94.607  91.572 
73.768  95.106  91.034 
71.668  93.650  92.746 
75.628  93.546  91.457 
68.333  94.863  92.349 
68.090  94.595  93.443 
67.498  95.503  92.752 
69.367  92.962  94.939 
67.911  95.333  92.856 
66.161  95.713  92.955 
65.383  95.521  92.822 
66.754  93.859  94.480 
64.567  97.403  91.588 
64.819  95.513  92.597 
64.457  95.521  93.181 
63.202  97.643  90.797 
62.523  97.246  91.268 
60.329  100.685  86.767 
60.288  99.679  88.481 
57.126  98.859  90.111 
58.831  92.987  96.708 
57.525  93.888  95.368 
55.132  94.789  93.892 
59.432  93.265  96.110 
51.963  99.277  89.754 
54.505  97.594  91.400 
52.866  99.405  90.095 
50.102  95.443  92.103 
47.476  96.565  89.890 
49.209  96.811  90.973 
50.283  94.746  92.477 
46.333  96.217  90.141 
47.512  95.336  91.754 
48.157  96.028  90.601 
46.910  95.133  91.257 
46.975  94.239  92.143 
45.439  93.059  92.934 
44.974  92.508  92.606 
44.482  92.377  92.913 
44.588  91.110  93.830 
43.994  91.022  94.053 
43.220  91.115  93.670 
41.433  91.390  92.790 
41.883  90.413  93.304 
42.209  90.210  94.148 
41.299  89.370  93.635 
38.887  89.585  92.799 
39.436  89.918  93.061 
39.876  89.216  93.180 
38.636  88.620  93.475 
38.267  87.937  93.032 
37.693  87.301  93.522 
37.570  86.694  94.171 
36.621  86.887  93.651 
35.527  85.980  93.909 
34.115  86.053  92.691 
35.132  85.298  93.341 
33.487  84.806  93.599 
34.878  82.612  95.465 
34.373  82.805  95.532 
32.951  81.565  93.858 
29.120  82.639  91.187 
32.558  83.288  93.323 
31.786  80.724  93.310 
29.949  81.059  92.075 
30.594  79.067  93.194 
30.844  78.441  93.737 
30.716  76.546  94.788 
30.026  75.804  94.092 
29.293  75.619  94.440 
27.962  74.673  93.891 
28.684  74.436  94.394 
27.709  73.802  93.675 
28.392  72.645  94.735 
27.846  73.006  94.306 
27.903  72.132  94.640 
27.298  70.823  94.545 
27.957  71.072  94.847 
27.977  70.041  95.097 
27.234  68.294  95.143 
29.053  69.082  95.638 
27.771  67.653  95.490 
27.580  66.925  95.814 
26.531  65.552  95.151 
25.999  64.928  94.810 
26.341  64.389  95.175 
25.729  63.725  94.813 
25.672  62.313  94.109 
25.267  60.879  93.913 
26.015  61.433  94.330 
24.108  60.478  93.424 
24.689  60.465  93.237 
24.970  60.041  94.184 
24.682  59.623  93.497 
25.102  58.292  94.157 
26.099  56.871  94.546 
26.636  56.429  94.894 
26.023  55.564  93.764 
26.134  54.341  94.325 
25.859  54.346  93.544 
25.237  53.842  93.626 
25.310  52.758  93.565 
25.937  52.608  94.291 
25.889  51.756  94.369 
25.712  51.015  93.571 
25.544  49.958  93.327 
26.585  49.024  93.991 
25.625  43.533  91.589 
26.995  45.287  93.803 
28.544  43.457  93.514 
28.574  46.577  94.857 
28.509  45.749  95.027 
27.768  43.499  93.340 
28.639  43.814  94.238 
29.688  42.335  94.162 
28.166  41.727  93.227 
30.729  39.966  94.439 
31.359  40.219  94.590 
30.976  38.883  93.052 
30.474  38.849  93.075 
32.127  38.024  94.111 
32.641  38.556  94.648 
33.270  37.341  94.391 
33.581  36.688  94.470 
34.221  35.383  94.489 
34.821  34.916  94.803 
35.472  35.598  95.076 
35.577  34.515  95.044 
36.236  34.490  95.548 
37.433  34.284  96.114 
37.959  32.988  94.537 
37.145  33.463  94.633 
38.410  31.042  93.124 
37.904  32.032  93.955 
40.005  30.793  95.056 
39.077  30.956  94.641 
42.725  27.218  93.840 
43.813  31.063  96.972 
47.094  27.706  95.912 
42.413  34.185  98.346 
45.898  31.346  98.514 
41.718  28.142  94.050 
40.560  25.621  90.796 
41.957  25.546  92.122 
48.548  27.910  96.235 
40.173  27.088  92.065 
45.495  23.908  91.991 
45.412  27.375  94.845 
52.688  25.108  94.670 
44.079  23.640  91.348 
45.235  24.651  92.266 
48.201  23.208  92.295 
44.587  27.418  94.869 
47.757  23.047  91.432 
49.895  22.990  93.069 
45.741  24.115  92.813 
48.571  22.794  91.452 
55.330  21.877  91.851 
56.579  22.334  93.121 
47.778  24.163  93.408 
52.902  22.358  91.913 
57.680  22.484  92.911 
58.756  22.151  91.942 
57.334  24.388  94.425 
55.033  23.365  93.503 
60.463  20.906  91.706 
59.956  20.527  90.516 
55.995  22.811  93.102 
61.836  21.345  90.756 
59.819  23.102  93.639 
53.166  28.508  98.103 
62.587  23.238  93.552 
66.734  23.019  92.524 
66.160  24.701  92.915 
69.594  22.793  90.938 
69.716  25.006  93.179 
67.927  24.958  92.856 
70.181  23.774  91.662 
68.952  25.227  93.583 
68.941  24.537  92.245 
71.492  25.356  92.431 
70.754  24.344  92.241 
72.179  24.793  92.333 
71.997  26.226  93.208 
73.232  25.595  92.788 
76.776  27.623  92.826 
76.173  26.912  92.778 
75.264  26.989  93.272 
77.641  26.779  91.741 
77.865  26.910  92.483 
78.775  27.917  92.446 
79.187  28.608  93.176 
77.740  27.769  93.069 
80.199  31.135  94.299 
81.223  30.844  93.567 
79.980  29.614  93.202 
81.607  31.729  94.391 
83.876  32.239  93.009 
84.551  33.623  93.270 
81.020  32.216  94.961 
82.378  32.777  94.788 
82.996  32.971  94.258 
86.738  33.402  91.358 
86.376  33.446  91.758 
86.638  36.224  93.615 
86.656  34.713  91.925 
85.724  36.411  94.316 
86.615  34.387  92.673 
87.516  36.303  92.955 
86.828  39.759  95.529 
84.959  35.822  95.837 
91.870  41.683  92.345 
89.974  38.145  91.849 
91.886  40.439  92.265 
90.198  43.448  93.813 
90.402  44.243  94.466 
96.126  47.327  89.494 
90.228  44.733  93.742 
93.401  39.728  89.638 
95.490  46.131  89.394 
94.391  42.379  90.457 
94.531  46.055  92.116 
96.635  45.601  88.128 
93.502  48.638  93.858 
93.209  49.358  93.696 
91.447  47.074  94.666 
94.872  49.466  92.683 
93.726  48.680  92.881 
93.349  53.063  94.513 
95.658  51.776  91.805 
92.460  54.241  95.418 
91.951  53.327  96.234 
95.800  53.717  92.147 
96.017  58.739  93.493 
97.044  60.631  92.061 
95.570  55.964  92.724 
96.352  56.817  93.326 
93.816  58.285  94.298 
96.710  63.500  92.775 
95.711  60.358  93.966 
97.926  64.432  90.442 
96.058  62.205  93.322 
101.932  66.493  84.752 
96.174  61.372  93.226 
98.839  62.392  90.498 
96.258  65.486  92.375 
96.829  64.980  92.291 
96.077  67.131  92.550 
95.782  67.552  92.463 
95.962  68.128  92.750 
95.241  69.746  93.046 
94.658  69.789  93.718 
94.526  71.148  93.586 
95.371  72.266  92.719 
94.735  72.221  92.699 
93.580  75.251  93.156 
96.187  71.039  92.143 
94.599  74.299  93.017 
97.632  71.143  89.625 
88.301  75.907  98.041 
89.857  75.932  96.000 
91.467  77.696  94.209 
93.046  76.764  93.146 
91.958  75.398  95.401 
89.313  78.733  95.114 
89.914  80.023  93.545 
91.355  78.857  93.030 
88.848  81.343  93.246 
89.536  80.955  92.775 
92.230  81.363  90.913 
89.073  81.731  93.023 
87.979  82.091  93.560 
88.225  81.126  94.514 
87.161  81.626  94.060 
86.860  83.841  93.864 
87.115  84.247  93.471 
85.551  84.291  93.966 
85.209  84.940  94.192 
85.566  85.345  93.415 
84.562  86.019  93.904 
84.174  86.380  93.474 
83.979  86.861  94.012 
83.771  87.443  93.990 
83.567  87.671  93.119 
81.860  88.117  94.221 
83.735  89.216  91.945 
79.179  91.350  93.408 
78.757  90.760  93.720 
80.487  90.827  92.783 
77.153  90.611  94.673 
74.389  92.978  92.609 
73.775  94.571  91.243 
73.526  92.718  93.111 
73.800  92.014  93.341 
74.885  94.142  91.274 
74.507  94.472  91.256 
72.995  96.295  90.205 
72.546  95.086  91.763 
71.302  94.467  92.787 
71.193  93.259  93.741 
73.817  93.069  93.218 
69.331  94.756  92.335 
68.573  94.563  93.476 
68.436  95.796  92.350 
66.964  95.869  92.981 
66.102  95.960  92.450 
65.706  96.177  92.610 
64.843  96.101  92.514 
65.297  96.745  92.112 
64.432  96.692  92.201 
63.121  95.834  93.225 
64.060  97.288  91.422 
58.357  97.840  90.971 
53.056  95.867  92.842 
53.773  98.071  91.165 
59.383  98.982  89.571 
53.641  96.653  92.185 
53.353  99.770  88.912 
54.889  100.200  88.750 
54.443  96.882  91.917 
55.235  96.804  92.279 
51.832  98.579  90.246 
52.401  100.823  87.200 
49.248  97.281  90.418 
50.586  99.505  89.179 
48.280  97.692  90.245 
51.406  95.577  92.357 
49.275  95.978  91.246 
48.599  96.467  90.274 
46.707  94.358  91.223 
47.512  93.866  92.278 
46.873  94.821  91.763 
46.062  94.327  91.950 
46.127  93.770  91.764 
44.944  93.029  92.561 
44.307  91.563  93.143 
43.637  91.876  92.533 
41.831  90.942  93.178 
42.281  90.375  93.584 
40.964  91.581  92.447 
40.717  89.906  94.055 
40.719  89.496  93.761 
40.144  90.017  93.524 
38.145  89.690  92.178 
38.955  90.265  92.139 
38.152  88.929  92.755 
38.383  87.384  94.228 
37.052  88.617  92.946 
36.714  86.833  94.244 
37.090  87.589  93.736 
35.706  86.555  93.420 
34.705  86.467  92.438 
34.514  85.741  93.615 
34.236  83.926  94.196 
34.390  84.660  93.728 
32.777  84.510  92.949 
36.023  84.681  95.649 
33.075  84.176  93.150 
33.126  83.224  94.042 
31.587  79.337  94.381 
30.969  79.437  92.564 
30.917  80.321  93.149 
30.592  78.016  93.903 
29.764  77.240  93.909 
28.647  76.803  93.150 
28.701  75.516  94.005 
28.181  75.053  93.573 
27.508  75.136  93.387 
27.042  74.745  92.884 
28.736  73.477  93.886 
27.247  72.665  93.922 
27.950  71.625  94.026 
27.348  71.600  94.292 
27.063  71.235  94.124 
27.928  70.271  94.422 
27.631  69.046  95.325 
27.142  66.905  95.478 
27.082  68.508  94.665 
27.981  66.932  95.520 
27.473  66.238  95.156 
26.867  66.263  94.860 
26.185  65.368  94.137 
25.623  64.587  94.299 
25.023  63.798  94.114 
25.036  62.844  93.827 
24.647  62.054  93.624 
25.150  61.633  94.133 
24.236  61.273  93.238 
25.035  59.187  94.072 
25.832  58.912  94.608 
24.813  58.819  93.577 
25.843  57.656  94.185 
24.915  56.835  93.612 
25.414  56.404  93.704 
24.762  55.966  93.681 
25.807  55.101  93.998 
25.188  54.662  93.656 
25.927  53.486  93.687 
25.569  52.185  93.385 
25.289  52.226  93.960 
25.182  50.587  93.683 
25.006  50.713  93.027 
24.931  49.645  93.191 
26.152  47.907  94.216 
26.570  47.555  94.197 
26.453  45.685  93.169 
27.366  43.828  92.665 
25.739  44.077  91.589 
28.005  45.939  94.820 
28.386  43.142  93.975 
28.521  42.964  93.251 
28.879  42.889  94.186 
29.071  41.081  93.585 
30.575  41.964  94.371 
30.659  40.054  93.690 
31.295  39.546  93.869 
31.647  37.396  93.222 
31.347  38.720  93.465 
31.510  37.998  93.911 
33.047  37.770  94.361 
33.303  37.211  93.520 
33.973  36.274  94.145 
34.146  34.875  93.609 
34.505  34.493  94.179 
35.238  35.186  94.585 
35.394  34.364  94.442 
36.079  34.407  94.711 
36.102  32.818  94.187 
37.387  32.797  94.135 
38.277  31.115  93.616 
38.453  32.978  94.556 
38.778  27.539  91.442 
39.461  32.112  94.668 
38.620  31.691  94.586 
40.223  30.185  94.446 
40.593  32.978  96.432 
42.584  29.508  95.661 
43.531  27.682  94.228 
41.916  23.657  90.485 
44.462  28.719  95.868 
44.373  26.747  94.107 
42.118  28.591  94.763 
44.046  24.909  92.596 
48.645  26.358  95.593 
44.692  26.231  93.781 
42.883  24.106  91.435 
45.233  25.300  93.474 
45.047  23.634  91.807 
43.631  23.566  89.983 
47.695  26.618  95.352 
44.910  23.436  91.325 
53.167  21.318  91.611 
49.611  20.692  89.861 
54.584  22.964  93.466 
56.669  21.698  91.883 
53.118  22.012  92.311 
55.103  20.240  90.011 
48.626  23.508  92.940 
56.166  21.977  92.632 
50.613  23.971  93.610 
58.785  20.740  90.874 
57.026  23.582  94.563 
57.420  19.170  88.989 
64.154  24.781  95.228 
60.111  21.736  92.015 
59.331  25.293  95.450 
59.042  19.581  89.435 
59.822  24.038  94.128 
64.971  23.928  93.100 
67.953  22.416  91.844 
65.964  25.112  94.101 
68.990  22.815  91.797 
63.404  25.091  95.006 
70.405  22.936  91.498 
70.631  24.714  92.979 
68.816  24.760  93.002 
65.392  19.401  88.862 
71.466  24.690  92.799 
72.697  22.441  89.514 
73.013  24.840  92.185 
72.499  25.263  92.095 
71.935  25.763  93.063 
73.380  25.272  91.635 
74.273  26.850  93.232 
74.805  24.528  91.611 
76.515  26.607  92.247 
76.721  25.648  91.909 
77.046  27.247  92.619 
78.588  27.331  92.086 
82.592  28.521  90.620 
81.289  28.703  92.315 
82.601  29.162  91.659 
79.958  27.768  92.354 
85.481  36.670  95.649 
82.702  30.828  92.709 
82.227  34.774  95.961 
82.106  30.991  93.353 
87.449  35.507  92.310 
83.697  34.620  95.329 
86.248  32.715  91.234 
82.585  33.713  94.790 
85.993  33.914  92.432 
88.183  35.480  92.164 
88.464  34.385  90.143 
87.868  34.256  91.225 
87.079  36.912  93.945 
90.281  38.718  91.506 
89.197  36.239  90.992 
88.568  39.412  92.741 
90.879  37.521  90.911 
94.218  42.498  91.532 
87.348  39.683  94.911 
88.215  41.789  94.849 
88.238  41.251  94.262 
93.937  43.864  91.882 
90.346  45.245  94.654 
93.144  47.042  94.030 
90.227  41.235  93.018 
95.704  45.216  89.410 
95.968  48.181  89.109 
94.880  45.172  90.026 
95.612  48.605  90.124 
96.120  50.021  90.258 
94.685  46.685  91.393 
94.953  48.947  91.961 
96.324  51.594  89.841 
96.534  53.781  90.724 
97.860  57.911  91.044 
95.518  51.003  91.784 
93.596  53.846  94.104 
95.558  54.746  92.896 
96.398  54.957  91.714 
92.700  57.368  95.736 
97.023  56.920  92.221 
97.256  60.202  92.505 
94.678  55.627  94.358 
96.618  59.466  93.421 
96.104  62.901  93.029 
94.566  57.051  94.621 
100.420  63.500  88.220 
97.999  63.605  90.885 
96.164  60.679  93.088 
97.877  65.923  90.925 
97.878  60.495  91.345 
98.449  63.597  89.507 
96.372  66.419  92.039 
98.795  67.866  89.769 
96.994  68.530  91.449 
96.148  67.630  92.009 
96.119  68.407  92.397 
95.440  69.972  92.611 
95.444  71.293  92.304 
95.800  71.130  91.457 
96.432  70.941  91.216 
94.364  72.774  93.332 
99.236  75.469  85.386 
95.939  73.897  90.598 
96.771  75.244  89.364 
95.139  76.700  91.614 
94.241  78.382  90.247 
94.488  76.149  92.309 
93.164  79.008  91.880 
89.887  79.220  93.741 
91.452  78.433  93.680 
93.591  80.853  89.341 
92.508  82.742  89.166 
91.953  77.594  93.839 
90.593  79.665  93.155 
91.061  78.229  94.668 
89.958  83.350  91.255 
88.509  81.699  93.798 
88.174  82.592  93.393 
88.326  82.895  92.506 
87.334  84.158  92.680 
87.206  83.357  93.611 
86.810  84.246  93.018 
86.118  84.471  93.397 
85.486  85.828  93.802 
84.932  86.005  92.866 
85.011  86.462  93.059 
84.437  86.885  93.687 
83.175  88.459  92.812 
83.183  87.840  93.400 
82.735  87.277  93.649 
83.730  88.416  92.863 
81.435  88.096  93.889 
78.440  91.592  93.623 
80.541  93.303  90.168 
82.439  92.512  89.607 
77.133  88.934  96.225 
81.128  89.048  93.754 
78.503  90.022  94.427 
75.334  89.297  96.586 
75.665  90.716  95.135 
74.129  96.664  88.636 
73.440  93.816  92.175 
72.765  95.850  90.548 
71.025  95.058  92.099 
70.915  94.605  92.446 
69.725  94.198  93.226 
69.838  96.266  91.254 
68.732  96.002  91.664 
68.343  96.273  91.904 
67.853  96.047  91.893 
67.043  95.439  92.501 
66.728  96.303  92.342 
65.661  97.170  91.628 
65.430  96.660  91.434 
63.049  97.197  91.864 
64.130  97.605  90.474 
58.489  98.212  90.374 
59.427  98.298  90.038 
63.797  96.321  92.426 
60.859  100.141  87.976 
56.517  98.367  90.853 
59.366  96.045  92.247 
56.770  101.025  87.959 
54.336  100.020  88.862 
58.048  95.213  93.841 
52.674  96.324  92.180 
55.180  99.078  89.805 
52.814  99.802  89.483 
52.530  95.029  92.337 
50.716  96.593  91.848 
45.467  96.757  89.086 
47.306  97.995  89.114 
50.724  95.497  92.752 
48.975  94.933  92.495 
47.687  95.686  91.417 
48.278  95.213  91.815 
47.689  95.414  90.991 
45.742  94.541  90.892 
44.728  92.949  91.729 
44.218  92.978  92.322 
43.820  92.352  92.717 
43.131  91.467  93.063 
42.476  91.175  93.391 
43.149  91.631  92.278 
42.438  91.686  92.773 
40.551  90.122  93.047 
39.852  90.276  92.737 
40.962  90.330  92.775 
38.304  90.468  91.467 
37.706  90.528  91.414 
37.651  89.188  92.670 
37.430  88.600  92.144 
38.018  88.390  93.214 
37.308  87.770  92.740 
36.836  87.578  92.935 
37.257  88.109  93.175 
35.996  87.105  92.958 
34.967  86.279  93.136 
33.797  85.024  93.130 
32.916  85.040  93.076 
31.895  83.425  93.123 
32.655  83.427  94.002 
33.874  82.582  94.871 
32.404  85.534  91.644 
29.570  79.490  92.067 
30.854  81.952  92.262 
30.494  79.923  93.181 
30.612  81.272  91.872 
30.136  76.802  94.022 
29.216  78.253  92.792 
28.783  78.422  92.128 
29.052  76.363  93.843 
28.318  75.819  93.344 
27.775  75.036  92.970 
27.098  75.638  92.758 
27.688  74.284  93.291 
27.862  72.966  93.619 
27.290  71.966  93.568 
26.921  71.461  93.571 
26.680  70.773  93.866 
27.186  70.111  94.305 
26.588  68.003  94.101 
27.661  69.593  93.980 
27.470  67.502  95.000 
27.926  68.684  95.042 
27.073  66.670  94.244 
26.416  66.781  94.508 
26.371  65.924  94.296 
25.600  64.535  93.758 
25.620  64.128  94.525 
25.333  63.619  93.706 
24.364  62.673  93.188 
25.224  62.308  93.090 
24.648  62.088  92.635 
24.237  62.877  92.385 
24.112  60.727  92.552 
24.507  58.265  93.656 
25.379  57.405  93.971 
24.034  57.151  93.214 
24.554  56.599  93.221 
24.380  55.786  93.028 
25.149  55.956  93.351 
24.342  53.723  93.006 
24.830  52.744  93.528 
24.618  53.253  93.123 
24.397  52.016  92.998 
24.751  51.934  93.372 
24.896  51.458  93.470 
24.605  50.494  92.707 
24.867  48.834  92.589 
24.507  46.192  92.005 
25.387  48.900  93.159 
