28.399  84.761  29.977 
26.831  87.124  33.548 
29.455  82.926  27.284 
26.463  87.418  34.070 
21.697  82.540  35.805 
18.158  74.868  37.463 
22.296  83.122  35.439 
22.309  80.368  33.580 
20.458  77.743  34.784 
20.936  76.411  33.660 
20.895  77.453  34.098 
22.812  76.596  31.294 
22.793  77.144  31.393 
21.427  78.416  33.523 
21.398  75.172  32.434 
20.181  75.181  34.387 
18.121  71.716  35.391 
21.901  75.528  31.858 
21.018  74.687  32.716 
20.872  71.349  31.663 
21.367  71.593  31.433 
19.859  71.700  33.182 
19.828  69.486  32.369 
20.714  70.483  31.274 
19.183  69.594  33.676 
19.169  68.055  32.996 
17.851  63.808  34.014 
19.109  67.315  33.129 
19.523  64.526  32.247 
18.187  65.218  33.858 
18.503  64.132  33.099 
19.131  60.868  32.255 
18.709  61.995  32.813 
18.012  64.636  33.648 
18.773  58.909  31.968 
18.975  57.458  32.885 
18.884  62.687  32.867 
19.475  57.362  31.371 
20.329  57.532  30.449 
19.160  55.699  33.132 
19.972  57.936  31.168 
19.460  56.507  31.862 
21.915  54.119  29.233 
21.391  53.246  30.199 
13.900  55.144  41.712 
18.278  49.601  35.989 
20.370  46.954  32.469 
19.833  48.128  32.568 
19.767  48.074  34.634 
22.307  44.788  31.035 
21.043  47.742  31.517 
18.994  50.235  32.804 
20.507  46.058  32.733 
21.032  47.176  32.107 
21.513  49.213  29.549 
20.666  45.420  33.262 
21.694  43.342  34.181 
21.680  44.230  32.285 
22.678  49.476  28.453 
22.799  42.543  32.337 
21.508  44.399  33.179 
23.143  40.810  32.922 
23.842  40.720  32.940 
22.860  41.684  32.833 
24.473  41.947  30.278 
24.191  40.078  31.640 
24.416  37.999  32.873 
24.636  38.159  32.484 
25.293  38.501  31.978 
27.391  34.552  32.369 
29.865  32.745  29.735 
28.410  32.884  30.898 
30.933  31.364  30.672 
29.097  33.712  30.112 
32.390  29.922  30.862 
30.168  31.963  30.311 
29.612  31.369  31.239 
29.232  31.931  30.522 
33.294  30.430  29.892 
33.271  31.401  29.054 
34.501  30.050  29.185 
34.237  29.789  30.817 
33.907  28.879  30.965 
34.643  28.854  30.605 
35.683  29.071  29.609 
36.873  26.937  31.366 
36.894  27.557  30.364 
39.257  26.366  30.623 
37.813  23.149  35.182 
38.640  24.264  32.940 
37.974  24.554  32.910 
38.289  26.094  31.144 
40.733  26.796  28.136 
40.115  26.943  29.400 
38.440  26.773  30.854 
41.299  24.297  31.455 
39.967  23.619  33.231 
40.825  24.216  31.320 
41.162  21.058  35.393 
40.251  21.777  36.556 
45.662  19.257  36.064 
45.582  19.501  35.209 
44.282  20.828  33.547 
52.559  22.794  28.450 
49.235  22.695  28.489 
43.808  24.528  28.266 
49.930  22.343  29.184 
49.580  22.660  28.831 
43.942  25.264  27.108 
53.014  18.197  33.812 
50.531  22.587  29.237 
54.637  18.374  33.509 
54.739  20.808  29.934 
54.523  18.156  33.948 
57.029  18.676  32.595 
58.666  20.175  29.883 
55.759  19.574  31.167 
61.331  19.274  32.541 
60.677  16.647  35.801 
58.285  15.302  37.510 
54.549  20.215  30.366 
51.158  21.889  29.068 
60.254  18.152  32.289 
61.838  20.012  30.012 
66.054  19.453  30.581 
60.931  20.388  29.196 
70.129  27.532  23.546 
66.140  16.959  35.479 
64.162  18.951  31.661 
70.048  21.078  30.395 
67.538  21.496  28.497 
71.998  20.166  33.498 
68.975  20.336  30.855 
63.260  20.467  29.631 
72.085  21.245  30.794 
67.204  22.374  28.083 
73.214  20.255  32.294 
75.273  21.025  32.836 
75.267  25.990  26.636 
78.482  26.753  28.084 
81.625  27.450  29.116 
80.062  25.427  29.793 
80.625  23.019  33.231 
81.360  30.443  26.605 
82.536  22.093  37.310 
77.512  26.986  26.661 
78.071  27.197  27.365 
81.073  24.658  31.628 
83.633  27.983  29.883 
88.211  32.072  29.925 
84.091  28.630  29.285 
83.836  26.997  30.960 
88.319  30.029  31.407 
82.721  26.301  31.515 
87.434  36.363  26.364 
92.231  38.887  29.101 
91.346  35.569  32.641 
87.535  35.695  26.823 
84.770  36.610  24.028 
89.532  30.773  31.985 
92.052  39.413  28.592 
91.054  36.113  30.315 
94.937  42.582  31.107 
87.760  38.035  25.560 
93.658  39.758  31.201 
94.134  44.975  28.446 
90.929  42.110  27.216 
91.329  36.194  31.040 
91.906  40.682  27.872 
92.194  41.352  29.347 
93.273  41.628  29.317 
94.827  41.644  31.372 
96.268  45.177  31.672 
92.696  45.693  26.854 
94.502  48.892  26.767 
94.933  43.508  30.991 
92.072  48.233  24.835 
96.832  46.772  30.579 
95.042  45.104  30.712 
94.054  46.675  27.783 
96.194  48.368  28.712 
93.765  49.054  26.956 
94.100  47.844  26.789 
97.294  50.264  30.428 
96.529  49.218  28.913 
98.951  54.034  30.446 
99.385  53.930  32.430 
98.733  51.914  31.411 
97.530  51.036  29.050 
96.002  51.183  26.693 
100.116  55.803  31.414 
97.578  55.066  28.002 
100.511  54.944  33.528 
100.878  56.505  32.600 
97.823  53.920  28.415 
97.707  56.322  28.312 
101.190  60.640  32.318 
101.320  55.876  34.774 
102.564  57.998  36.837 
102.515  63.401  36.180 
100.964  65.137  33.159 
99.549  63.250  31.290 
98.523  61.061  29.487 
97.034  64.009  28.021 
98.914  64.051  30.094 
97.801  67.511  30.497 
98.107  66.944  31.041 
99.344  68.424  31.909 
98.603  68.729  31.365 
97.941  70.295  31.550 
97.405  70.935  30.955 
96.826  71.106  30.343 
96.218  72.137  29.784 
95.451  72.456  29.635 
95.593  73.060  29.691 
95.526  73.454  29.188 
95.858  74.975  29.956 
94.588  74.308  29.116 
96.171  76.836  31.467 
96.564  79.200  33.390 
96.500  77.679  32.935 
96.385  78.792  32.771 
93.298  75.704  28.383 
89.483  84.652  28.070 
91.175  87.177  33.723 
90.122  83.292  28.390 
95.350  78.354  31.828 
90.325  85.562  30.055 
90.835  82.069  28.869 
84.802  86.820  27.160 
90.473  83.960  29.190 
89.061  83.509  27.622 
86.938  84.160  26.262 
91.769  80.910  29.058 
91.420  84.779  31.093 
91.905  82.735  29.850 
85.293  87.453  27.478 
88.240  85.529  28.088 
89.560  88.044  33.472 
87.982  86.673  29.312 
87.316  87.582  30.616 
86.061  89.752  31.880 
84.480  89.397  30.022 
83.173  90.950  30.720 
83.032  91.390  30.509 
83.950  91.273  31.288 
79.167  92.634  29.114 
80.616  92.304  30.240 
80.103  93.856  31.984 
79.150  93.277  30.294 
80.460  93.415  30.814 
76.020  95.274  29.984 
75.710  100.018  35.863 
79.201  96.531  34.170 
68.728  97.281  28.429 
77.170  97.677  33.688 
78.000  92.984  27.946 
74.217  100.371  35.364 
73.148  97.542  30.594 
72.171  94.179  25.932 
77.481  92.111  26.818 
72.768  98.177  30.934 
71.759  100.672  33.884 
73.029  100.451  34.191 
69.602  99.988  32.424 
71.426  99.578  33.467 
71.025  101.559  35.287 
60.690  98.825  27.544 
63.291  100.600  31.719 
70.480  99.433  32.315 
66.814  96.958  27.797 
59.948  100.443  29.581 
62.929  101.268  31.596 
62.519  100.311  30.343 
62.090  101.556  33.755 
65.137  102.217  34.342 
61.759  100.811  31.693 
62.817  98.894  29.485 
58.673  100.808  32.399 
55.871  99.948  31.346 
58.055  100.279  30.366 
51.450  99.010  30.299 
54.797  100.466  30.707 
53.551  100.920  31.965 
54.973  99.537  29.461 
51.671  97.306  27.029 
51.393  99.533  31.870 
53.435  100.353  30.359 
51.368  100.495  32.545 
49.876  100.258  31.859 
48.231  100.696  33.494 
42.566  98.370  31.814 
49.985  99.658  31.882 
50.718  99.636  31.208 
49.547  97.739  28.777 
48.045  100.263  32.806 
45.417  98.695  30.525 
41.468  97.429  31.515 
41.089  95.562  31.124 
44.386  100.160  34.478 
46.808  97.449  28.377 
40.850  97.254  32.236 
42.041  98.414  32.767 
39.164  94.687  31.796 
38.451  96.087  33.221 
39.317  96.447  33.102 
36.620  94.246  32.593 
37.247  94.435  31.946 
36.162  93.591  32.784 
35.366  93.153  33.380 
34.490  91.932  32.609 
33.575  91.826  32.682 
34.532  91.469  31.363 
32.853  90.248  31.533 
32.725  91.317  33.531 
32.447  90.814  32.307 
30.878  89.496  32.569 
30.700  88.827  32.393 
30.951  89.312  31.726 
27.532  88.252  34.098 
30.684  87.891  31.557 
31.272  88.266  30.747 
29.933  86.753  30.407 
30.767  86.652  29.376 
26.473  86.326  33.232 
30.279  88.283  32.144 
27.141  85.128  31.528 
26.111  84.797  32.210 
29.247  86.804  31.342 
27.185  80.155  28.403 
24.797  82.346  31.452 
23.828  85.405  35.019 
22.618  79.916  33.032 
22.410  81.783  33.642 
24.214  78.859  30.714 
25.708  80.914  31.433 
23.732  76.434  30.115 
23.083  79.938  32.347 
23.428  77.248  30.919 
21.754  75.341  33.104 
20.435  76.918  34.646 
21.832  75.872  32.378 
21.189  74.043  31.741 
21.246  73.220  31.405 
19.694  75.371  35.036 
21.700  72.975  30.523 
21.152  70.621  30.651 
20.468  70.794  32.317 
21.599  69.847  31.163 
20.459  67.992  31.996 
19.642  68.102  33.263 
19.521  68.790  32.883 
18.609  66.524  32.835 
19.649  67.172  32.229 
18.866  66.033  33.020 
19.566  65.337  32.216 
17.094  65.708  35.857 
17.206  62.548  34.303 
18.952  63.167  32.450 
19.299  59.130  31.488 
19.924  60.951  32.102 
18.019  57.854  33.952 
16.418  59.695  35.742 
16.105  55.984  35.102 
18.078  56.375  33.622 
20.769  55.441  31.054 
19.609  55.806  32.446 
18.390  50.358  33.672 
20.523  53.743  31.049 
15.090  54.181  39.110 
21.213  51.947  29.740 
18.966  51.019  32.320 
18.382  49.726  34.362 
21.360  52.875  29.744 
18.399  51.283  33.847 
23.291  47.320  28.634 
22.875  49.917  29.224 
20.840  48.808  31.219 
24.804  47.308  27.806 
19.817  48.954  32.262 
21.147  45.651  32.965 
21.975  48.544  30.752 
23.623  43.286  29.631 
24.896  41.732  30.680 
25.012  38.216  31.282 
22.983  43.653  30.914 
23.110  41.417  33.514 
23.636  40.073  33.304 
24.072  40.390  32.063 
23.274  44.038  29.301 
27.966  38.352  27.433 
25.923  36.019  32.881 
25.386  35.655  33.992 
26.454  34.358  34.105 
25.894  34.372  33.381 
26.860  37.254  29.886 
27.556  34.046  31.548 
31.134  31.046  31.004 
28.232  33.052  32.150 
28.214  33.301  31.210 
27.513  30.791  34.407 
28.368  32.548  31.658 
31.965  31.139  29.933 
32.519  31.453  29.483 
33.993  31.467  29.247 
32.758  30.927  29.802 
36.089  29.387  28.907 
34.814  30.761  29.280 
35.325  29.670  29.053 
36.430  28.918  29.234 
38.191  27.725  29.470 
39.696  27.020  28.696 
40.181  25.824  29.490 
39.141  27.612  28.991 
40.531  25.152  29.957 
39.074  24.964  31.607 
39.912  25.346  30.304 
41.428  27.214  26.969 
41.880  26.928  27.150 
42.759  29.780  23.531 
43.971  23.109  31.054 
43.129  22.737  31.493 
41.778  21.937  33.899 
41.069  22.138  33.446 
43.264  22.444  31.987 
48.635  21.677  30.328 
49.144  23.454  28.058 
47.320  22.612  29.201 
48.518  20.103  32.446 
47.434  23.234  28.736 
52.284  22.338  29.099 
49.614  27.427  23.646 
56.171  23.758  26.404 
50.850  24.629  27.013 
48.403  22.077  30.132 
53.246  18.897  32.915 
55.345  18.114  35.065 
53.506  22.999  27.496 
63.153  18.019  33.229 
55.157  19.703  31.735 
56.248  20.731  29.521 
62.608  20.047  29.820 
58.820  19.365  30.702 
58.565  22.422  27.665 
59.798  17.893  32.945 
59.722  19.284  30.904 
60.615  17.519  33.464 
59.295  20.752  29.576 
66.381  23.145  26.437 
62.711  22.324  27.413 
60.297  22.514  27.177 
64.233  24.023  25.981 
67.731  19.060  32.473 
64.517  19.638  31.157 
69.072  20.312  31.479 
69.015  20.780  30.188 
62.621  23.000  25.722 
68.763  20.973  29.780 
66.228  20.325  29.654 
73.518  23.058  28.862 
72.677  23.129  28.862 
77.546  21.556  32.721 
77.765  25.978  27.641 
74.365  23.245  29.109 
78.453  24.571  29.208 
82.941  27.287  30.399 
73.947  22.534  29.647 
71.720  23.988  26.862 
74.757  22.815  30.379 
81.390  28.863  27.414 
81.217  25.310  30.356 
86.494  31.292  28.104 
84.464  26.026  32.738 
88.358  29.714  32.658 
83.762  27.466  30.663 
84.973  27.100  32.229 
82.006  31.298  26.537 
85.534  30.181  28.563 
89.160  31.005  31.232 
89.230  34.063  29.382 
86.570  32.306  27.806 
88.220  37.755  26.350 
90.155  37.302  28.986 
88.923  36.618  27.908 
86.948  37.070  26.225 
89.614  32.995  31.436 
88.242  34.163  27.889 
89.474  39.008  27.074 
93.017  39.034  30.791 
89.782  41.943  26.159 
93.384  44.453  28.411 
90.742  38.099  28.336 
92.962  38.253  31.168 
94.866  42.044  31.804 
93.106  43.559  28.800 
91.106  46.153  24.946 
95.526  43.760  31.471 
93.444  45.874  27.268 
95.038  44.833  30.160 
96.899  46.382  31.844 
95.368  48.356  28.382 
90.700  47.104  24.507 
95.316  46.213  29.025 
95.833  45.115  31.012 
94.911  47.956  27.229 
97.197  49.380  29.326 
94.639  49.774  26.819 
96.858  50.452  28.088 
97.650  50.234  31.343 
99.791  52.696  33.236 
97.383  51.291  30.023 
98.374  52.232  30.754 
96.959  48.374  30.287 
95.443  49.158  27.555 
98.094  58.625  28.368 
99.674  61.816  31.842 
98.614  59.733  28.971 
100.969  60.092  32.158 
99.602  54.681  32.103 
99.383  53.508  30.829 
101.517  59.771  34.113 
99.599  59.234  30.453 
101.536  57.218  35.622 
101.230  58.408  33.008 
100.324  62.544  31.809 
98.941  64.916  30.717 
100.759  64.324  33.239 
99.348  64.913  31.450 
98.694  65.707  30.374 
97.423  66.940  30.540 
97.613  68.560  30.929 
98.107  68.450  30.586 
97.830  69.807  30.810 
98.249  70.111  31.138 
97.011  70.215  29.882 
96.306  71.234  29.756 
96.173  70.952  29.269 
95.875  71.659  29.353 
95.744  72.482  29.213 
95.446  72.655  28.849 
95.033  74.084  28.870 
94.251  74.129  28.446 
94.590  75.456  30.084 
94.161  77.062  30.604 
94.621  77.950  30.557 
96.781  76.488  32.147 
94.602  77.335  29.735 
89.573  83.459  27.660 
95.412  80.205  32.575 
89.123  85.989  29.601 
93.166  83.286  31.792 
93.526  77.277  28.623 
87.604  82.548  26.349 
91.571  82.771  30.290 
89.778  81.220  26.179 
86.692  86.605  28.048 
94.573  80.587  31.639 
81.960  87.392  25.262 
89.652  86.231  30.210 
87.046  85.286  27.882 
83.920  86.672  25.812 
86.669  87.670  29.821 
86.541  88.212  30.493 
83.299  87.448  27.287 
85.184  88.610  30.522 
83.426  88.307  27.190 
84.400  89.243  29.401 
83.048  92.002  31.182 
82.533  91.808  31.239 
80.462  93.092  30.161 
77.325  91.358  26.160 
77.203  94.856  29.869 
78.769  92.797  28.072 
77.012  95.263  31.173 
76.342  95.297  29.447 
77.566  95.773  30.704 
72.110  98.959  31.886 
68.877  95.341  25.283 
76.121  91.466  25.960 
73.494  97.206  30.406 
75.117  96.666  30.497 
69.247  98.535  31.391 
69.166  99.571  32.813 
75.484  94.682  29.437 
73.631  99.079  32.673 
72.132  95.507  28.956 
70.855  101.388  34.438 
71.526  99.223  32.388 
64.556  101.345  32.614 
72.156  98.393  30.733 
67.007  97.707  29.147 
65.935  99.776  30.687 
66.897  100.721  33.582 
59.801  99.258  28.661 
71.385  98.701  32.102 
59.115  97.883  27.046 
64.716  99.134  29.933 
68.242  100.109  31.969 
67.673  100.261  33.142 
61.291  101.834  33.067 
57.331  100.871  32.053 
60.953  100.615  31.898 
59.165  101.228  32.048 
55.496  99.960  29.301 
58.592  99.793  28.584 
53.893  100.490  31.234 
52.383  100.275  31.372 
51.303  96.607  26.004 
57.744  99.171  29.362 
58.185  99.769  29.298 
49.575  100.668  33.395 
50.542  100.206  32.376 
46.620  96.636  27.857 
50.972  99.652  29.801 
47.657  97.970  29.632 
46.492  99.448  31.550 
47.216  99.361  31.140 
41.112  94.028  28.578 
48.532  97.978  28.413 
47.187  97.566  29.023 
48.268  98.657  30.060 
42.411  100.117  34.920 
39.664  95.615  31.106 
40.345  96.273  31.526 
39.950  95.289  30.335 
38.141  94.260  31.758 
40.179  93.941  29.201 
39.065  95.025  30.864 
38.668  94.973  33.050 
36.937  94.645  32.814 
36.213  93.764  33.289 
35.667  92.650  31.814 
34.011  92.133  32.620 
34.701  92.542  32.965 
35.141  92.353  33.085 
33.832  91.395  31.935 
33.144  91.112  31.613 
32.017  90.822  32.895 
32.069  90.430  31.800 
30.392  89.302  32.585 
31.377  88.315  29.985 
29.487  87.477  31.508 
28.284  86.986  32.242 
27.479  86.493  32.494 
29.807  84.640  27.648 
26.871  85.794  32.753 
25.456  88.020  37.577 
30.528  86.369  28.490 
28.475  83.430  28.271 
26.011  82.974  30.749 
23.555  81.607  32.821 
29.473  83.266  27.647 
25.195  85.956  34.152 
24.168  82.011  32.863 
25.941  83.363  31.554 
25.347  80.720  30.745 
21.918  80.122  33.917 
22.272  77.532  32.575 
21.505  76.908  33.771 
23.638  79.068  31.648 
23.689  78.159  30.787 
22.293  75.854  31.627 
22.429  75.261  31.069 
21.020  74.297  32.321 
22.524  74.921  31.714 
22.420  73.350  30.903 
21.577  73.745  30.959 
21.362  71.946  31.084 
21.353  71.478  30.436 
21.403  69.803  30.434 
20.853  69.498  31.073 
21.126  69.085  30.966 
20.906  69.710  31.788 
19.769  66.185  32.201 
19.644  68.161  32.226 
19.993  66.483  32.590 
19.191  65.714  32.779 
19.200  64.330  31.960 
19.544  63.560  32.006 
19.272  62.418  32.100 
18.505  63.401  33.135 
19.346  59.555  32.197 
19.838  61.209  31.123 
16.874  58.633  35.111 
18.089  55.777  33.424 
19.431  55.181  32.553 
21.235  57.594  28.717 
18.458  57.288  33.644 
17.536  54.325  34.731 
20.899  56.847  29.657 
21.334  50.289  30.397 
20.369  46.789  32.947 
19.745  49.510  31.525 
19.249  47.146  34.970 
18.417  51.270  32.988 
19.392  53.060  32.269 
16.011  53.986  36.708 
21.219  47.767  30.849 
19.356  49.689  32.245 
20.268  48.260  31.898 
19.425  49.078  32.904 
20.818  46.529  31.311 
21.121  45.927  32.010 
21.532  43.800  33.121 
23.515  42.868  31.482 
23.324  43.128  31.897 
23.647  42.146  31.112 
23.700  46.160  28.537 
23.151  41.335  32.487 
24.027  42.859  30.818 
24.749  39.978  31.510 
26.481  33.753  33.038 
25.696  37.443  31.197 
24.311  39.727  33.132 
27.281  34.458  30.837 
26.395  36.942  31.121 
26.083  36.645  31.476 
26.532  34.796  31.901 
28.166  29.510  36.633 
28.878  36.535  27.423 
29.132  32.319  32.408 
30.036  29.717  33.220 
29.299  32.490  30.508 
30.629  33.049  29.618 
32.699  31.187  30.229 
32.363  32.365  29.143 
31.687  32.627  28.954 
34.009  31.398  28.362 
34.425  30.777  28.707 
36.448  30.292  28.589 
37.289  28.730  28.528 
34.902  29.642  29.344 
36.953  28.550  29.296 
37.364  27.948  29.699 
38.875  27.187  29.597 
39.429  28.138  27.536 
39.547  26.867  29.199 
42.073  25.509  29.057 
45.749  22.533  29.640 
44.254  26.648  26.775 
41.284  23.499  31.921 
45.803  21.986  31.731 
43.350  24.142  29.472 
43.238  23.203  30.717 
42.328  26.240  28.658 
43.404  23.828  29.899 
44.754  24.198  28.198 
46.033  21.771  30.867 
41.986  23.645  31.650 
48.786  23.776  27.451 
50.234  22.700  28.348 
49.045  20.149  32.245 
45.854  24.838  27.319 
48.305  24.628  27.215 
50.197  21.735  29.981 
50.538  25.121  26.051 
49.817  21.984  28.773 
56.039  18.414  33.579 
58.964  18.027  32.588 
58.218  19.613  30.326 
61.790  16.932  35.283 
60.343  18.336  32.842 
54.452  21.430  28.885 
62.043  17.675  33.532 
57.643  24.300  26.061 
65.055  21.025  28.711 
60.545  21.864  29.438 
58.965  19.696  31.206 
63.125  25.323  23.313 
60.560  18.631  31.688 
65.115  18.587  31.967 
59.598  22.741  26.791 
60.815  21.228  28.631 
60.685  21.729  28.096 
61.644  23.654  25.789 
70.553  20.681  31.693 
71.054  20.359  31.521 
64.400  20.579  29.966 
69.719  23.348  27.203 
72.723  22.183  30.149 
62.182  21.231  28.524 
73.909  22.958  30.098 
69.257  24.147  26.795 
64.324  22.965  26.611 
78.146  26.141  28.305 
74.843  25.174  27.129 
73.822  24.975  26.972 
77.004  24.012  29.247 
73.877  23.591  28.218 
77.631  23.636  30.464 
77.930  26.737  27.243 
83.119  26.811  30.784 
85.552  26.036  34.421 
86.580  27.255  34.820 
85.640  27.696  31.786 
83.277  33.173  25.237 
88.482  34.348  28.734 
81.093  29.639  26.518 
83.414  34.084  25.720 
86.467  27.257  33.477 
83.414  31.562  26.597 
86.097  28.433  31.289 
86.803  34.726  26.494 
91.894  38.533  29.904 
87.441  34.030  27.393 
88.023  37.327  26.103 
92.539  38.659  29.486 
88.473  37.018  27.034 
92.252  40.248  28.649 
89.177  38.603  26.925 
93.835  41.370  30.795 
93.216  40.691  29.467 
88.138  40.553  24.604 
90.546  39.861  27.462 
90.281  41.327  26.155 
87.902  39.230  24.758 
94.367  41.518  30.778 
88.600  40.089  25.349 
91.303  38.123  28.311 
91.747  44.527  26.652 
94.983  43.979  30.308 
93.954  41.659  29.951 
95.398  44.168  30.633 
93.491  46.205  26.634 
91.912  45.520  25.882 
95.455  47.403  27.562 
92.376  45.426  26.009 
95.583  47.876  29.111 
96.256  47.807  29.851 
95.789  52.341  25.836 
97.689  49.655  30.941 
94.393  50.365  26.222 
96.153  50.780  27.424 
99.369  52.880  32.507 
100.565  53.762  33.507 
98.236  56.451  28.844 
97.138  55.066  27.374 
97.363  56.008  28.255 
98.022  61.549  28.224 
100.646  58.671  32.820 
97.494  64.606  29.869 
99.815  62.412  31.127 
101.469  62.317  33.263 
102.083  59.924  34.126 
102.223  65.607  35.486 
100.871  60.096  33.157 
101.945  60.827  34.699 
99.068  63.494  30.883 
99.053  63.183  30.221 
97.341  66.054  29.607 
97.195  66.620  29.665 
96.985  66.225  29.262 
97.477  67.690  29.820 
97.531  70.404  30.530 
97.165  69.534  30.614 
97.265  69.714  30.127 
96.552  70.466  29.715 
95.487  71.605  29.057 
95.070  71.786  28.894 
94.814  72.476  27.841 
94.941  73.695  29.147 
94.212  73.772  27.614 
94.253  76.178  28.775 
94.237  75.910  29.418 
94.662  79.584  31.794 
94.026  80.739  30.926 
94.989  77.926  31.328 
95.029  79.587  31.406 
90.175  75.325  24.451 
96.471  79.974  34.838 
91.964  76.631  26.966 
94.930  82.924  33.989 
86.262  85.789  26.566 
88.602  83.026  26.255 
85.753  81.285  23.453 
89.339  84.259  27.362 
85.001  81.554  23.191 
92.502  81.287  29.736 
85.842  83.744  25.130 
86.688  88.107  29.630 
86.416  85.171  26.238 
84.727  82.489  23.362 
86.409  88.490  31.304 
85.891  85.244  25.968 
88.556  84.303  27.952 
85.891  88.725  30.918 
81.270  88.283  25.626 
80.931  86.756  24.459 
75.127  92.905  26.560 
78.478  92.205  27.616 
77.963  96.134  32.217 
79.260  94.154  30.413 
80.838  93.812  31.433 
77.423  93.701  28.199 
78.977  93.740  29.840 
77.527  95.408  30.358 
79.242  94.560  31.577 
76.865  94.371  29.449 
75.098  96.985  31.575 
75.509  93.694  27.856 
72.977  94.254  26.416 
73.259  92.926  25.355 
71.383  97.883  30.471 
71.919  97.814  29.752 
71.954  97.015  29.298 
75.595  97.228  31.116 
72.858  98.691  32.344 
74.424  98.835  32.402 
69.887  98.338  30.480 
68.924  98.847  30.850 
63.041  97.116  27.094 
69.042  100.242  33.218 
66.990  96.547  27.008 
69.421  98.779  30.893 
56.822  100.429  30.719 
63.612  100.772  31.279 
59.272  98.915  27.151 
61.925  101.326  32.744 
60.775  101.749  32.927 
64.200  101.939  33.255 
63.207  100.312  30.085 
57.870  99.440  28.504 
65.620  99.708  30.254 
58.397  98.271  26.992 
55.906  101.149  32.370 
55.781  100.563  31.950 
56.756  98.905  26.998 
52.804  99.722  29.061 
50.766  100.258  31.885 
51.330  99.494  29.502 
51.882  99.764  30.004 
51.228  99.838  30.480 
49.806  99.263  30.518 
43.247  96.929  30.416 
49.496  100.501  32.819 
48.150  97.655  28.377 
48.656  99.876  31.631 
52.197  99.520  29.727 
49.558  98.997  29.538 
44.202  97.592  30.022 
47.779  99.604  32.714 
41.778  97.916  31.297 
40.750  95.350  30.152 
41.802  97.598  32.223 
38.528  93.431  29.485 
39.607  94.242  29.799 
38.964  95.428  31.670 
37.997  95.188  32.491 
39.351  94.075  30.557 
37.107  93.435  31.379 
35.834  92.179  30.955 
36.428  92.830  31.434 
36.464  93.508  32.031 
34.069  91.989  32.019 
34.847  91.538  31.763 
34.955  90.723  30.936 
33.671  90.845  31.105 
34.037  90.668  31.399 
31.802  89.508  30.789 
31.372  88.883  30.699 
31.653  87.780  28.778 
30.081  85.734  28.876 
32.513  84.900  26.742 
27.874  86.392  31.869 
30.146  87.645  30.824 
26.886  86.266  33.594 
29.114  85.349  29.845 
30.900  81.489  24.867 
27.016  84.064  31.924 
30.769  83.748  26.609 
28.700  84.084  29.064 
26.884  84.321  31.127 
27.108  83.721  30.714 
24.999  81.374  31.442 
25.716  84.556  32.268 
24.037  80.490  31.582 
23.935  78.687  31.253 
22.239  77.032  31.968 
26.353  79.840  29.613 
22.637  79.144  33.389 
22.861  77.637  31.825 
21.777  76.806  32.661 
22.780  75.788  30.734 
22.035  74.523  31.163 
22.553  74.905  30.685 
21.764  72.764  30.919 
21.827  71.724  30.997 
21.828  71.057  30.273 
21.172  70.768  31.896 
21.810  70.644  29.905 
21.769  69.571  29.652 
20.279  68.811  32.334 
20.350  68.992  31.644 
20.233  66.289  31.538 
20.648  66.722  31.951 
20.680  65.247  31.732 
19.764  64.211  31.274 
19.973  63.347  31.286 
20.020  64.955  31.689 
19.734  62.043  31.390 
19.576  61.505  31.856 
19.168  64.811  32.815 
19.789  59.750  31.441 
18.484  60.472  32.702 
19.292  58.626  32.189 
19.611  52.372  31.720 
20.247  58.098  30.443 
22.027  56.618  29.106 
21.169  54.349  30.819 
20.304  52.366  31.128 
20.192  55.281  30.843 
17.364  53.409  35.021 
16.173  53.104  36.404 
17.740  55.120  33.924 
19.835  47.661  33.511 
21.242  54.518  29.902 
18.223  54.893  33.019 
18.908  51.424  32.964 
22.827  48.693  28.572 
19.907  51.696  31.765 
19.274  50.345  33.452 
20.904  49.383  30.493 
23.631  46.675  28.495 
21.980  45.369  30.905 
23.198  42.915  31.127 
23.552  43.620  30.541 
27.500  41.334  25.833 
24.846  39.555  30.558 
25.525  39.550  29.423 
23.970  42.679  30.205 
24.803  40.101  30.525 
24.936  38.982  31.147 
24.976  37.649  32.153 
26.737  35.493  31.400 
24.381  38.918  32.589 
27.291  34.809  31.364 
25.305  41.695  28.155 
28.498  35.064  29.886 
27.731  32.098  32.692 
30.751  33.864  28.189 
31.527  33.390  28.879 
29.403  35.112  29.339 
31.263  32.471  29.469 
31.920  31.527  30.702 
33.002  31.424  29.442 
32.392  31.919  28.925 
34.672  30.821  28.024 
34.968  30.221  28.575 
35.963  30.336  27.822 
36.554  29.210  28.824 
37.344  28.918  29.115 
37.896  28.558  29.588 
38.409  27.270  30.176 
39.022  27.998  28.324 
39.671  28.008  28.459 
41.001  24.726  30.542 
40.918  25.469  29.500 
41.361  25.654  29.428 
40.950  27.572  27.191 
43.099  27.454  25.874 
40.400  27.590  28.824 
40.866  22.770  33.930 
45.624  24.345  27.808 
42.571  26.843  26.540 
42.791  23.706  30.107 
46.343  20.524  32.702 
50.981  20.634  31.573 
44.457  23.318  29.423 
48.462  25.342  25.826 
51.283  23.959  26.792 
48.413  21.144  30.853 
44.035  26.070  26.870 
46.981  24.910  26.633 
49.427  21.520  30.582 
56.877  21.850  28.433 
50.044  21.444  30.330 
51.458  20.577  31.475 
55.821  23.221  26.972 
56.662  18.236  33.253 
53.188  20.724  30.625 
56.791  21.293  28.633 
55.269  20.169  30.353 
51.628  20.213  31.852 
56.569  22.451  27.380 
60.421  20.002  29.645 
55.601  18.983  32.028 
57.693  19.379  31.299 
58.542  20.070  30.776 
62.118  23.908  25.113 
63.198  21.752  27.708 
62.764  23.683  25.171 
59.336  21.415  28.548 
61.538  21.524  28.114 
65.714  18.454  33.078 
63.275  17.584  33.625 
65.746  22.005  28.433 
62.143  22.075  27.547 
67.569  20.464  29.904 
64.340  20.723  28.771 
68.059  22.595  28.253 
67.721  19.744  31.010 
72.703  20.331  32.295 
70.953  24.319  27.062 
76.604  24.042  28.921 
76.235  21.506  32.956 
73.115  24.402  27.193 
77.771  30.568  23.917 
78.839  29.132  25.820 
85.279  31.200  27.811 
75.771  25.509  27.697 
81.008  28.459  27.992 
81.650  32.716  24.342 
79.541  24.013  31.177 
88.450  32.871  29.470 
84.717  26.628  32.062 
87.500  27.668  34.274 
81.414  28.361  28.840 
82.678  29.943  27.771 
83.053  29.291  28.406 
84.558  31.515  27.118 
88.156  34.014  28.829 
86.194  37.519  25.639 
94.666  45.503  29.014 
87.994  33.127  28.606 
92.734  38.523  30.337 
92.245  38.235  30.056 
94.403  42.471  29.909 
87.058  37.493  25.448 
88.611  35.767  28.149 
92.398  40.548  29.465 
92.670  41.264  29.103 
86.266  35.600  25.907 
91.474  41.299  27.592 
93.655  45.079  27.838 
92.292  43.636  27.591 
89.920  40.355  26.730 
90.125  44.621  24.715 
95.392  47.082  28.656 
94.899  46.523  28.318 
91.154  42.478  27.782 
94.634  47.427  27.365 
93.434  46.642  26.341 
96.655  47.681  30.343 
92.695  47.514  25.355 
95.188  47.086  29.472 
95.251  52.598  25.197 
95.247  50.863  26.653 
93.487  48.713  26.570 
92.076  46.964  25.531 
95.232  49.630  26.702 
94.986  49.024  26.806 
96.444  53.491  28.194 
97.387  52.444  28.295 
97.741  55.221  29.099 
100.115  57.166  31.245 
99.790  59.553  30.816 
96.691  63.708  27.864 
99.481  54.826  30.511 
99.358  62.583  30.881 
101.520  59.689  33.446 
100.443  57.577  33.794 
102.310  58.811  35.440 
98.056  59.211  28.525 
99.867  60.911  29.926 
99.219  64.066  30.982 
98.276  64.982  30.152 
98.661  65.212  31.073 
98.428  66.394  30.334 
97.234  67.224  29.270 
97.929  66.985  29.765 
97.951  69.170  30.845 
96.029  68.589  29.305 
96.717  69.653  29.385 
96.360  69.926  29.094 
96.014  70.096  29.409 
95.678  70.769  29.395 
94.440  72.140  28.259 
94.370  73.163  28.227 
94.229  72.821  27.345 
94.102  74.628  27.817 
92.867  75.351  27.473 
94.703  75.614  29.118 
93.936  75.166  28.708 
94.301  77.714  29.924 
93.020  77.259  28.393 
90.747  85.970  31.529 
92.229  84.769  31.581 
92.949  84.259  32.714 
92.074  85.150  32.578 
91.273  82.818  29.239 
93.019  81.791  30.770 
91.501  77.770  26.850 
91.851  78.942  26.815 
88.518  81.340  25.845 
87.235  86.258  29.514 
84.971  84.699  25.209 
85.580  82.102  25.012 
86.959  85.441  26.944 
86.862  87.491  29.051 
88.741  84.690  28.369 
83.753  87.795  26.673 
85.593  88.534  29.983 
85.944  88.191  29.930 
83.144  90.131  29.167 
83.989  90.438  30.816 
82.059  90.932  29.929 
80.286  91.756  28.311 
81.470  90.560  27.934 
80.828  92.952  30.898 
78.204  89.909  26.239 
80.136  93.946  30.824 
75.667  92.219  26.295 
77.688  93.634  28.671 
78.749  95.438  31.527 
76.831  93.765  28.490 
72.250  97.627  30.686 
70.565  97.845  30.244 
68.442  95.811  26.516 
74.604  91.584  25.187 
70.856  97.193  28.716 
74.467  100.962  35.363 
75.808  96.894  30.407 
67.763  99.603  32.119 
74.757  97.281  31.161 
71.303  98.585  31.176 
66.213  92.552  23.219 
69.073  99.185  32.118 
63.544  95.979  25.994 
65.514  100.994  32.578 
67.655  98.644  29.762 
64.486  100.427  31.179 
60.596  100.639  30.083 
58.960  96.926  25.395 
61.297  99.451  29.155 
60.270  100.734  30.732 
62.653  101.626  33.314 
59.858  101.527  32.017 
58.568  101.001  31.343 
60.946  101.390  32.109 
56.295  100.474  30.738 
57.994  100.677  31.675 
55.089  100.741  32.368 
57.502  99.899  29.115 
55.318  99.998  30.104 
57.338  100.270  30.812 
54.422  98.724  27.247 
50.354  101.303  33.512 
50.414  97.697  27.015 
55.951  99.225  27.613 
48.721  96.280  26.370 
51.951  100.156  30.730 
46.284  97.156  28.871 
53.220  98.657  27.850 
53.355  96.240  24.500 
41.635  96.898  31.281 
49.536  99.683  30.192 
40.218  95.477  31.259 
47.686  98.076  28.761 
44.314  97.519  31.075 
47.608  98.683  29.991 
40.124  94.124  29.780 
40.910  92.669  27.321 
38.368  94.479  31.103 
38.019  94.045  30.590 
38.195  93.456  30.642 
36.822  93.069  31.222 
38.860  94.043  30.158 
36.464  94.025  32.103 
36.568  92.423  30.577 
35.390  91.944  31.605 
35.732  91.637  30.745 
35.185  90.938  29.981 
34.303  90.446  30.946 
34.558  90.403  30.406 
33.519  88.874  29.640 
30.857  87.725  30.043 
31.864  88.800  30.222 
31.491  89.898  32.145 
30.835  87.516  30.499 
27.718  85.601  32.136 
29.521  85.958  30.464 
29.163  84.820  28.925 
27.440  86.362  33.262 
25.806  82.524  30.706 
25.631  81.228  30.784 
30.417  85.570  28.166 
29.895  82.868  26.301 
26.673  83.935  30.145 
27.293  81.542  28.882 
22.792  82.563  33.687 
27.573  83.121  29.390 
27.321  83.932  29.430 
26.228  82.114  31.142 
27.283  80.327  27.863 
23.362  78.254  31.935 
24.106  77.771  30.933 
23.390  75.963  30.196 
22.016  74.946  31.715 
23.017  76.475  30.698 
23.306  75.136  30.239 
22.312  74.109  30.182 
22.493  73.226  30.428 
21.108  72.386  30.916 
21.759  72.150  30.261 
21.948  71.321  29.752 
21.696  70.191  30.161 
22.325  70.064  30.092 
21.223  69.194  30.266 
20.899  68.345  31.244 
20.803  67.835  31.072 
20.704  66.078  31.049 
20.274  64.936  31.236 
20.503  64.724  30.780 
20.186  63.946  31.316 
19.877  63.135  32.086 
20.143  61.547  30.877 
20.176  60.625  30.515 
19.475  60.460  31.643 
18.418  57.973  33.275 
18.582  59.942  32.595 
20.466  57.261  30.910 
20.801  57.634  30.118 
20.832  57.549  29.204 
21.782  54.526  29.935 
22.020  56.703  28.443 
20.892  56.156  30.379 
20.207  56.888  31.166 
18.739  52.201  32.808 
19.694  46.970  34.277 
20.928  52.387  30.412 
16.571  53.289  35.204 
18.108  53.631  33.457 
21.276  46.197  33.257 
18.159  50.683  34.340 
21.470  48.711  29.452 
20.201  51.098  31.160 
24.332  47.944  27.778 
19.714  50.815  31.704 
22.264  46.715  30.373 
21.707  44.846  32.404 
23.379  41.591  31.736 
22.383  46.250  30.442 
24.510  41.382  30.021 
25.959  42.086  28.317 
25.415  38.746  30.630 
24.773  41.172  29.511 
27.610  37.597  29.134 
25.346  36.927  31.947 
26.595  40.981  28.303 
26.142  34.538  32.489 
27.880  36.058  29.218 
27.840  31.432  34.038 
26.276  33.717  33.549 
29.038  30.351  33.561 
28.345  35.285  29.244 
30.690  33.767  28.749 
29.812  34.170  29.170 
30.163  33.314  28.684 
32.823  33.441  28.064 
32.972  32.445  28.440 
32.556  32.741  28.383 
31.768  31.901  29.319 
35.245  31.234  27.586 
35.115  30.810  28.306 
36.568  29.763  28.220 
36.469  30.228  27.722 
37.398  29.600  28.453 
37.806  28.322  29.082 
38.743  28.379  28.662 
38.926  28.842  26.893 
39.253  28.514  27.810 
39.724  28.293  27.057 
41.463  29.092  25.671 
42.497  26.752  27.049 
45.380  25.782  26.617 
41.900  27.891  26.929 
42.389  22.529  32.573 
46.322  22.490  30.241 
42.300  24.791  29.540 
47.704  29.384  21.710 
46.577  22.620  29.421 
43.852  23.836  29.684 
48.932  26.562  25.278 
42.054  25.180  29.648 
50.242  28.016  23.465 
45.960  23.164  29.292 
44.245  24.150  29.004 
50.766  23.641  27.391 
50.320  25.711  25.456 
46.924  19.902  33.601 
59.763  17.798  33.454 
50.030  24.538  26.567 
53.045  24.833  25.680 
57.113  19.127  31.399 
54.721  21.853  28.118 
51.362  21.478  29.771 
54.011  23.739  26.438 
52.078  21.482  30.347 
61.034  18.522  32.267 
63.555  21.872  28.447 
59.622  23.616  25.971 
63.724  24.227  24.746 
61.091  22.847  26.841 
61.104  22.207  27.289 
69.181  25.034  25.982 
63.723  25.238  24.035 
66.841  23.672  26.222 
62.931  24.084  24.846 
64.766  25.110  25.119 
67.322  24.728  25.527 
70.712  22.902  28.197 
66.382  24.669  24.122 
70.780  20.780  30.611 
70.549  23.202  27.185 
67.648  22.445  27.303 
76.147  21.741  30.906 
71.016  22.157  29.055 
70.574  21.577  29.345 
71.903  20.686  31.677 
73.553  25.899  26.312 
75.804  27.677  25.314 
76.959  25.564  27.374 
83.005  28.449  28.667 
77.293  23.702  29.894 
84.757  32.440  27.072 
77.007  27.324  26.060 
80.522  28.545  27.845 
76.933  24.625  28.542 
83.874  28.428  30.413 
89.971  33.771  31.380 
83.376  28.682  28.993 
83.976  34.702  24.737 
85.954  31.741  27.729 
89.833  31.977  33.036 
90.952  32.568  32.829 
89.064  34.799  29.063 
88.258  32.344  29.152 
85.519  29.546  30.310 
81.009  32.348  24.823 
87.383  34.927  27.328 
88.372  36.192  26.843 
86.456  38.444  24.410 
87.442  37.278  25.942 
89.691  42.879  25.451 
88.798  37.684  26.943 
88.542  41.993  24.313 
89.436  38.057  27.376 
91.702  41.905  27.525 
91.505  43.876  26.137 
90.580  37.519  28.788 
90.398  43.088  25.852 
92.458  42.280  27.947 
92.201  40.471  29.925 
93.471  45.906  27.743 
90.775  45.674  24.873 
92.553  48.350  25.054 
95.505  48.660  27.551 
94.530  47.187  28.037 
94.995  51.403  26.091 
96.408  51.664  27.368 
95.717  49.660  28.264 
97.969  54.505  28.568 
95.760  51.540  27.240 
96.235  55.390  27.553 
96.067  48.951  28.174 
98.682  55.117  29.560 
97.203  53.022  28.037 
97.312  49.116  29.982 
100.008  60.966  31.589 
99.091  59.040  29.460 
97.474  60.650  27.916 
97.420  61.871  27.631 
94.307  63.536  25.333 
97.463  61.202  27.614 
98.477  60.218  29.717 
98.177  57.616  28.614 
97.721  64.059  29.094 
100.966  64.219  34.601 
98.509  62.298  30.225 
98.199  62.163  28.929 
95.651  63.933  26.956 
98.111  65.663  29.783 
97.998  66.245  30.378 
96.641  67.456  28.552 
97.645  68.989  30.199 
96.707  68.754  29.698 
97.106  67.497  28.412 
95.346  69.994  27.438 
95.587  69.783  28.735 
95.202  70.424  28.538 
95.639  71.198  28.631 
94.759  71.626  27.504 
93.375  73.058  27.483 
94.452  73.299  27.781 
93.338  74.798  27.790 
94.542  78.872  30.350 
94.191  78.053  29.182 
94.569  76.749  29.959 
91.235  77.100  26.423 
92.528  83.485  31.345 
94.351  78.379  30.631 
91.191  85.736  31.498 
90.509  82.801  28.577 
90.782  85.109  30.364 
86.427  81.990  24.971 
85.383  84.166  24.875 
85.816  82.630  24.990 
88.881  81.291  25.313 
88.997  79.685  24.509 
87.671  84.554  26.697 
84.600  87.540  27.071 
82.753  85.614  24.251 
85.069  87.880  28.545 
87.621  87.229  29.716 
88.272  86.895  30.198 
83.283  87.014  26.033 
83.809  89.917  29.606 
81.157  90.856  29.015 
80.984  91.287  28.542 
84.728  88.347  28.389 
82.183  90.032  29.250 
78.708  91.249  26.735 
79.282  90.717  27.091 
79.712  91.822  29.174 
77.243  90.244  26.226 
76.258  93.274  27.692 
78.280  92.783  28.307 
78.309  95.105  30.814 
72.526  95.404  28.007 
78.395  93.588  28.578 
73.085  96.414  29.307 
75.605  93.363  27.130 
73.676  96.614  30.087 
77.456  92.736  27.943 
70.002  97.980  29.672 
68.425  99.564  31.280 
71.655  98.342  30.347 
70.019  98.819  31.582 
68.597  96.573  26.931 
65.473  97.637  27.312 
67.218  97.494  28.398 
59.941  99.428  29.596 
65.715  96.581  26.974 
63.796  98.188  27.959 
64.899  96.680  26.354 
61.826  100.802  30.668 
69.616  95.043  24.965 
65.261  99.321  31.151 
58.868  101.078  32.868 
61.887  98.325  28.276 
58.945  100.580  30.650 
58.222  100.454  30.925 
59.330  96.842  26.125 
60.422  99.271  27.697 
61.238  98.036  27.220 
58.204  100.058  29.737 
54.097  99.432  29.169 
54.718  98.124  26.337 
52.164  99.709  30.839 
58.091  97.409  25.759 
54.483  98.737  28.009 
53.493  99.353  27.984 
54.312  99.569  28.368 
50.970  97.433  27.649 
45.792  98.022  29.804 
52.731  99.214  27.836 
41.075  92.767  26.614 
47.919  99.289  30.527 
47.533  100.928  34.659 
48.994  98.139  29.159 
42.264  96.242  30.671 
48.360  100.200  32.288 
44.717  98.487  31.766 
40.412  95.825  30.751 
41.266  96.896  30.651 
39.552  94.826  30.223 
38.217  93.095  29.556 
37.953  92.566  30.347 
37.244  93.952  32.035 
36.698  92.035  29.817 
35.801  91.662  30.145 
36.496  91.506  30.022 
35.647  90.917  29.294 
36.021  90.999  29.966 
34.660  90.660  29.686 
33.636  89.639  30.096 
33.293  90.144  30.701 
33.817  89.445  29.097 
33.238  88.954  30.340 
33.419  88.201  28.637 
32.550  88.866  31.033 
32.345  88.302  29.615 
31.586  87.925  29.542 
32.351  86.036  27.120 
27.649  84.832  30.750 
26.780  83.048  29.598 
28.097  85.481  31.248 
33.267  80.093  22.329 
27.264  79.479  27.735 
25.352  83.707  31.935 
23.715  82.621  33.789 
26.516  80.074  28.823 
24.961  82.205  31.934 
26.851  81.540  30.145 
25.129  76.708  30.036 
23.231  83.263  33.893 
24.803  79.093  30.064 
24.705  79.611  30.609 
24.792  75.880  29.095 
23.629  77.215  30.439 
22.772  77.767  32.303 
23.376  75.177  30.724 
22.904  74.351  30.240 
22.788  73.814  29.913 
22.353  72.750  29.748 
23.032  72.729  29.150 
22.430  71.933  30.177 
22.587  71.987  29.354 
22.487  70.049  29.047 
22.051  69.155  29.915 
22.195  68.738  30.230 
20.163  68.097  31.624 
20.831  67.237  30.948 
21.054  66.405  31.248 
20.777  65.271  30.581 
20.514  64.068  30.907 
19.814  62.797  31.376 
20.407  62.236  31.026 
20.138  62.301  30.623 
20.489  61.103  31.125 
19.332  59.641  31.134 
20.014  59.756  30.577 
19.739  58.660  31.806 
21.911  57.606  29.054 
22.416  57.823  28.056 
22.524  55.937  28.495 
21.449  56.340  29.734 
19.675  56.522  31.137 
21.510  55.740  29.284 
16.734  54.586  35.181 
21.992  53.241  28.979 
17.789  53.173  33.949 
20.843  53.257  30.267 
22.925  51.547  28.439 
18.956  47.963  34.836 
21.556  48.259  29.924 
17.115  51.151  35.290 
21.967  49.856  29.069 
24.297  42.600  28.801 
21.903  44.667  31.504 
22.777  44.168  32.369 
21.698  47.088  30.419 
25.673  39.187  30.130 
23.050  46.490  29.726 
26.693  39.046  28.632 
22.626  45.216  30.305 
24.670  40.772  31.105 
27.406  44.466  25.323 
27.863  37.023  28.796 
24.461  42.003  29.343 
27.129  39.569  29.006 
24.379  36.963  34.036 
30.354  36.662  26.446 
27.057  35.962  30.744 
25.884  36.444  32.502 
29.264  31.650  32.011 
29.131  34.605  29.550 
28.868  35.229  28.758 
29.851  34.103  28.401 
31.132  32.272  30.082 
32.799  33.411  27.302 
32.830  32.973  27.627 
33.497  32.722  27.292 
33.817  32.250  28.423 
34.689  32.636  26.878 
36.370  30.860  27.050 
36.110  31.214  27.672 
37.511  29.200  27.702 
38.193  29.190  27.192 
38.171  28.631  28.343 
39.097  29.609  26.272 
39.414  28.933  27.619 
39.782  27.731  27.737 
41.103  28.581  27.208 
42.543  27.826  26.257 
41.994  29.872  24.100 
42.321  29.280  24.569 
48.762  22.397  29.430 
42.730  27.968  25.246 
41.661  25.985  28.638 
44.511  23.434  30.235 
43.504  27.609  26.106 
46.571  19.770  33.996 
45.106  24.068  27.746 
45.130  21.694  31.153 
46.606  25.530  26.170 
49.597  20.350  31.567 
48.321  22.624  28.763 
48.773  26.092  25.183 
56.261  22.687  27.710 
49.874  19.966  32.683 
49.222  24.679  26.405 
53.811  20.164  30.769 
50.907  22.546  28.466 
47.601  22.896  28.439 
51.791  22.773  28.001 
54.290  22.387  27.927 
57.831  20.660  29.579 
55.301  20.599  29.936 
58.019  23.126  27.564 
61.769  23.382  26.246 
57.536  20.752  29.049 
56.771  20.802  28.964 
58.095  21.342  28.819 
63.625  21.989  27.337 
60.947  23.345  25.735 
63.660  25.892  22.920 
66.075  19.263  31.651 
66.328  26.080  23.736 
64.572  25.329  23.729 
66.673  25.286  23.584 
63.006  22.598  26.861 
71.128  21.984  30.241 
64.292  24.277  24.818 
67.005  21.874  28.362 
68.398  20.448  30.407 
71.398  19.829  33.115 
75.450  23.783  28.614 
74.244  21.128  33.073 
72.481  23.970  27.451 
74.420  25.727  26.433 
72.378  25.263  26.502 
81.892  26.303  30.204 
79.250  24.477  30.454 
74.613  24.254  28.022 
78.569  27.833  26.540 
74.796  23.580  28.302 
78.592  32.646  22.800 
79.224  27.103  28.388 
80.403  26.181  29.372 
86.161  27.541  32.516 
80.990  30.252  25.830 
89.433  32.254  31.212 
82.605  32.743  26.177 
83.585  33.487  25.366 
83.124  25.720  32.276 
83.523  35.093  24.014 
90.591  35.182  30.735 
84.586  33.273  26.893 
89.371  37.796  28.175 
86.998  38.143  26.013 
86.114  31.222  28.621 
86.447  39.757  23.848 
88.535  41.673  25.196 
87.911  38.467  25.767 
87.092  39.417  24.387 
88.030  41.306  24.358 
89.205  40.830  25.441 
93.711  44.075  28.194 
95.084  45.762  29.945 
93.559  42.422  28.786 
89.380  42.521  25.663 
93.276  43.641  27.615 
92.189  44.400  27.295 
91.652  42.661  27.132 
91.251  45.024  25.454 
93.055  48.004  26.074 
93.037  45.000  27.432 
96.101  49.428  27.445 
95.991  50.064  28.207 
93.720  50.890  24.505 
95.537  52.716  25.980 
96.671  53.484  27.348 
92.361  53.701  23.475 
92.682  47.112  25.798 
95.273  56.373  25.041 
98.619  54.166  29.616 
96.559  49.638  28.585 
98.070  55.588  28.612 
99.563  58.334  31.045 
99.053  60.553  29.787 
99.725  57.509  30.925 
100.607  61.566  31.898 
95.916  60.865  26.238 
100.654  60.485  31.484 
99.764  63.056  31.746 
103.524  62.536  38.827 
97.444  64.158  28.630 
100.881  59.137  32.591 
93.167  63.535  23.909 
96.330  63.438  27.332 
99.507  65.334  31.527 
96.849  65.311  28.562 
96.531  66.474  28.367 
96.659  66.921  27.981 
96.809  68.290  29.365 
96.295  68.156  29.116 
96.074  69.377  28.695 
95.466  70.526  28.133 
95.010  70.857  27.524 
94.982  71.399  28.184 
94.284  70.681  26.732 
94.131  72.162  27.074 
93.472  71.233  26.602 
93.487  74.423  27.046 
94.322  75.448  28.406 
94.840  79.178  31.041 
93.953  79.515  30.025 
93.945  78.608  28.990 
92.813  83.977  31.884 
91.989  80.271  27.752 
92.930  80.427  30.012 
93.055  82.681  31.218 
87.782  80.758  24.462 
90.366  80.942  27.005 
82.948  82.982  22.843 
89.771  82.988  29.042 
87.228  82.592  26.045 
87.802  82.082  25.521 
83.766  80.280  22.137 
84.466  87.145  26.342 
83.652  86.599  25.072 
85.745  86.088  27.074 
86.610  80.512  23.300 
85.045  89.371  30.098 
84.902  87.871  29.486 
83.896  88.719  27.881 
80.933  87.232  25.221 
83.168  90.756  29.779 
80.445  88.229  25.722 
81.134  91.673  29.301 
79.989  92.545  28.772 
78.898  90.315  26.241 
80.167  93.228  29.829 
82.764  90.560  30.043 
79.672  91.912  28.106 
79.040  89.766  26.344 
80.667  90.456  27.408 
79.948  91.190  27.712 
74.768  94.191  28.681 
78.771  96.053  32.657 
77.075  93.186  27.416 
73.355  94.671  27.676 
73.230  93.441  25.982 
69.839  94.866  26.530 
74.431  95.893  29.510 
71.200  96.325  27.957 
68.932  99.655  31.931 
71.024  96.673  28.615 
67.763  97.775  29.217 
69.444  97.484  28.995 
63.469  92.673  21.952 
68.849  97.330  29.188 
67.377  93.784  23.097 
65.620  98.226  28.521 
66.670  97.558  27.892 
64.596  95.543  25.020 
64.259  100.879  31.817 
63.217  96.747  26.214 
67.563  99.936  31.350 
62.334  98.703  28.666 
59.730  100.617  30.456 
57.237  100.048  30.006 
56.224  99.634  29.161 
56.711  99.578  29.220 
55.274  95.975  24.523 
54.775  99.721  28.693 
45.883  96.140  28.361 
56.744  100.608  32.085 
52.723  99.430  28.317 
47.308  97.346  27.753 
52.898  94.696  23.807 
49.707  98.937  30.138 
52.014  99.546  28.857 
51.738  97.861  27.855 
53.551  97.274  25.177 
41.845  94.397  28.132 
42.445  94.457  27.551 
46.618  98.406  30.217 
44.550  96.347  29.134 
43.266  94.109  27.629 
45.760  98.465  30.764 
48.389  99.689  31.192 
40.986  95.018  29.484 
41.728  94.732  29.172 
42.877  98.294  31.441 
39.531  94.906  31.102 
37.978  93.323  30.185 
36.004  92.585  31.091 
37.228  93.031  30.542 
37.368  91.946  29.399 
36.300  91.451  29.202 
37.078  91.608  28.982 
36.103  90.682  29.350 
35.603  90.206  28.917 
34.372  89.728  29.436 
33.778  88.974  28.877 
32.813  87.851  28.332 
33.435  87.967  27.889 
32.755  89.345  30.034 
31.910  87.404  28.640 
31.141  85.990  28.619 
31.901  86.572  27.636 
33.683  86.848  27.149 
31.357  86.192  28.093 
26.143  82.531  29.925 
31.397  84.028  26.121 
30.293  86.300  29.297 
30.813  87.445  29.043 
28.688  82.767  27.763 
27.954  82.776  28.767 
25.442  82.546  31.313 
24.947  78.545  29.884 
23.330  81.837  33.633 
23.117  79.131  32.514 
25.435  76.967  28.493 
26.842  76.520  27.316 
24.281  76.701  30.445 
24.009  76.403  29.691 
24.291  75.845  30.470 
23.767  74.846  30.160 
23.509  74.416  29.604 
23.604  74.748  29.238 
23.038  74.050  29.321 
22.581  73.423  29.608 
22.508  70.772  28.852 
22.764  69.611  28.303 
22.364  71.200  29.567 
21.375  68.465  30.413 
22.135  68.718  29.210 
22.197  68.157  29.745 
21.758  67.747  30.466 
21.411  66.994  30.806 
21.431  65.142  29.721 
21.210  64.575  30.462 
20.456  63.163  30.463 
20.912  62.771  30.608 
20.718  61.833  30.317 
21.125  61.526  30.659 
20.617  60.334  30.517 
20.660  59.362  30.517 
19.906  58.919  30.823 
20.644  58.533  30.990 
18.128  59.094  33.099 
21.639  58.492  28.439 
21.281  56.737  29.046 
22.663  53.115  28.217 
20.430  54.745  30.547 
23.075  55.050  27.377 
20.848  54.164  30.143 
20.985  51.555  30.953 
19.004  54.467  32.953 
25.094  49.940  26.433 
20.561  49.675  31.397 
19.338  53.690  32.773 
23.184  48.677  28.076 
17.874  52.635  33.883 
23.662  50.391  27.191 
21.244  47.146  30.855 
22.243  44.218  31.774 
20.876  46.689  32.186 
23.830  44.814  28.032 
26.676  44.701  25.516 
23.786  43.295  28.984 
25.498  45.544  26.286 
23.858  42.735  29.151 
26.467  49.445  24.096 
25.725  36.807  31.175 
26.529  38.439  30.020 
29.205  37.921  25.974 
27.831  42.633  25.394 
29.846  34.717  28.366 
28.575  38.335  26.502 
27.717  34.634  30.631 
26.722  31.753  34.020 
31.514  31.624  29.781 
28.221  36.874  28.318 
29.677  37.026  26.014 
31.687  33.169  28.024 
30.240  35.207  27.467 
30.401  34.643  27.638 
33.589  32.069  27.970 
34.178  32.452  26.981 
34.942  31.824  27.131 
34.911  31.719  28.033 
36.943  30.458  27.830 
37.142  30.036  27.464 
38.145  30.543  26.812 
37.651  30.361  26.807 
38.529  28.480  27.578 
39.434  28.956  26.785 
40.215  28.518  26.080 
40.261  28.143  27.574 
40.373  29.657  25.341 
41.278  29.567  25.112 
