27.109  38.997  90.462 
23.974  41.824  90.109 
22.125  41.484  86.882 
27.492  38.587  90.981 
24.705  41.528  89.788 
28.764  37.862  91.043 
28.829  37.729  90.449 
29.985  36.501  91.785 
30.387  35.685  90.982 
29.852  35.362  90.393 
31.613  34.705  90.673 
31.292  33.564  90.023 
32.523  34.055  90.333 
32.422  32.708  90.527 
33.706  32.624  90.379 
33.878  32.177  90.522 
34.286  31.642  91.176 
34.720  31.144  90.525 
35.075  30.753  90.835 
34.579  29.960  88.826 
36.150  23.577  85.248 
34.731  29.544  88.955 
36.794  25.650  88.309 
37.137  25.770  88.728 
39.357  29.286  92.713 
35.121  26.571  87.561 
40.426  23.606  87.464 
36.793  22.412  84.116 
37.107  27.742  89.917 
41.569  26.903  93.341 
36.169  24.783  86.781 
41.150  25.036  91.267 
42.023  23.698  89.136 
46.466  22.354  90.722 
42.490  22.234  87.674 
42.856  26.335  93.389 
40.645  23.127  88.214 
45.682  22.262  89.236 
44.470  21.662  86.971 
46.015  21.356  88.915 
45.933  22.901  91.346 
47.530  24.288  91.779 
47.791  20.801  87.577 
47.888  19.463  85.133 
49.417  19.808  86.276 
49.732  20.355  88.034 
50.069  20.873  89.684 
55.518  15.700  83.161 
58.048  20.060  90.450 
53.873  19.111  87.823 
56.379  24.074  94.811 
49.736  20.057  87.503 
64.819  19.653  88.755 
63.142  20.970  91.086 
63.248  22.376  93.206 
57.051  19.277  88.419 
64.040  19.667  89.276 
59.466  22.344  93.080 
70.014  21.390  90.255 
69.803  20.434  89.046 
67.575  19.782  88.964 
64.601  21.152  91.478 
66.406  20.998  90.126 
60.664  22.972  93.251 
58.633  23.080  93.849 
63.738  20.954  91.143 
68.093  20.096  88.918 
67.791  16.064  82.554 
71.495  20.207  88.660 
75.545  20.664  87.230 
70.775  18.380  86.137 
73.057  18.924  86.058 
76.474  21.487  87.271 
73.215  20.181  88.477 
72.829  22.522  89.756 
74.438  23.490  90.220 
73.801  20.304  87.970 
80.811  22.810  87.125 
83.320  29.446  91.572 
80.415  26.583  91.271 
75.934  23.570  89.819 
79.883  22.574  87.958 
78.714  24.766  90.193 
78.825  22.319  88.228 
81.778  28.395  91.889 
84.223  27.975  90.261 
80.580  23.097  88.158 
80.877  24.235  88.387 
80.976  24.956  88.957 
84.061  25.062  87.708 
84.808  28.644  88.796 
84.770  30.673  91.129 
85.597  28.156  88.654 
85.213  30.092  90.989 
87.037  29.563  88.259 
88.176  29.717  87.685 
87.687  30.038  88.587 
88.217  30.749  87.716 
91.198  33.280  87.515 
88.046  31.940  89.925 
89.558  33.328  89.769 
90.669  34.654  89.058 
91.271  37.072  91.565 
91.054  35.753  90.569 
88.892  34.570  91.272 
94.314  41.531  91.242 
92.401  36.365  90.031 
91.000  35.609  89.697 
89.363  39.605  93.650 
95.807  42.777  89.053 
93.457  38.327  89.342 
93.817  45.836  93.506 
91.776  35.490  89.394 
95.405  43.527  89.731 
95.381  43.595  90.587 
94.454  42.535  90.450 
96.204  46.738  90.360 
97.258  45.033  87.645 
96.403  44.056  87.798 
97.543  48.026  88.289 
98.217  47.037  87.539 
97.307  45.885  88.208 
99.149  50.134  87.783 
98.726  50.953  88.818 
98.840  50.875  87.539 
98.496  51.701  87.719 
96.321  49.637  91.237 
97.512  51.355  90.740 
98.271  51.998  88.470 
98.310  52.353  89.868 
97.745  54.281  89.622 
99.228  54.705  88.945 
99.183  55.644  89.081 
99.274  56.016  89.607 
99.632  56.527  88.730 
100.091  57.743  88.369 
99.773  58.990  89.104 
98.417  63.031  91.233 
98.796  61.208  89.972 
100.754  59.158  87.044 
99.921  60.758  87.762 
99.257  61.329  89.499 
99.417  61.537  88.330 
99.423  64.665  89.759 
98.036  62.617  90.842 
98.901  66.078  89.678 
101.093  69.403  86.295 
101.040  70.161  85.932 
100.966  67.850  86.566 
97.098  72.466  90.335 
101.811  66.697  85.785 
100.202  67.282  87.807 
98.167  65.174  90.905 
101.612  65.804  84.489 
99.441  70.772  87.652 
99.586  70.831  87.048 
99.167  69.837  88.873 
95.248  73.947  92.056 
95.367  72.451  92.498 
97.605  71.848  90.288 
93.619  80.755  88.230 
96.860  75.784  89.593 
96.019  80.069  85.312 
94.980  81.942  87.339 
95.832  80.923  85.713 
93.911  82.672  87.527 
88.856  86.919  88.788 
91.234  86.679  86.909 
94.564  83.025  86.584 
91.826  83.966  88.757 
93.328  82.605  88.288 
90.351  85.876  88.177 
90.245  87.105  86.857 
89.881  82.710  91.058 
88.490  87.622  87.975 
88.010  86.638  89.021 
90.181  84.434  88.644 
87.501  86.722  89.516 
87.144  87.642  89.299 
86.953  89.020  88.226 
86.085  91.201  86.410 
86.535  89.297  87.992 
88.577  88.768  86.699 
85.527  88.472  90.619 
84.431  89.834  90.057 
86.660  91.062  85.463 
83.539  90.858  89.465 
84.617  91.517  88.264 
83.285  91.219  89.906 
84.097  91.983  88.042 
79.786  92.122  91.484 
80.374  92.361  89.918 
78.382  91.745  91.167 
80.584  92.957  89.332 
80.696  93.760  88.517 
83.564  94.961  83.077 
75.797  92.771  91.027 
77.811  92.327  91.764 
76.773  95.122  88.579 
75.053  95.095  88.413 
72.797  96.153  88.949 
73.366  96.629  87.474 
73.291  97.312  87.771 
72.341  97.493  88.030 
70.851  97.500  88.220 
70.283  96.895  88.688 
70.527  97.534  88.637 
68.519  97.839  88.857 
68.078  97.636  88.163 
68.091  98.374  88.074 
67.361  98.264  88.629 
66.527  98.504  88.641 
65.090  99.120  88.308 
64.525  99.801  88.017 
64.278  99.139  88.500 
63.972  98.536  89.261 
62.528  100.928  86.700 
61.497  98.062  89.392 
62.586  97.849  89.344 
60.022  98.604  89.398 
57.052  95.157  94.388 
61.782  100.249  86.742 
55.650  99.764  88.920 
58.807  96.580  91.867 
58.193  98.283  90.174 
54.559  100.427  87.557 
56.559  100.735  86.886 
50.796  99.740  87.917 
55.829  97.997  90.453 
55.042  98.072  91.092 
49.107  100.991  86.237 
51.549  95.543  92.796 
50.503  99.141  88.279 
52.747  98.179  90.619 
48.606  101.404  85.417 
43.763  100.677  82.261 
46.797  97.635  88.377 
46.907  96.723  89.804 
43.885  96.113  89.138 
42.945  93.911  90.421 
45.295  96.752  88.392 
45.116  97.191  88.070 
42.517  93.112  90.194 
42.769  96.163  87.396 
42.938  95.662  88.284 
41.277  95.297  87.546 
37.168  93.821  87.520 
42.256  94.363  89.730 
40.042  94.069  89.433 
37.896  90.592  90.966 
40.399  93.706  90.132 
38.721  95.988  86.326 
33.727  92.516  88.586 
39.562  94.474  88.595 
36.305  95.341  85.856 
33.446  89.591  89.643 
32.800  88.738  91.397 
31.119  88.093  89.668 
30.203  87.047  89.173 
31.298  87.429  89.429 
31.517  91.137  86.546 
27.955  84.782  88.413 
28.033  83.029  89.629 
29.327  82.679  90.929 
28.667  84.858  89.363 
29.519  81.969  91.588 
27.958  79.697  91.630 
29.654  83.882  91.135 
28.885  87.677  88.284 
27.999  83.914  88.939 
25.729  80.155  88.219 
27.216  80.388  90.487 
25.003  77.271  90.131 
28.984  81.206  91.989 
26.014  76.427  91.239 
24.705  76.373  89.911 
23.935  75.234  90.190 
24.624  75.973  90.237 
25.235  73.842  91.316 
25.118  75.373  91.256 
23.256  72.998  90.266 
23.560  72.467  90.610 
23.600  71.877  89.975 
22.729  70.452  90.324 
20.302  68.263  88.526 
24.343  70.258  92.196 
23.194  69.634  90.607 
23.112  68.522  90.866 
23.649  69.751  91.324 
22.438  67.497  91.202 
22.563  67.028  91.194 
20.794  67.316  88.967 
21.553  66.567  90.729 
22.230  66.602  91.119 
21.880  64.586  91.322 
21.230  63.558  90.667 
22.145  64.491  90.913 
21.893  61.318  91.412 
20.998  62.676  90.556 
21.502  60.451  91.129 
21.457  58.343  91.199 
22.262  58.093  91.474 
21.955  58.606  91.895 
20.659  57.140  90.365 
20.313  54.548  88.361 
20.959  56.574  89.308 
22.272  55.736  90.869 
21.044  54.276  90.084 
20.689  54.247  89.762 
21.206  53.026  90.093 
21.716  52.215  89.863 
20.956  53.260  89.738 
22.075  50.572  90.200 
22.336  49.511  90.744 
22.159  45.483  89.804 
21.443  48.650  89.041 
24.161  46.413  93.144 
23.404  48.191  91.672 
21.901  46.225  89.889 
21.279  46.789  88.514 
23.971  44.302  91.452 
23.890  41.605  89.205 
24.798  39.179  88.158 
26.626  41.088  92.446 
24.720  42.420  91.182 
23.914  45.120  90.951 
25.243  41.162  90.460 
26.575  39.979  90.726 
27.752  38.523  90.466 
26.255  39.254  90.336 
28.068  37.509  90.470 
29.359  36.544  90.804 
29.550  36.829  91.245 
29.127  36.030  90.137 
30.088  34.688  89.770 
31.508  34.170  90.013 
31.893  33.353  90.543 
32.504  33.242  90.052 
31.742  32.833  89.827 
33.306  32.184  90.371 
33.149  31.628  89.597 
33.792  31.419  90.406 
34.014  31.115  89.703 
34.515  30.510  90.106 
32.452  31.105  87.956 
34.857  29.780  89.744 
37.009  25.257  87.925 
35.834  27.502  87.948 
34.243  23.539  83.879 
38.591  28.019  90.741 
35.707  26.683  87.956 
39.211  24.223  88.383 
38.415  29.287  91.480 
37.218  23.645  86.127 
40.250  23.447  88.032 
42.405  25.593  92.756 
44.412  22.820  89.851 
37.270  24.937  88.212 
41.490  24.683  91.160 
44.822  21.973  88.896 
44.612  23.131  91.208 
46.433  22.699  89.773 
43.921  21.306  87.618 
45.649  21.282  88.289 
47.240  22.193  90.383 
47.337  20.798  87.699 
46.807  21.041  88.426 
47.829  20.958  88.530 
50.092  19.256  86.947 
48.267  20.502  86.706 
47.410  21.773  88.902 
56.934  18.362  87.603 
52.313  19.662  88.211 
54.637  16.815  84.323 
53.286  19.041  87.354 
49.908  20.886  90.231 
54.490  17.690  86.154 
51.301  20.237  88.531 
57.300  22.880  93.834 
58.050  17.775  86.789 
55.555  21.664  92.702 
61.776  21.759  92.409 
67.300  21.673  91.620 
63.689  19.076  89.200 
65.390  21.146  90.944 
63.901  18.269  88.253 
65.012  15.910  84.468 
62.088  19.714  90.097 
65.853  15.740  82.291 
59.692  23.016  92.840 
62.273  20.658  90.997 
71.814  19.270  87.278 
70.253  18.482  86.298 
66.479  16.021  83.472 
70.744  20.360  88.969 
71.341  18.129  85.335 
71.975  20.056  87.768 
67.687  19.889  89.778 
82.014  22.534  85.552 
78.623  25.754  91.655 
78.671  25.102  91.068 
76.537  22.920  89.559 
74.223  21.798  89.321 
77.236  24.409  89.574 
80.803  24.388  89.336 
77.097  21.731  87.514 
81.477  25.246  89.373 
73.863  22.405  89.818 
84.899  25.476  87.139 
81.542  22.471  86.787 
83.894  23.802  86.361 
83.816  29.270  91.703 
84.373  28.964  90.133 
83.732  26.821  89.416 
83.528  24.154  86.926 
84.455  28.872  91.067 
85.970  27.587  88.238 
86.635  27.530  87.151 
86.105  28.516  87.898 
87.689  28.586  86.693 
87.011  28.529  87.424 
87.458  29.123  87.975 
88.105  30.268  88.279 
88.974  31.777  88.726 
90.207  32.785  87.761 
89.318  32.998  89.464 
90.807  33.678  89.099 
90.784  32.350  86.396 
90.162  33.925  89.701 
91.960  37.359  90.397 
92.205  33.981  88.099 
91.529  35.927  90.320 
88.485  33.442  90.863 
94.162  39.073  89.534 
92.383  35.481  88.705 
90.264  33.755  89.037 
93.034  40.529  91.510 
95.189  42.860  91.024 
96.844  44.319  87.490 
95.858  43.742  89.372 
95.980  45.518  90.581 
95.061  41.197  90.033 
96.478  46.577  89.452 
96.421  40.448  87.343 
97.371  44.314  87.303 
97.691  47.378  88.792 
97.967  45.589  87.130 
98.731  47.730  87.529 
99.510  49.671  87.041 
98.800  48.936  86.937 
98.542  50.109  88.465 
98.928  49.832  87.493 
97.324  48.254  89.032 
98.894  51.637  88.479 
98.961  52.374  88.406 
99.521  52.317  87.916 
98.565  52.834  89.050 
98.870  53.865  88.749 
99.790  55.083  88.472 
99.812  54.486  88.492 
100.108  55.970  88.220 
100.483  56.410  87.651 
100.003  58.628  87.927 
99.263  59.447  89.748 
100.898  59.475  85.834 
101.100  58.498  85.803 
99.588  61.564  88.815 
99.935  60.234  88.486 
100.400  61.655  87.016 
101.730  63.267  85.412 
100.891  61.677  86.859 
100.450  65.692  87.820 
99.920  63.372  88.038 
101.440  67.291  86.098 
102.393  65.878  83.468 
100.044  66.919  88.729 
99.406  68.573  88.751 
103.333  69.742  82.122 
101.293  71.360  84.683 
98.702  68.097  90.250 
96.229  74.437  90.942 
98.949  72.994  88.121 
95.161  78.899  89.228 
96.230  77.834  88.847 
99.010  72.093  87.964 
95.724  74.963  91.704 
96.701  77.441  87.729 
94.093  77.462  91.584 
94.976  82.366  86.439 
97.615  77.303  87.616 
95.494  80.175  87.290 
96.596  80.434  85.760 
95.307  80.813  86.293 
94.653  82.420  85.744 
94.353  82.708  87.007 
90.714  84.992  88.774 
92.339  85.802  86.852 
90.773  83.147  89.786 
91.628  85.775  87.387 
90.068  84.397  89.143 
90.784  85.367  87.877 
89.361  87.203  87.143 
87.332  88.261  88.802 
86.497  88.333  89.351 
88.734  86.262  89.379 
88.846  90.268  84.866 
86.264  87.391  90.142 
88.540  89.476  85.615 
87.066  89.890  86.335 
86.097  90.445  87.469 
84.268  91.535  88.930 
87.851  90.772  84.039 
84.896  91.002  87.712 
84.074  92.483  87.348 
83.613  92.119  87.498 
76.371  93.778  90.403 
81.645  94.693  87.204 
80.676  96.319  86.253 
78.213  91.409  92.742 
78.789  92.953  90.375 
77.651  97.927  84.535 
77.666  93.782  89.160 
79.710  95.102  87.995 
78.459  97.926  84.361 
75.174  93.523  91.102 
73.873  94.609  90.630 
72.318  95.931  89.544 
71.695  96.111  88.787 
74.510  97.429  86.871 
71.524  97.324  88.582 
71.086  98.286  87.306 
71.615  98.038  87.799 
70.096  97.930  88.354 
69.926  97.575  89.037 
68.458  98.239  88.359 
68.929  98.271  87.694 
67.667  98.406  87.729 
67.021  98.404  87.801 
66.243  98.459  88.211 
65.665  99.034  87.731 
64.928  99.893  87.682 
63.825  98.576  88.675 
58.848  98.791  89.412 
62.644  101.240  86.023 
62.238  103.135  83.485 
61.468  98.942  88.885 
62.812  98.376  88.998 
56.325  100.181  87.411 
58.645  96.508  92.835 
53.492  101.610  86.193 
58.071  99.302  89.030 
57.811  98.044  90.769 
52.881  102.753  84.255 
57.534  99.750  87.739 
51.602  100.814  86.992 
48.946  100.223  86.556 
47.262  97.445  88.614 
52.023  97.713  90.499 
55.257  100.714  87.041 
48.114  97.950  89.071 
47.554  98.168  88.185 
48.597  98.231  89.509 
44.835  103.670  78.693 
46.778  97.296  89.211 
45.277  96.867  88.884 
45.932  97.274  88.684 
45.101  97.608  87.831 
43.886  95.123  89.454 
44.136  97.186  87.194 
44.311  95.940  88.406 
42.546  95.299  89.216 
41.237  95.241  88.569 
42.066  96.014  87.880 
42.217  95.734  88.651 
41.836  94.978  89.054 
40.155  94.273  88.035 
41.060  94.713  88.649 
38.713  93.643  88.905 
37.532  92.451  89.390 
33.076  91.366  89.263 
37.758  94.689  87.175 
34.241  89.999  90.158 
34.382  90.366  90.757 
34.094  89.036  91.084 
33.412  89.310  90.841 
29.573  92.608  83.788 
30.686  89.286  88.082 
31.425  89.346  88.822 
30.371  89.808  86.997 
28.629  88.861  87.247 
30.744  89.991  87.733 
30.714  90.170  86.901 
26.661  81.694  89.392 
30.000  83.269  91.532 
29.947  81.175  92.205 
28.133  81.464  90.213 
28.825  81.177  91.270 
24.987  84.008  87.134 
26.330  79.603  90.023 
24.231  78.224  88.298 
21.162  78.555  84.915 
26.593  78.160  91.298 
27.030  79.334  90.680 
24.234  76.525  89.679 
24.791  75.581  89.936 
24.103  74.031  90.337 
24.381  75.007  90.147 
23.778  73.336  90.462 
22.993  72.513  89.552 
23.311  71.502  90.919 
23.552  69.944  90.574 
21.949  70.719  89.423 
22.961  71.816  90.370 
22.623  70.598  89.725 
22.430  69.093  89.698 
22.511  69.573  89.989 
22.781  67.739  90.878 
22.733  68.265  90.182 
22.178  67.668  90.405 
21.204  65.187  90.534 
19.996  62.832  88.418 
22.117  65.396  91.409 
20.914  63.613  89.708 
21.025  62.055  90.167 
20.486  61.190  90.187 
20.508  61.968  89.420 
21.666  62.075  91.562 
20.828  58.823  89.533 
21.054  58.401  90.416 
21.284  57.568  90.830 
20.430  55.685  89.438 
22.378  56.977  91.427 
19.767  54.983  88.973 
21.363  53.739  90.603 
20.873  55.441  90.140 
20.522  53.681  89.462 
21.266  51.939  89.247 
18.868  55.432  87.954 
21.427  51.284  89.913 
21.323  52.567  89.875 
21.520  50.984  89.124 
21.200  50.114  89.282 
26.112  46.005  94.318 
20.562  40.964  85.197 
22.509  46.411  90.266 
17.856  46.829  84.758 
24.957  43.375  91.539 
24.260  43.903  91.453 
22.414  43.671  89.549 
24.910  45.848  93.251 
27.334  40.952  92.264 
24.898  41.973  90.683 
23.645  40.840  88.118 
23.746  42.346  89.306 
26.126  39.608  90.019 
25.652  39.576  89.862 
27.299  37.698  90.098 
27.991  37.930  90.989 
28.114  37.212  90.107 
28.312  36.527  89.860 
29.689  35.842  90.659 
27.843  36.124  88.709 
29.012  36.577  89.561 
29.794  34.363  89.533 
31.134  33.333  89.452 
31.852  33.158  89.338 
31.065  32.577  88.583 
32.440  32.401  89.558 
33.224  31.544  89.057 
33.644  30.919  89.065 
33.530  31.060  90.075 
34.846  30.513  89.652 
34.028  30.366  89.651 
35.139  26.066  86.367 
33.469  23.857  83.517 
34.945  27.167  87.788 
37.995  24.676  86.818 
38.119  24.607  88.056 
34.324  27.127  87.181 
36.129  28.077  89.647 
41.070  23.273  87.419 
39.840  24.134  88.575 
38.248  24.042  86.913 
40.535  24.180  88.325 
46.263  27.172  94.947 
36.867  26.407  88.988 
43.472  21.947  87.813 
45.148  21.504  88.024 
40.833  24.298  89.511 
40.141  22.791  86.887 
43.523  22.601  87.323 
45.191  20.956  87.397 
46.203  21.424  87.596 
46.486  20.564  87.410 
46.706  20.611  86.696 
48.507  19.602  86.659 
52.227  20.254  88.807 
49.880  21.199  88.887 
50.624  21.195  90.497 
51.235  19.256  87.740 
53.397  20.476  89.778 
50.434  18.122  85.292 
55.007  16.013  82.585 
54.081  21.850  91.644 
54.169  18.155  87.207 
57.336  16.929  85.320 
54.306  17.136  85.248 
60.829  21.138  91.249 
65.431  18.742  87.562 
56.920  17.206  86.073 
59.136  16.208  83.638 
61.281  21.565  91.859 
61.683  18.926  89.260 
68.962  19.534  88.439 
60.032  20.464  90.977 
59.555  20.494  90.367 
60.578  20.265  89.892 
68.362  17.677  86.066 
60.330  20.019  90.289 
71.710  18.541  86.178 
76.129  23.497  90.391 
66.949  16.410  82.877 
68.874  18.061  85.404 
77.101  20.903  87.030 
72.829  18.234  85.799 
72.849  21.284  89.097 
71.224  16.671  82.997 
73.393  19.757  87.283 
73.140  20.652  88.618 
76.708  22.139  88.866 
75.095  18.566  83.902 
74.057  20.241  86.795 
82.043  23.256  87.581 
81.262  22.413  85.879 
74.306  18.421  84.791 
80.038  24.918  89.826 
84.858  26.483  87.934 
77.735  23.515  89.606 
85.407  24.660  84.321 
83.954  22.837  84.237 
85.261  27.380  88.342 
84.532  27.782  89.004 
85.252  25.635  86.622 
84.807  24.721  86.089 
85.542  26.890  87.590 
85.343  26.507  86.239 
87.001  27.751  86.462 
86.602  27.961  87.623 
87.076  28.164  87.120 
87.638  29.079  87.475 
88.134  29.841  87.058 
89.009  30.410  87.322 
89.223  31.119  87.931 
89.710  31.133  87.091 
91.890  32.740  86.404 
90.199  31.310  86.510 
88.333  31.900  89.255 
95.433  38.544  87.469 
91.203  33.799  88.353 
91.677  37.270  91.183 
93.228  35.624  87.027 
92.139  35.930  88.774 
94.962  41.623  90.923 
90.639  41.428  93.300 
95.633  39.680  86.564 
94.713  36.115  86.514 
95.184  37.740  87.657 
92.899  42.901  92.597 
97.776  41.331  85.977 
97.987  42.361  86.080 
94.407  42.992  91.392 
96.632  40.858  86.606 
95.328  41.523  89.641 
96.673  46.621  88.539 
97.492  46.373  87.562 
99.208  46.671  86.066 
98.565  48.141  88.034 
98.666  47.300  86.836 
98.564  48.545  86.340 
99.731  51.062  87.253 
99.992  50.101  86.461 
100.132  51.416  86.603 
99.423  51.854  87.820 
99.063  51.689  87.092 
99.270  52.870  88.556 
99.706  53.653  88.399 
100.331  54.497  87.842 
99.576  55.190  89.234 
99.946  56.163  89.109 
100.693  57.072  87.417 
101.067  56.729  87.118 
100.460  58.659  88.151 
99.394  58.700  88.433 
99.644  59.930  89.098 
100.614  59.599  86.550 
99.581  59.908  88.241 
101.894  62.451  85.813 
100.525  60.840  87.297 
99.649  64.282  87.966 
97.981  66.474  90.560 
102.498  64.926  82.831 
101.056  68.241  85.718 
102.135  64.950  84.621 
100.816  67.579  86.148 
98.813  63.050  89.704 
100.629  66.588  87.338 
98.772  66.746  90.322 
99.509  68.218  89.304 
104.388  62.599  79.479 
101.152  72.205  84.861 
96.346  74.212  90.288 
98.609  69.301  89.259 
98.204  71.814  89.269 
97.519  77.851  86.657 
96.278  76.067  88.992 
92.502  74.863  94.612 
96.465  77.049  88.596 
96.967  79.692  86.214 
97.498  78.899  85.335 
93.987  78.083  89.990 
96.737  79.256  85.094 
95.832  78.507  87.974 
92.787  79.755  91.219 
92.892  82.606  87.881 
90.960  84.299  88.924 
94.531  83.871  84.966 
95.424  79.292  87.709 
90.123  87.860  86.198 
87.782  87.301  88.372 
92.138  85.932  86.206 
91.276  87.092  85.030 
89.336  89.509  85.145 
90.518  88.202  85.119 
89.060  90.026  84.427 
86.734  88.873  89.003 
85.586  87.506  90.600 
86.740  89.288  87.390 
88.000  89.873  85.035 
86.471  91.621  85.557 
85.497  88.332  89.801 
83.733  91.809  88.343 
85.179  90.113  89.063 
82.351  93.274  87.683 
81.487  93.028  89.214 
82.029  92.853  87.981 
80.763  93.796  89.002 
85.255  91.291  87.875 
76.750  96.843  86.265 
80.657  95.164  87.020 
80.461  94.485  88.080 
76.586  93.038  91.274 
79.422  97.769  84.349 
78.461  95.941  87.238 
77.241  93.284  90.562 
73.431  94.171  90.840 
78.314  96.973  86.049 
75.791  96.373  86.942 
72.269  96.774  88.564 
75.479  95.859  87.918 
73.979  97.143  87.467 
71.647  98.509  86.837 
69.744  98.506  87.904 
70.755  98.445  86.953 
69.253  98.230  88.482 
68.912  98.926  87.056 
67.987  98.630  87.109 
67.448  98.996  87.154 
66.383  98.782  87.833 
66.097  99.606  87.025 
65.362  99.859  87.506 
63.306  99.143  87.647 
64.025  100.097  87.458 
62.622  101.752  85.305 
57.032  102.167  84.625 
59.739  100.839  86.700 
57.414  101.173  86.623 
60.263  102.336  84.531 
57.743  100.385  86.316 
56.249  101.275  86.281 
54.877  101.264  86.847 
54.504  100.308  88.440 
58.825  99.286  88.338 
55.028  100.852  86.118 
53.171  102.087  85.776 
51.284  101.720  85.351 
55.934  99.195  89.777 
50.845  100.246  87.309 
52.029  96.789  91.688 
46.936  98.782  87.673 
46.857  101.033  83.826 
49.873  98.821  89.077 
47.120  98.052  87.780 
45.246  99.536  86.015 
41.559  101.552  79.249 
49.107  98.037  89.384 
42.439  101.990  79.830 
43.340  97.442  86.807 
44.443  97.032  88.458 
43.610  96.380  88.420 
44.712  98.382  86.684 
43.301  96.925  88.046 
40.588  95.221  87.999 
42.830  96.994  87.554 
42.669  97.297  86.877 
40.717  93.729  89.188 
35.913  93.479  88.474 
37.466  94.148  87.896 
39.096  95.454  87.273 
38.433  96.403  85.753 
32.700  89.358  90.305 
34.981  92.851  87.544 
32.139  89.860  89.856 
35.407  92.816  88.367 
32.350  90.177  89.214 
34.341  88.668  91.733 
31.485  90.153  87.640 
29.280  87.581  89.340 
30.096  88.570  88.972 
27.735  85.674  88.230 
28.035  86.650  86.793 
30.970  90.864  87.320 
27.732  89.072  85.324 
28.969  84.028  90.375 
28.371  83.777  89.746 
26.818  80.945  88.920 
25.940  81.380  88.147 
27.986  81.095  91.101 
27.530  79.342  90.870 
26.066  79.112  89.974 
21.968  76.375  86.110 
24.822  79.476  88.412 
25.460  80.555  87.981 
23.030  75.905  87.841 
23.227  75.217  89.456 
23.908  76.258  89.025 
20.579  73.655  86.907 
23.518  74.672  89.974 
23.229  73.348  89.603 
23.124  74.438  89.620 
22.414  73.123  89.454 
22.864  71.613  89.722 
21.896  72.588  88.030 
21.992  71.370  89.328 
21.826  70.949  88.633 
21.597  68.159  89.741 
22.607  69.133  90.586 
19.832  66.317  88.064 
21.576  67.137  90.508 
20.968  68.960  88.753 
18.424  64.856  86.813 
20.192  64.624  88.458 
20.929  64.867  88.958 
16.672  62.449  84.984 
20.167  61.159  89.309 
19.362  60.992  88.966 
19.150  61.542  87.601 
18.884  59.311  88.563 
21.098  61.704  90.577 
18.366  62.059  86.992 
21.130  58.772  91.037 
18.881  59.821  88.398 
21.165  56.541  90.471 
21.899  57.521  90.907 
18.877  55.937  88.164 
20.380  55.015  89.685 
20.617  56.192  89.948 
20.110  54.344  89.174 
20.777  53.065  88.966 
20.234  52.848  88.334 
20.239  51.752  87.878 
20.763  49.551  88.738 
21.706  50.132  89.639 
22.011  49.185  90.068 
23.740  44.310  90.272 
20.797  44.686  87.312 
19.210  46.089  86.833 
19.531  49.706  87.806 
25.031  47.416  93.776 
23.713  42.617  89.923 
22.003  42.946  87.571 
24.957  44.590  92.644 
22.133  44.802  89.331 
22.897  46.279  90.864 
26.330  40.990  91.486 
25.717  40.712  89.767 
24.656  36.508  85.799 
27.055  39.365  91.196 
25.360  38.885  88.653 
26.673  38.791  89.407 
28.093  38.073  89.893 
27.083  38.033  89.788 
27.918  35.942  89.375 
29.727  35.990  89.684 
29.437  35.313  89.910 
30.609  33.816  89.743 
31.515  33.023  88.972 
30.566  33.154  89.124 
32.276  31.865  89.316 
31.229  31.800  88.100 
32.795  31.466  88.850 
33.200  29.856  88.282 
33.184  30.816  89.289 
32.810  30.879  88.533 
34.062  29.408  88.387 
33.752  29.943  89.074 
33.063  30.100  88.737 
35.356  28.774  89.115 
35.389  29.269  89.754 
34.542  25.741  86.027 
36.088  23.144  84.011 
38.950  22.603  85.351 
38.651  27.255  91.036 
36.934  24.678  86.999 
31.639  25.050  82.907 
37.915  23.924  86.500 
41.923  24.043  90.245 
40.925  24.771  89.051 
42.132  23.206  89.183 
39.217  24.554  87.392 
43.241  21.066  85.993 
43.366  21.707  87.056 
42.914  21.985  86.461 
45.085  21.307  86.579 
45.772  20.743  87.595 
47.286  20.184  87.119 
47.630  20.283  86.692 
47.181  19.668  85.614 
47.694  19.717  86.366 
54.389  19.364  88.173 
51.208  21.057  90.463 
51.866  20.912  89.875 
51.020  18.404  84.612 
52.383  22.520  92.018 
55.371  20.631  91.436 
56.211  16.325  84.878 
55.997  19.670  89.182 
54.605  20.214  89.142 
57.944  16.246  84.451 
58.455  16.509  85.179 
59.644  19.598  89.011 
55.438  15.278  82.403 
60.548  16.562  84.685 
62.636  21.886  92.170 
65.551  17.984  87.430 
61.685  15.224  82.989 
69.353  20.177  88.953 
64.886  20.694  90.256 
68.405  21.172  90.580 
66.830  20.582  90.194 
65.660  22.725  91.984 
66.379  19.508  88.959 
65.423  15.085  82.516 
67.350  19.021  87.826 
76.085  21.762  88.244 
72.777  16.965  83.143 
67.436  19.154  88.344 
72.633  18.156  84.876 
72.753  17.459  83.711 
66.912  17.344  85.425 
74.090  20.703  88.582 
74.038  21.226  88.637 
75.306  19.668  86.339 
75.832  21.332  88.403 
75.004  20.309  87.027 
76.600  20.386  86.374 
78.064  23.192  89.434 
77.047  24.773  90.883 
84.557  24.224  85.431 
78.625  20.081  85.613 
83.195  24.841  88.139 
82.912  23.550  86.610 
85.225  21.783  81.267 
80.351  23.566  88.833 
84.509  25.720  87.690 
84.209  22.442  84.579 
85.430  26.238  86.979 
85.571  27.346  86.848 
86.041  26.886  86.769 
86.294  27.095  87.235 
87.044  27.428  85.690 
87.409  27.981  86.290 
87.723  29.626  86.808 
88.582  29.562  86.466 
89.842  30.388  86.123 
89.036  30.056  86.508 
89.624  31.967  88.271 
89.540  29.913  85.274 
91.800  33.000  87.149 
92.455  37.871  90.622 
91.052  31.550  86.231 
93.229  34.210  86.073 
92.871  41.712  91.910 
91.706  35.224  87.914 
95.745  39.788  87.493 
89.887  33.313  90.202 
95.420  36.818  85.688 
94.452  37.653  88.157 
94.015  37.699  88.768 
93.865  40.030  90.183 
95.877  44.517  89.694 
95.993  38.245  85.673 
96.584  44.647  88.099 
96.504  41.244  87.810 
95.874  43.246  89.852 
97.510  43.170  87.301 
98.167  46.171  86.680 
97.994  47.821  88.179 
98.481  47.001  86.504 
98.942  47.957  86.606 
98.397  48.214  87.145 
99.543  49.247  86.837 
97.912  49.080  89.028 
99.444  50.355  87.026 
100.041  50.908  86.624 
98.572  53.266  88.787 
99.680  52.808  87.923 
99.934  54.199  87.629 
100.467  53.652  86.742 
100.306  53.832  87.576 
100.046  55.058  87.390 
99.841  55.729  87.649 
101.106  56.829  86.112 
101.265  57.591  86.312 
100.099  57.177  87.256 
100.220  59.065  87.193 
99.878  59.364  88.323 
101.100  57.679  86.815 
100.589  61.152  86.612 
100.681  60.390  86.107 
101.209  63.842  86.045 
103.634  66.267  82.068 
100.226  64.258  87.095 
101.372  61.801  86.020 
101.676  69.509  84.539 
102.600  68.117  82.655 
101.776  63.931  84.376 
99.728  67.124  87.905 
100.609  69.581  87.146 
98.528  74.725  88.304 
100.895  67.319  87.444 
101.494  72.688  84.089 
102.546  70.946  84.201 
100.123  69.551  87.841 
101.232  66.969  86.814 
95.883  74.526  91.553 
99.087  73.994  87.305 
95.322  75.750  91.228 
98.367  75.896  87.186 
99.439  72.733  87.790 
95.035  81.812  84.957 
97.650  76.523  88.089 
97.519  78.289  85.614 
96.838  78.624  86.655 
95.799  80.791  86.516 
94.550  78.776  89.024 
93.022  83.784  86.414 
96.228  78.389  87.192 
94.292  83.115  85.050 
92.862  84.745  85.709 
94.664  80.852  87.035 
94.474  82.056  87.509 
93.317  84.028  87.070 
92.532  85.595  85.570 
89.525  86.883  88.252 
89.030  89.171  86.305 
86.242  89.415  88.426 
86.324  89.873  88.189 
88.866  89.829  84.026 
89.481  86.197  88.625 
85.919  93.489  82.935 
85.765  89.450  88.849 
87.995  90.147  85.941 
85.674  90.531  87.899 
89.066  86.983  87.985 
87.241  88.512  87.691 
84.565  91.886  87.062 
85.449  90.913  87.034 
84.377  90.700  88.983 
77.121  94.533  88.213 
81.960  93.219  89.128 
85.065  92.657  85.979 
79.745  93.770  88.373 
78.951  96.580  84.983 
76.409  94.352  89.771 
82.291  95.555  86.244 
79.243  95.843  87.623 
74.184  94.984  89.061 
76.204  95.358  87.724 
73.187  95.490  90.081 
73.812  96.739  88.143 
75.915  96.867  86.681 
75.414  97.173  86.726 
72.293  96.853  87.362 
71.972  98.076  87.480 
70.701  97.775  87.398 
70.388  97.910  87.727 
69.125  98.623  86.604 
68.124  99.180  87.012 
68.670  99.079  86.597 
66.880  99.463  86.574 
67.313  99.952  86.229 
65.896  100.085  86.850 
64.605  100.160  87.062 
63.212  99.749  87.270 
63.838  100.265  87.021 
64.030  100.730  86.864 
61.562  102.036  85.128 
58.870  100.065  87.756 
55.692  100.800  86.836 
57.999  97.354  92.191 
58.909  99.973  86.564 
58.166  98.758  89.570 
59.605  101.155  85.373 
55.996  100.049  88.008 
58.338  101.586  85.077 
50.469  99.284  88.808 
51.266  97.025  91.406 
51.447  99.603  87.615 
55.305  100.296  87.344 
48.155  99.636  86.646 
53.760  100.828  86.949 
49.141  100.612  86.857 
46.591  101.063  84.508 
46.597  99.832  86.610 
45.319  99.364  85.138 
44.709  100.151  84.903 
48.539  98.429  88.217 
44.396  98.743  86.640 
47.239  99.393  86.733 
45.194  99.075  86.821 
46.434  99.005  86.911 
44.113  97.956  87.159 
43.770  97.148  87.553 
43.204  98.488  86.334 
43.173  97.949  86.734 
41.523  96.446  87.474 
40.345  96.140  86.237 
41.743  95.205  88.166 
39.487  94.746  88.124 
40.746  96.021  87.532 
38.498  91.771  90.374 
37.463  93.981  87.097 
37.369  96.100  85.413 
38.456  94.855  87.709 
36.583  93.757  87.657 
35.774  92.125  89.236 
34.686  92.872  87.924 
33.053  92.644  87.037 
33.044  91.942  88.149 
32.048  89.066  90.022 
29.495  91.544  84.755 
31.716  90.059  89.181 
30.702  89.058  89.200 
28.969  85.609  89.280 
28.161  86.702  87.470 
26.906  80.347  89.647 
31.138  85.978  91.397 
25.444  79.710  88.502 
25.898  84.420  86.574 
25.908  80.853  88.720 
26.417  80.767  89.273 
24.542  77.734  88.927 
25.702  78.723  89.840 
24.936  78.056  88.937 
25.323  79.245  89.242 
26.023  83.138  87.469 
23.518  79.089  86.476 
23.505  76.038  89.164 
23.412  74.963  89.003 
17.977  73.925  83.467 
24.455  74.489  90.848 
23.392  73.870  90.382 
22.885  74.845  88.767 
21.051  72.731  87.958 
22.154  74.102  87.483 
21.711  69.077  89.544 
22.684  72.359  89.968 
21.952  69.582  88.737 
21.218  65.577  89.778 
22.892  67.838  91.687 
19.014  68.251  87.225 
20.287  67.285  88.687 
21.471  67.636  90.002 
22.745  65.772  91.048 
20.596  60.594  89.203 
20.780  65.319  89.242 
20.238  62.393  89.570 
19.146  64.612  87.431 
19.973  61.985  88.492 
18.927  62.262  87.617 
20.303  57.973  89.446 
21.363  59.901  90.552 
20.708  57.746  90.439 
20.842  58.106  90.840 
19.809  58.596  89.375 
18.535  57.326  87.787 
17.282  57.686  86.520 
20.170  56.559  88.663 
18.613  58.993  87.560 
19.867  53.493  88.749 
18.841  54.758  87.890 
20.459  51.929  88.581 
19.032  50.941  87.282 
19.448  54.155  88.095 
20.619  48.729  89.135 
19.294  44.524  85.952 
22.254  45.969  90.475 
21.549  43.733  87.823 
22.769  48.140  90.389 
24.795  44.228  91.658 
20.807  44.445  88.028 
26.375  45.017  93.548 
19.544  44.868  86.669 
19.037  47.792  87.035 
24.054  41.295  89.562 
22.387  47.247  90.045 
22.779  41.555  88.018 
23.249  46.073  91.638 
24.841  33.089  83.718 
26.055  38.871  89.590 
24.667  35.331  85.600 
25.929  36.784  87.064 
26.529  38.592  90.014 
25.352  35.026  86.012 
27.432  36.404  88.804 
27.264  37.190  89.258 
28.486  36.044  88.952 
28.920  35.972  89.595 
29.751  33.457  87.812 
30.254  33.087  88.348 
31.111  32.480  87.835 
31.888  32.298  88.226 
33.808  28.253  87.778 
31.448  31.371  88.027 
31.025  28.655  85.629 
32.385  30.691  88.708 
34.509  29.224  89.209 
33.393  29.097  88.005 
32.407  30.031  88.058 
33.782  26.561  86.819 
36.271  22.026  81.991 
35.108  27.708  87.408 
35.607  24.522  85.044 
36.420  25.072  87.446 
35.249  24.933  86.510 
30.031  26.974  83.466 
37.739  25.317  88.191 
39.093  20.800  82.581 
36.975  21.670  82.720 
40.851  21.578  85.420 
39.770  23.299  87.198 
41.565  22.447  87.490 
40.442  25.797  90.665 
42.211  23.313  88.164 
43.748  20.962  85.098 
44.708  20.956  87.348 
44.489  20.573  85.951 
45.516  20.436  86.807 
46.928  20.041  85.860 
45.986  20.288  86.592 
46.738  19.782  86.393 
48.541  19.037  84.883 
50.299  18.643  86.458 
49.717  18.688  85.754 
49.286  18.776  85.215 
50.076  18.037  83.691 
52.647  20.417  89.650 
53.753  14.041  79.184 
55.504  16.694  85.149 
56.271  14.879  82.204 
53.580  23.296  93.622 
53.804  17.222  84.616 
56.744  20.503  90.395 
57.436  18.594  87.943 
56.717  15.012  81.876 
56.660  18.774  87.765 
63.575  21.662  92.181 
59.595  17.269  86.299 
62.507  15.090  81.882 
63.760  20.519  90.374 
66.266  18.116  87.305 
68.871  20.697  89.049 
69.852  19.649  88.351 
65.538  20.972  89.912 
70.259  21.400  89.486 
69.837  18.718  85.983 
72.680  17.791  84.399 
73.970  17.991  83.887 
70.702  18.684  87.028 
71.984  18.925  85.482 
66.053  17.208  85.446 
65.827  15.717  81.320 
66.975  16.859  85.466 
67.152  15.479  81.186 
78.569  20.275  84.230 
74.018  18.054  84.729 
78.177  22.609  88.940 
82.265  25.449  89.671 
73.650  19.215  86.138 
82.001  21.418  84.247 
80.336  21.424  85.963 
82.402  22.456  85.268 
79.154  22.039  87.707 
84.756  26.191  86.975 
79.615  23.749  88.989 
83.403  23.799  85.677 
82.401  20.872  82.499 
81.029  23.256  88.344 
81.792  21.825  85.474 
85.992  26.119  85.912 
86.374  25.993  85.166 
86.273  26.882  85.875 
86.662  27.007  86.301 
87.283  27.005  85.891 
87.948  27.733  85.135 
87.663  28.541  85.790 
89.061  29.987  85.458 
89.626  30.685  86.589 
90.829  32.580  87.983 
89.062  30.692  86.748 
92.099  31.103  84.197 
92.134  33.735  87.476 
92.570  39.319  91.223 
91.516  33.953  87.343 
91.972  32.934  85.709 
91.889  31.938  85.659 
90.961  35.311  89.209 
93.404  34.294  86.730 
94.495  34.875  85.444 
95.057  36.137  85.608 
96.282  38.667  86.483 
92.144  33.541  86.616 
95.058  39.272  86.964 
91.651  38.807  92.017 
95.380  42.696  90.531 
94.890  40.610  89.370 
96.303  41.198  88.683 
98.406  44.617  86.246 
94.165  40.924  90.504 
97.260  43.502  86.309 
98.940  45.404  86.096 
99.016  46.316  86.367 
99.408  45.982  85.392 
99.215  45.744  85.900 
98.848  47.599  85.965 
99.389  48.680  86.251 
100.296  49.955  85.646 
99.673  49.441  86.121 
99.674  51.816  86.502 
100.324  52.287  86.465 
99.900  53.136  86.945 
100.222  53.100  86.240 
100.952  53.411  86.056 
100.838  54.639  87.048 
100.627  55.558  86.889 
100.038  55.638  88.575 
101.148  56.327  86.780 
100.565  55.976  87.211 
100.665  57.852  87.594 
101.772  57.888  85.637 
101.274  58.278  86.263 
100.794  60.251  86.943 
101.441  60.021  86.168 
100.045  60.051  87.184 
101.841  69.407  85.964 
101.230  62.682  85.898 
101.490  60.774  85.853 
103.212  66.355  81.147 
100.550  64.305  87.547 
102.943  63.116  83.474 
102.487  64.320  84.225 
102.424  66.709  83.564 
105.073  66.031  78.931 
101.749  71.839  84.328 
104.053  68.555  80.989 
103.586  66.789  81.312 
102.032  70.451  84.049 
96.959  74.901  89.536 
94.257  74.732  93.387 
98.882  72.382  87.284 
98.017  70.918  89.269 
95.610  73.143  91.826 
99.429  73.528  86.800 
96.956  74.148  90.271 
95.354  76.701  90.450 
97.506  78.623  86.134 
98.310  77.028  86.842 
101.247  75.363  82.915 
96.537  77.506  89.013 
96.561  79.059  85.955 
94.619  82.856  83.722 
93.525  77.778  90.984 
95.096  82.444  84.201 
91.994  85.383  84.936 
89.690  86.142  87.711 
93.923  81.990  88.150 
91.866  86.268  85.476 
92.704  85.067  85.227 
88.183  87.003  88.611 
88.919  88.103  86.045 
88.546  89.688  86.402 
89.118  87.877  87.229 
88.258  91.398  83.276 
89.681  88.247  85.431 
86.969  92.127  84.272 
88.151  89.211  86.478 
87.599  89.113  87.067 
86.213  92.895  83.534 
84.602  89.124  90.303 
85.474  92.567  85.422 
87.894  89.679  85.927 
81.342  94.532  87.869 
80.340  92.068  90.603 
77.672  94.748  88.469 
79.928  95.757  87.324 
80.373  95.502  86.391 
77.382  98.649  84.465 
79.541  94.218  88.384 
76.164  96.154  86.405 
75.733  95.821  88.316 
75.722  92.711  91.897 
78.008  95.704  87.168 
74.235  94.139  90.198 
75.742  94.727  89.609 
75.434  97.418  85.550 
74.931  98.112  85.673 
71.550  97.474  87.700 
72.689  97.554  87.304 
73.330  98.009  86.314 
71.881  98.768  86.420 
70.044  99.452  86.055 
69.822  98.376  87.277 
69.261  99.541  86.067 
68.569  100.047  85.824 
67.937  99.342  86.421 
66.601  100.336  86.425 
65.771  100.607  86.414 
65.079  100.544  86.897 
65.100  100.663  85.844 
64.006  99.418  87.428 
63.468  101.525  85.517 
61.150  103.182  83.039 
59.177  100.665  86.799 
59.775  99.907  87.738 
59.306  104.339  81.229 
58.410  99.780  88.038 
59.188  100.387  87.238 
61.556  102.888  83.972 
51.795  103.826  82.652 
51.095  103.406  83.360 
52.401  102.243  85.397 
49.164  103.271  83.149 
47.874  102.537  83.057 
49.431  99.018  88.838 
50.822  104.001  81.780 
49.602  101.859  84.686 
52.886  99.969  88.707 
46.764  101.496  83.058 
52.255  98.338  90.027 
47.241  101.605  84.767 
45.294  102.478  80.199 
45.109  104.176  78.029 
45.593  98.778  87.382 
43.823  98.856  85.874 
45.635  98.008  87.442 
45.780  97.715  88.317 
45.640  102.762  80.960 
43.920  99.863  84.832 
43.852  98.159  86.178 
42.954  97.832  86.069 
42.272  97.665  86.558 
42.048  96.941  87.173 
41.477  95.901  86.992 
42.356  96.667  87.593 
40.259  95.007  88.265 
40.672  93.324  89.879 
38.707  94.501  88.076 
38.991  93.274  89.100 
37.544  91.692  89.751 
39.339  95.075  87.175 
34.242  96.148  82.196 
37.976  93.614  88.472 
37.086  94.549  86.484 
32.518  91.734  87.147 
28.661  89.337  85.220 
29.529  89.363  86.897 
30.974  92.485  84.858 
29.911  90.024  86.327 
31.133  91.455  86.315 
28.873  84.443  90.058 
26.593  82.178  88.326 
28.147  81.757  89.644 
25.875  81.658  88.817 
29.028  81.834  90.441 
28.390  81.827  90.812 
22.200  80.310  84.790 
27.521  80.789  90.621 
21.587  79.890  84.239 
25.998  79.151  89.128 
22.315  79.744  84.167 
24.921  78.670  87.996 
26.197  78.191  90.047 
24.852  77.099  89.690 
23.533  76.058  88.314 
25.411  78.380  89.563 
23.547  76.844  88.486 
17.463  75.651  82.179 
23.385  77.624  87.007 
22.476  73.051  88.952 
20.923  70.928  87.799 
22.316  72.052  89.523 
21.110  69.633  89.126 
19.041  71.414  85.456 
20.588  69.751  88.423 
19.928  69.309  87.888 
20.722  68.460  88.099 
21.069  67.002  90.084 
19.234  69.230  86.311 
21.260  68.650  89.514 
21.123  60.841  90.632 
21.350  66.245  90.388 
19.845  62.452  89.074 
18.709  65.836  86.971 
20.121  63.218  89.161 
20.224  58.385  90.067 
20.213  59.152  89.643 
20.576  59.561  90.514 
18.771  62.675  86.938 
20.873  57.437  89.957 
18.464  61.752  86.573 
19.659  57.413  88.356 
19.952  59.988  89.903 
19.575  59.467  89.174 
20.277  57.342  88.895 
19.466  55.780  89.045 
19.067  53.339  87.813 
19.473  53.298  88.453 
17.731  56.548  86.817 
20.495  49.986  88.008 
21.330  49.283  89.558 
19.945  49.183  88.430 
23.517  43.349  89.687 
21.287  47.814  89.481 
19.612  48.621  88.013 
25.531  45.459  92.577 
16.014  50.472  83.553 
25.521  43.954  91.916 
20.610  44.878  88.674 
23.002  43.251  89.783 
20.242  47.420  88.294 
24.408  40.460  88.217 
21.332  43.973  88.659 
19.191  42.776  83.798 
22.385  35.868  82.448 
24.500  33.018  82.913 
24.776  41.059  90.150 
26.163  38.221  89.256 
24.910  38.158  87.572 
21.955  37.905  83.903 
26.699  38.131  88.627 
27.573  37.088  88.515 
26.359  37.247  88.284 
28.118  35.499  88.557 
28.690  35.337  89.295 
29.608  34.074  89.109 
29.881  33.429  88.422 
30.206  33.483  89.087 
31.111  30.341  86.809 
32.777  29.417  87.992 
31.561  29.806  86.423 
31.667  30.241  87.457 
36.381  23.310  84.889 
31.516  27.996  85.307 
33.683  25.856  86.126 
30.940  25.595  83.165 
33.517  27.808  87.255 
32.993  28.524  87.571 
33.612  27.355  86.982 
35.644  29.460  90.652 
35.832  26.066  87.443 
33.274  25.152  85.622 
35.283  21.983  81.159 
35.511  24.244  85.856 
32.598  29.133  86.709 
38.539  22.851  85.532 
35.990  20.813  80.453 
38.124  21.367  83.536 
41.528  22.915  88.334 
39.457  26.072  90.401 
42.923  22.856  88.680 
42.939  20.688  85.239 
42.423  20.875  85.356 
44.413  21.380  86.249 
44.964  21.003  85.778 
45.275  20.270  85.950 
45.259  19.678  85.166 
46.044  20.038  85.805 
46.696  19.557  85.556 
47.768  18.734  84.988 
48.938  18.144  84.633 
50.778  20.023  87.628 
49.095  19.380  85.657 
52.212  17.960  85.018 
50.977  17.857  84.403 
53.744  18.050  85.898 
53.657  14.808  80.906 
53.554  15.376  81.937 
54.070  16.480  82.747 
59.260  15.044  81.568 
55.262  17.717  86.247 
60.556  16.520  85.756 
56.551  15.389  83.214 
60.723  20.847  90.386 
64.484  18.075  87.170 
55.952  18.533  87.893 
62.019  14.207  81.081 
62.750  15.890  84.992 
61.552  16.512  84.670 
62.015  14.414  81.744 
73.326  18.077  84.493 
62.294  18.496  88.047 
65.969  14.364  79.493 
61.823  20.670  90.660 
69.133  17.840  84.999 
74.835  18.033  84.184 
75.904  19.407  84.855 
65.392  15.710  83.081 
68.451  16.272  82.778 
72.693  16.387  82.405 
68.563  16.880  84.681 
69.625  15.673  80.179 
74.200  17.939  83.386 
74.902  20.238  86.248 
74.790  18.724  85.476 
75.828  20.447  86.484 
76.250  21.534  87.858 
79.541  19.671  82.631 
80.544  19.716  83.019 
79.159  19.775  83.346 
75.658  23.288  89.536 
82.720  22.796  86.287 
80.406  20.324  84.001 
75.802  22.125  88.872 
83.888  24.795  87.373 
84.075  21.223  82.375 
80.021  21.034  85.247 
87.149  25.650  84.011 
85.526  25.264  85.943 
86.443  25.637  84.712 
86.507  26.723  85.406 
86.842  26.859  84.987 
87.385  26.767  85.098 
88.351  28.424  85.582 
88.247  29.228  85.826 
88.495  28.933  84.844 
90.219  30.379  85.586 
91.248  30.586  84.529 
90.718  29.123  83.450 
91.699  31.356  84.981 
89.998  31.947  87.544 
91.740  34.461  88.504 
90.528  31.261  85.583 
92.594  33.171  86.755 
93.530  33.521  85.583 
92.936  33.452  86.030 
94.211  33.805  84.697 
94.507  34.247  84.683 
92.285  34.910  87.956 
92.974  34.912  87.322 
98.924  41.871  84.093 
94.707  37.022  86.160 
92.754  36.845  89.422 
97.056  41.132  86.385 
97.461  43.750  86.968 
98.468  42.198  84.888 
98.575  45.161  85.555 
98.216  45.211  86.585 
99.038  44.699  85.682 
99.529  45.419  85.053 
99.866  46.179  84.783 
99.655  46.761  85.404 
99.488  46.995  85.774 
99.544  47.941  85.879 
99.907  49.620  85.400 
99.959  50.584  85.308 
99.717  50.349  86.040 
99.783  52.074  87.200 
100.485  50.613  85.997 
100.849  52.046  85.807 
100.614  52.868  86.324 
100.657  54.083  86.662 
100.932  54.610  86.150 
101.030  55.205  86.992 
101.234  55.873  86.412 
102.130  55.557  85.211 
101.130  56.239  85.715 
101.750  57.201  85.627 
101.981  58.509  84.976 
101.774  57.851  84.947 
101.591  59.327  85.078 
99.477  60.379  89.357 
102.768  59.715  83.081 
101.805  60.602  84.413 
102.537  62.093  84.447 
101.855  63.687  85.115 
100.892  62.090  86.514 
101.020  68.615  86.748 
102.955  65.229  83.194 
102.829  69.676  83.103 
101.355  64.736  86.016 
100.939  70.959  85.705 
102.523  69.853  83.470 
100.550  74.372  84.468 
102.152  72.035  83.677 
99.812  73.172  86.103 
101.869  70.784  84.697 
98.662  77.208  85.814 
98.708  72.653  88.509 
97.844  69.500  90.594 
93.651  78.564  90.758 
97.707  74.937  89.077 
97.755  76.652  87.239 
97.788  75.990  87.858 
98.591  71.448  88.677 
102.436  72.707  81.651 
99.440  75.228  85.908 
95.377  82.049  85.544 
96.778  80.412  84.291 
94.908  82.835  85.800 
95.035  81.460  86.735 
95.833  81.417  85.081 
95.300  82.710  84.960 
94.467  83.859  84.272 
93.745  85.426  83.829 
91.096  86.096  86.816 
91.872  85.195  87.611 
90.041  89.066  84.736 
89.447  87.359  86.551 
89.498  90.412  83.597 
90.588  88.667  85.254 
88.977  91.015  83.311 
89.743  88.895  85.322 
89.785  87.105  87.448 
85.508  93.191  83.515 
88.729  89.967  85.643 
85.226  88.874  89.812 
86.084  90.114  86.638 
88.701  88.305  86.679 
86.008  88.953  89.594 
85.038  90.634  88.486 
83.054  94.212  86.965 
80.024  94.969  87.631 
79.505  92.410  90.034 
83.301  94.616  85.236 
88.532  90.821  84.240 
76.708  97.392  85.911 
77.819  97.398  84.287 
76.355  96.117  87.368 
75.932  95.608  88.861 
77.341  95.400  87.917 
75.512  93.609  90.741 
74.188  95.905  88.042 
74.968  96.656  86.694 
81.421  96.070  86.235 
73.493  96.016  88.645 
73.678  97.695  87.011 
74.135  97.721  86.663 
73.162  97.648  87.287 
71.053  99.863  84.831 
69.986  98.402  86.486 
69.674  99.190  86.819 
71.518  99.838  85.027 
69.613  100.147  85.040 
67.796  100.424  85.521 
66.771  99.891  85.978 
65.352  99.931  86.348 
65.855  100.882  85.948 
65.018  101.052  86.123 
64.758  100.891  86.586 
63.937  101.345  85.239 
62.038  100.850  86.586 
59.959  101.496  86.091 
59.349  102.317  84.549 
60.935  102.753  83.991 
53.346  98.204  90.555 
58.393  100.523  86.945 
57.611  100.257  86.889 
57.078  102.902  83.300 
52.534  103.201  83.100 
56.364  102.986  83.563 
49.807  101.002  86.894 
50.162  100.671  86.769 
44.629  99.994  83.977 
48.570  103.237  82.802 
51.847  101.948  85.917 
51.380  98.381  89.925 
48.030  101.409  84.403 
47.323  100.728  85.039 
47.745  100.532  86.112 
46.101  101.269  82.673 
43.704  101.825  81.068 
42.076  100.990  80.531 
44.637  100.437  84.478 
47.335  99.581  87.222 
46.107  103.335  80.540 
44.497  99.566  85.515 
42.714  98.599  85.582 
43.248  98.304  85.452 
42.509  98.173  85.977 
41.541  97.554  86.201 
40.956  96.364  86.727 
40.943  97.267  86.141 
40.453  95.772  86.692 
39.990  95.505  87.524 
40.278  94.518  89.052 
37.988  94.138  87.877 
28.852  92.621  82.116 
37.581  95.041  86.330 
39.619  93.464  89.769 
37.161  95.513  86.082 
36.797  92.763  89.396 
38.172  92.928  89.101 
29.080  91.126  83.393 
31.082  93.012  85.017 
29.998  89.597  87.401 
31.679  90.488  88.527 
27.077  84.632  88.460 
26.854  84.153  88.495 
25.410  83.451  86.974 
27.276  81.637  89.753 
25.272  81.709  87.521 
29.259  80.681  91.863 
27.062  81.830  88.838 
28.714  85.630  88.442 
25.893  83.909  87.525 
22.228  78.962  85.354 
22.787  79.404  85.979 
20.598  78.395  84.154 
26.243  79.802  89.344 
23.328  81.114  85.621 
22.798  83.268  84.555 
25.099  78.734  88.952 
24.260  83.265  86.468 
24.561  77.233  89.105 
25.105  79.573  87.686 
22.272  79.661  85.705 
21.992  73.974  88.563 
22.940  73.897  89.649 
22.964  73.096  89.212 
22.456  75.943  88.029 
21.825  69.881  89.556 
21.990  72.175  88.860 
20.196  72.408  87.101 
21.874  70.191  88.829 
20.529  69.970  87.734 
20.738  66.941  89.309 
20.771  71.079  87.384 
20.628  66.215  89.646 
20.949  64.058  89.440 
20.917  67.528  89.401 
20.625  65.979  89.225 
19.528  63.257  88.504 
18.872  65.293  87.153 
18.767  61.234  87.544 
14.891  63.757  82.129 
19.814  60.341  89.554 
18.830  57.630  88.234 
19.744  59.463  88.733 
17.134  63.947  85.861 
19.259  60.101  88.688 
19.733  57.401  88.908 
16.390  56.484  85.685 
19.562  60.434  88.523 
17.878  59.414  86.443 
18.545  58.185  87.790 
19.276  51.837  87.584 
20.411  53.636  88.972 
20.411  51.096  88.543 
18.347  47.937  86.616 
20.851  51.450  89.246 
20.927  48.362  89.180 
22.218  45.428  89.261 
21.247  39.718  84.512 
20.012  44.291  87.058 
23.095  40.179  87.480 
19.493  50.946  88.124 
20.527  42.147  86.327 
19.453  45.389  87.415 
18.808  43.138  84.896 
22.135  41.580  87.459 
24.209  43.166  90.285 
