57.038  12.076  45.432 
56.150  13.340  43.097 
58.163  14.476  39.875 
56.086  14.653  39.780 
62.325  15.206  37.365 
63.144  14.570  40.776 
57.610  10.655  50.277 
60.445  12.316  45.860 
65.017  14.292  42.444 
64.435  14.836  40.642 
67.818  15.257  41.567 
64.181  14.735  39.673 
63.796  14.345  40.228 
67.257  15.215  42.532 
68.796  15.971  41.072 
70.149  15.623  41.372 
68.922  16.200  40.130 
70.608  15.903  40.616 
69.573  16.453  40.801 
71.540  16.840  40.847 
72.635  16.988  40.890 
73.418  16.949  41.217 
73.921  16.746  41.172 
74.173  17.110  40.354 
75.221  17.272  41.078 
76.735  18.420  41.034 
78.011  18.734  40.838 
79.335  18.866  41.875 
79.120  19.787  39.481 
79.750  18.349  45.251 
79.935  19.976  41.953 
80.504  20.107  41.251 
80.565  20.757  39.471 
81.898  21.800  39.661 
78.942  18.418  42.411 
81.865  21.940  37.906 
82.488  21.702  40.828 
81.475  22.601  37.204 
82.900  22.553  39.270 
83.293  22.190  41.229 
83.571  22.863  39.903 
83.818  23.052  41.465 
84.641  24.576  38.556 
86.462  24.095  42.280 
87.196  25.011  41.043 
85.915  25.057  38.644 
87.554  25.577  40.252 
88.016  25.748  40.955 
89.937  27.831  41.481 
89.819  27.060  41.445 
91.400  29.953  40.449 
92.141  30.030  40.564 
91.780  29.834  41.255 
92.189  30.654  40.475 
92.964  30.629  40.772 
93.737  32.069  41.236 
93.360  31.420  40.720 
94.209  32.401  41.247 
94.147  33.024  39.534 
95.440  34.813  39.884 
95.355  34.292  40.073 
96.702  35.571  40.610 
97.245  36.357  40.757 
97.282  36.866  40.123 
97.610  37.663  40.833 
98.001  38.023  41.039 
97.999  38.419  40.391 
98.536  38.998  40.922 
99.196  39.475  41.533 
99.432  40.245  41.209 
99.788  41.998  40.714 
100.225  42.722  40.855 
100.580  42.985  41.631 
100.275  43.741  41.317 
100.997  44.564  40.644 
100.952  44.995  41.402 
101.194  45.769  41.949 
102.154  45.578  41.706 
101.775  46.338  41.305 
102.256  47.137  40.984 
102.760  47.918  41.283 
102.819  48.461  40.881 
102.865  48.777  42.213 
103.855  49.546  42.460 
104.214  50.305  42.006 
104.577  50.568  43.068 
105.513  52.556  44.792 
105.322  52.431  44.186 
104.517  52.669  42.312 
105.771  53.744  44.458 
105.603  56.740  43.089 
106.237  56.759  45.704 
107.276  55.408  48.567 
107.969  58.640  49.885 
104.837  54.880  41.309 
106.373  55.861  46.648 
105.418  62.102  42.085 
106.380  59.637  43.781 
106.066  63.227  44.651 
106.576  60.316  44.025 
104.845  60.803  40.458 
103.989  58.532  39.321 
106.822  61.745  46.213 
103.969  60.134  37.284 
105.040  62.138  39.522 
104.501  65.247  41.693 
102.165  64.429  35.424 
105.081  63.284  40.874 
105.408  70.908  45.600 
104.766  70.322  43.536 
102.921  72.408  39.524 
104.924  71.314  44.937 
104.580  74.170  45.070 
104.122  71.068  43.390 
101.268  75.928  39.203 
104.077  71.170  42.533 
102.758  76.164  42.376 
101.863  76.147  40.878 
104.219  70.516  42.261 
103.889  68.585  40.954 
101.605  78.215  40.387 
99.782  80.181  39.003 
101.676  80.937  43.859 
102.570  78.283  41.185 
97.488  87.049  43.507 
100.223  82.244  40.952 
101.204  80.611  43.125 
100.628  83.527  44.559 
101.312  81.243  41.986 
99.906  81.902  40.883 
95.720  87.510  38.995 
97.912  84.500  39.725 
101.256  83.882  47.583 
94.661  87.079  37.655 
99.206  85.844  44.650 
95.235  89.915  42.262 
93.787  91.617  42.078 
95.695  84.253  35.299 
97.402  86.664  41.658 
92.570  93.043  43.140 
95.744  91.096  44.557 
90.684  91.521  38.025 
93.162  91.859  40.802 
90.534  93.010  39.998 
93.103  91.957  41.978 
92.616  89.976  38.115 
90.233  92.422  39.277 
88.968  95.073  41.570 
87.631  96.472  41.908 
87.771  94.783  39.274 
89.456  94.772  40.898 
87.548  95.837  40.256 
87.046  96.329  40.068 
85.589  97.105  40.900 
86.542  96.555  40.990 
84.394  98.125  41.157 
83.747  98.615  40.984 
82.604  98.611  40.546 
83.268  98.746  40.662 
81.282  100.037  41.157 
82.650  99.280  41.276 
82.157  99.600  40.751 
76.135  104.403  43.538 
78.529  101.693  41.943 
77.233  102.635  41.701 
79.804  100.791  41.461 
81.583  100.677  42.701 
73.643  103.413  40.603 
75.486  102.521  39.277 
77.284  102.280  40.979 
76.899  101.523  38.875 
70.671  105.738  43.527 
73.048  105.719  44.546 
76.098  103.755  42.581 
73.862  104.692  43.880 
77.406  105.021  47.660 
69.178  104.967  40.928 
77.495  101.121  40.372 
72.351  106.632  46.808 
70.129  106.232  45.307 
65.517  105.910  43.802 
68.950  106.095  44.247 
64.168  104.968  41.568 
62.953  105.177  42.234 
62.661  105.016  42.601 
61.364  105.303  42.557 
60.730  104.719  42.617 
60.156  105.332  43.238 
59.392  105.287  42.217 
58.918  104.875  42.110 
57.646  105.163  41.716 
57.011  105.360  43.092 
56.748  105.730  43.457 
52.388  107.385  47.451 
58.566  106.157  46.230 
52.798  105.007  43.026 
54.908  106.477  45.661 
52.806  105.237  42.441 
52.005  105.258  42.524 
53.025  104.697  41.135 
51.053  105.523  44.015 
50.239  104.823  44.333 
49.649  105.440  44.301 
48.165  105.598  45.099 
47.397  103.986  42.714 
47.797  104.423  43.422 
49.056  104.946  44.335 
45.506  104.006  44.178 
45.177  103.331  42.385 
45.161  102.918  41.710 
42.808  101.329  40.657 
45.167  103.632  43.890 
44.754  102.929  42.150 
41.073  103.417  46.561 
43.933  102.189  41.327 
41.715  103.224  45.199 
38.685  103.016  48.285 
45.188  101.344  38.308 
39.660  102.250  44.522 
34.123  100.047  44.145 
37.519  100.240  40.565 
38.443  102.103  47.619 
40.458  101.058  40.187 
37.935  101.294  44.209 
31.819  98.124  43.321 
30.718  96.860  41.968 
33.996  99.501  44.728 
29.307  96.534  43.477 
26.670  93.813  41.490 
25.919  95.604  47.202 
29.146  95.675  43.434 
24.452  89.478  39.492 
27.642  94.223  41.523 
22.087  92.169  49.036 
23.880  92.859  46.125 
22.933  92.470  46.736 
23.017  91.613  43.624 
24.785  91.520  41.723 
20.771  89.829  47.218 
23.094  90.273  42.512 
24.680  91.058  41.493 
19.917  88.261  44.886 
20.028  87.530  45.387 
20.246  87.034  43.704 
21.636  90.459  45.138 
19.447  88.261  46.403 
20.332  89.304  46.418 
17.739  86.744  49.244 
18.767  83.817  45.084 
18.189  82.115  44.869 
18.389  83.165  44.383 
18.861  81.789  43.839 
17.161  80.924  44.714 
17.048  80.166  44.221 
17.491  80.020  44.501 
16.712  80.126  45.100 
16.019  78.365  45.137 
16.333  78.896  44.938 
17.495  79.357  41.280 
16.358  77.368  43.711 
16.635  77.720  43.138 
14.797  75.274  45.833 
16.000  76.488  43.878 
16.742  77.991  42.227 
15.708  75.256  42.244 
15.638  73.763  42.866 
15.247  72.774  41.387 
14.068  72.062  45.985 
14.104  71.030  43.835 
14.799  71.975  44.702 
14.045  72.131  45.117 
13.774  70.227  43.492 
14.433  74.178  44.491 
13.228  69.842  44.958 
13.167  67.524  44.932 
13.836  66.812  44.458 
13.734  65.401  43.246 
13.070  65.269  44.863 
13.126  65.707  44.472 
13.348  64.483  44.845 
13.430  62.550  45.008 
13.039  62.948  44.380 
13.320  62.636  43.816 
13.050  60.475  44.870 
13.026  59.784  45.860 
13.090  59.585  44.970 
13.204  58.007  44.078 
14.078  58.197  42.630 
12.987  59.237  45.299 
11.386  54.056  49.028 
13.807  55.523  43.875 
11.726  55.806  48.241 
11.814  53.204  47.861 
13.506  56.751  44.832 
16.616  57.099  35.527 
14.746  51.397  41.281 
14.690  52.105  41.651 
14.115  51.229  43.118 
15.055  52.968  39.425 
13.096  48.885  46.187 
15.108  47.317  44.589 
13.804  47.209  46.253 
14.822  47.075  43.556 
13.649  49.078  44.917 
16.846  44.853  42.207 
16.854  44.178  42.228 
16.992  43.158  42.510 
17.765  42.023  43.366 
17.409  41.598  42.700 
17.586  40.698  42.390 
18.260  40.453  42.448 
18.452  39.817  42.633 
18.236  38.981  42.818 
18.791  39.045  42.833 
19.300  38.240  42.521 
19.568  38.188  41.558 
19.073  36.337  45.831 
20.985  34.480  46.198 
19.906  33.951  47.228 
19.759  37.123  42.779 
22.181  34.894  41.044 
23.465  32.985  40.174 
21.208  34.763  43.518 
22.175  33.250  42.330 
21.157  36.167  42.204 
21.705  29.549  47.959 
22.439  31.311  44.555 
21.377  33.374  45.619 
25.450  28.412  43.253 
28.232  24.321  44.099 
24.727  30.472  41.791 
26.590  27.727  41.649 
31.007  23.714  43.327 
29.852  30.219  31.957 
30.759  25.355  39.482 
30.344  24.788  41.303 
27.817  31.098  33.695 
28.987  23.452  45.977 
30.008  23.896  44.799 
30.820  23.004  44.389 
32.309  22.875  44.368 
32.568  22.466  44.084 
33.532  22.557  43.845 
33.871  21.829  43.245 
34.761  21.439  43.547 
34.683  21.114  42.774 
36.167  20.788  42.629 
36.762  20.215  42.397 
37.508  20.586  42.523 
37.050  20.680  41.844 
38.021  19.929  42.061 
37.105  20.395  43.916 
40.138  20.183  40.271 
39.969  19.967  39.725 
41.797  18.829  40.305 
40.041  18.952  41.537 
40.657  21.023  39.004 
42.615  18.708  40.020 
41.975  19.851  39.477 
45.928  17.219  40.146 
46.426  16.584  41.015 
47.560  16.429  40.301 
47.713  17.647  39.419 
46.888  16.491  40.582 
48.441  16.468  40.026 
49.183  16.043  40.022 
50.579  15.385  40.808 
50.468  15.761  40.103 
52.296  14.784  41.863 
51.467  14.689  41.817 
55.936  13.967  41.895 
52.918  12.269  47.264 
54.129  13.995  42.688 
57.310  13.654  41.959 
55.725  15.412  39.648 
55.368  15.558  38.879 
55.754  13.444  44.638 
56.138  14.337  41.197 
60.537  13.755  41.140 
62.571  13.377  43.485 
58.694  14.525  39.797 
61.959  14.010  39.776 
60.619  11.489  47.839 
66.768  13.042  46.207 
61.877  12.169  45.748 
65.062  15.262  39.695 
65.376  15.906  39.117 
64.518  14.774  40.072 
66.878  16.086  40.703 
68.026  16.249  40.667 
68.245  16.301  39.678 
69.913  16.049  40.058 
70.485  16.564  40.183 
71.364  16.590  39.608 
71.340  17.090  39.742 
72.527  16.612  40.576 
73.271  16.900  40.538 
74.488  17.742  39.856 
76.102  18.030  41.024 
74.784  17.712  40.904 
76.062  17.664  41.500 
76.955  18.678  40.054 
79.164  20.187  38.256 
81.201  20.601  41.875 
79.241  19.014  41.060 
81.105  19.996  42.602 
78.715  18.750  41.095 
80.336  20.796  40.849 
79.890  20.176  38.856 
80.060  21.319  37.377 
82.240  22.205  40.492 
82.413  22.631  39.718 
85.041  23.413  40.391 
84.773  23.188  40.972 
86.271  24.347  41.009 
86.502  25.318  39.523 
85.366  23.557  42.824 
86.900  25.477  40.394 
86.634  24.364  41.878 
85.791  24.633  40.843 
88.629  25.974  41.504 
90.298  27.560  40.864 
90.728  28.479  40.488 
89.651  28.540  38.499 
90.772  29.447  39.802 
90.694  29.733  39.243 
92.423  30.660  39.974 
92.526  31.254  40.606 
92.304  31.466  39.705 
93.257  31.664  39.942 
94.426  32.597  40.408 
94.871  33.414  40.219 
94.430  34.108  39.875 
94.814  34.495  39.157 
96.026  34.713  40.514 
95.897  35.741  40.680 
96.458  36.187  40.601 
97.207  37.525  39.494 
96.901  37.320  40.593 
97.600  38.259  39.664 
98.012  38.939  39.577 
98.700  40.306  40.487 
98.220  39.669  40.140 
99.036  39.761  40.735 
98.936  41.416  40.364 
99.483  42.017  40.078 
100.509  43.433  40.558 
100.341  43.600  40.115 
100.752  45.027  40.702 
101.450  45.370  40.399 
101.454  45.297  41.302 
102.022  46.646  40.872 
101.480  46.405  40.122 
101.961  47.153  40.194 
101.918  48.186  41.065 
102.752  48.830  41.401 
103.348  48.865  42.390 
103.696  49.810  42.109 
104.128  51.049  41.582 
104.724  51.441  42.738 
104.497  51.924  42.837 
105.196  51.885  43.466 
105.038  54.197  44.133 
105.364  55.437  44.303 
105.363  56.322  42.216 
106.619  54.445  46.158 
105.581  63.705  42.725 
105.461  57.545  44.026 
107.398  56.958  47.001 
103.011  60.349  35.505 
102.800  59.207  35.610 
103.180  60.736  34.990 
105.617  58.763  42.346 
104.953  59.952  40.072 
103.565  60.418  35.810 
103.188  61.036  36.592 
106.070  62.288  44.104 
103.608  63.077  38.453 
106.125  63.258  46.089 
102.710  65.352  36.137 
106.496  61.531  47.420 
104.697  61.583  39.009 
103.935  71.677  42.390 
105.081  71.969  46.470 
101.993  74.925  38.288 
102.880  67.333  37.136 
102.541  77.888  41.871 
103.599  77.182  43.744 
102.289  75.094  40.111 
104.877  72.837  44.771 
101.148  71.609  35.572 
103.681  81.773  49.991 
103.715  75.925  43.900 
99.559  75.815  36.002 
101.056  81.591  44.004 
104.642  71.680  43.745 
99.934  79.376  39.234 
102.961  79.530  45.864 
100.460  81.466  40.524 
103.102  77.705  43.093 
101.009  83.258  45.410 
101.279  81.556  43.537 
99.172  86.057  43.091 
100.815  81.039  41.890 
99.176  85.298  43.699 
94.011  88.943  38.019 
96.651  85.818  39.598 
100.575  81.793  43.136 
97.341  86.164  39.597 
97.306  89.718  46.816 
92.861  92.324  41.556 
93.393  89.349  37.897 
93.019  89.918  37.587 
96.115  89.757  45.647 
95.667  89.940  42.769 
91.437  93.199  41.357 
90.342  91.654  37.189 
92.171  90.324  37.475 
90.761  93.943  41.365 
89.975  93.726  39.697 
89.141  95.335  40.739 
91.278  92.786  41.077 
88.425  95.986  40.539 
87.741  95.397  39.096 
87.066  95.671  38.748 
86.611  96.190  40.252 
85.960  96.851  40.484 
85.047  97.365  39.248 
85.084  97.395  40.202 
83.758  97.763  40.016 
83.512  97.960  39.077 
82.234  98.531  39.834 
81.727  98.969  40.324 
81.669  99.662  40.883 
80.965  99.388  39.684 
79.973  100.225  40.589 
77.756  101.368  39.955 
77.625  101.059  39.370 
77.824  103.019  42.721 
75.516  101.128  36.949 
82.377  100.756  43.807 
78.138  103.579  43.920 
80.844  101.283  43.927 
76.372  102.453  40.649 
74.898  105.796  47.361 
68.276  105.083  43.148 
74.047  105.210  44.087 
67.119  100.683  33.420 
69.781  106.134  44.227 
66.859  104.103  39.125 
69.362  105.675  43.444 
64.251  105.679  42.702 
68.506  106.367  43.596 
74.062  105.915  47.229 
65.975  104.360  39.115 
65.160  104.868  41.432 
63.475  104.853  41.680 
62.224  104.966  41.694 
61.761  104.949  41.770 
61.054  104.691  41.461 
59.832  105.537  42.325 
59.611  105.189  41.487 
59.043  105.047  41.389 
57.035  104.537  40.147 
57.667  104.720  41.455 
57.538  105.632  42.825 
56.137  105.237  42.354 
56.335  105.912  43.798 
55.827  105.283  43.711 
55.417  105.196  41.862 
53.887  105.063  41.314 
54.602  105.203  42.473 
52.483  104.891  41.729 
53.297  105.564  43.254 
50.920  104.322  43.089 
49.450  104.869  43.677 
48.711  104.322  43.800 
49.547  105.406  44.872 
48.267  103.918  42.878 
47.113  103.583  42.572 
46.453  103.374  43.516 
43.191  104.679  47.373 
41.687  103.746  47.069 
43.779  100.641  38.997 
44.526  102.746  43.612 
43.154  101.607  40.030 
43.393  102.844  44.433 
38.658  101.149  42.035 
39.567  101.659  43.103 
40.795  102.372  46.813 
39.089  101.453  44.524 
40.048  102.784  46.509 
40.302  101.908  42.670 
36.861  101.335  47.448 
31.218  97.641  44.307 
30.396  96.321  41.713 
33.518  98.170  41.780 
32.360  97.586  41.871 
32.512  96.018  39.490 
29.544  96.303  43.989 
29.739  95.954  42.680 
31.359  96.979  42.445 
29.974  94.191  39.951 
30.237  96.931  43.617 
29.208  94.104  41.149 
29.147  92.315  38.582 
23.791  92.371  46.119 
24.891  92.315  41.682 
29.933  95.073  40.864 
24.246  88.511  39.576 
24.810  90.159  41.108 
26.000  94.372  44.329 
24.003  88.927  38.908 
24.490  92.030  42.129 
20.632  88.173  44.414 
21.511  88.316  41.897 
19.026  85.514  44.852 
21.014  88.733  42.529 
20.685  87.734  43.609 
19.433  85.574  44.092 
21.126  86.487  42.638 
23.173  89.253  42.058 
18.692  83.864  43.727 
18.470  82.211  42.659 
19.213  83.586  43.195 
18.112  81.818  43.832 
18.396  81.141  44.363 
17.597  80.606  44.003 
17.249  78.512  43.943 
16.827  78.972  43.433 
17.490  79.314  43.393 
17.116  78.745  42.589 
17.531  77.456  41.192 
16.648  76.049  40.665 
16.563  76.830  41.678 
15.545  76.212  44.775 
17.236  78.590  41.651 
14.767  74.970  44.419 
14.671  73.009  43.254 
15.809  75.867  43.519 
14.718  70.697  42.245 
15.568  76.368  45.828 
14.891  70.482  41.167 
13.377  69.390  45.303 
14.255  71.314  45.298 
13.429  68.543  45.005 
13.373  68.114  44.433 
13.468  66.965  43.661 
13.837  66.358  43.178 
13.581  65.379  43.784 
13.349  64.656  43.336 
12.697  65.192  45.526 
13.017  64.320  44.390 
12.783  63.754  44.690 
13.622  63.112  44.335 
12.944  61.306  45.106 
13.371  60.653  43.575 
13.254  59.897  43.735 
13.535  59.201  44.181 
13.551  58.849  45.159 
13.444  57.545  44.961 
12.821  56.623  45.307 
13.717  53.811  42.234 
13.748  57.373  42.860 
13.444  57.180  44.166 
12.254  51.784  45.905 
16.925  53.747  36.687 
13.147  50.578  45.210 
14.286  53.990  41.056 
15.289  48.855  41.645 
12.779  50.289  46.230 
13.840  52.184  43.851 
15.081  50.063  41.061 
12.352  48.985  50.070 
15.450  46.420  43.311 
14.955  48.758  42.678 
16.507  45.752  41.508 
16.262  45.434  41.804 
16.755  45.079  42.687 
17.024  42.517  42.550 
17.721  42.987  42.167 
17.758  41.951  42.424 
17.864  41.344  42.338 
17.812  40.312  42.158 
18.547  40.141  41.789 
18.560  39.124  42.000 
19.360  38.674  42.200 
18.906  38.684  41.550 
18.650  36.249  46.506 
19.255  37.095  43.340 
20.266  36.656  41.783 
21.091  35.667  43.628 
21.888  35.517  41.102 
19.668  36.538  43.396 
21.563  35.684  42.936 
22.561  33.654  41.072 
20.413  35.856  43.600 
23.020  34.755  40.109 
24.159  33.047  39.079 
23.276  29.404  45.390 
25.724  27.271  43.341 
21.415  29.887  49.748 
27.429  28.515  39.703 
27.968  28.685  37.415 
32.615  25.591  37.611 
23.849  30.687  41.947 
30.431  26.307  38.145 
27.967  30.875  35.940 
29.134  25.999  40.787 
31.621  24.586  41.684 
31.419  23.509  42.944 
29.885  25.296  39.364 
32.062  24.698  38.407 
31.912  22.892  43.583 
33.303  22.492  43.072 
34.204  22.516  43.051 
34.407  21.451  42.992 
34.501  21.698  42.051 
35.165  21.060  42.018 
36.645  20.356  41.909 
35.831  20.558  42.175 
37.091  20.301  41.277 
36.973  20.728  40.425 
37.930  20.612  41.439 
38.911  19.828  41.049 
39.673  20.664  39.647 
40.355  19.743  40.928 
41.297  19.543  40.039 
42.293  19.068  39.557 
42.971  18.700  40.412 
44.508  17.061  40.736 
44.104  17.698  40.273 
45.959  17.524  38.972 
43.895  18.317  39.326 
46.699  17.544  38.488 
48.354  17.290  38.655 
49.075  16.788  39.311 
49.875  16.380  39.054 
51.014  15.870  39.487 
50.727  16.301  40.197 
52.778  15.915  39.517 
53.724  15.063  40.035 
52.883  15.362  41.396 
55.131  14.957  39.984 
54.231  14.739  41.072 
52.325  15.559  40.758 
53.081  15.396  40.299 
57.645  15.170  39.210 
54.417  14.912  40.460 
58.084  12.581  44.022 
58.805  11.357  47.432 
65.544  15.142  40.964 
65.854  12.890  45.150 
66.715  12.308  46.549 
63.783  15.875  37.776 
61.770  13.559  42.007 
67.252  13.836  45.221 
64.640  15.664  37.530 
64.297  15.185  38.768 
65.925  16.122  39.259 
68.434  15.393  41.813 
65.869  15.175  40.169 
66.947  16.026  39.631 
68.632  16.790  39.835 
69.185  16.321  39.204 
69.870  16.575  39.487 
71.180  16.846  38.964 
72.207  17.117  39.971 
72.474  17.308  39.196 
73.408  17.769  39.849 
73.685  17.122  40.316 
75.273  17.868  40.261 
75.110  18.519  39.744 
75.872  18.805  40.052 
76.493  18.283  39.653 
79.844  20.810  38.279 
78.668  19.878  38.291 
77.800  19.779  38.890 
80.947  21.696  38.495 
79.287  21.592  36.400 
81.905  23.467  34.527 
78.926  21.240  37.249 
81.003  21.457  39.597 
82.068  22.320  38.983 
83.800  23.488  38.450 
87.546  28.784  34.631 
84.719  23.417  41.455 
84.390  23.323  39.644 
88.462  25.555  41.244 
85.683  23.399  42.337 
86.193  26.037  37.181 
89.016  26.707  40.644 
87.156  25.088  40.161 
89.704  27.025  40.911 
90.160  27.771  40.436 
90.990  28.940  39.789 
90.420  29.035  38.354 
91.095  29.795  39.734 
91.688  30.524  39.301 
92.005  30.212  39.704 
92.787  31.750  39.233 
93.139  32.330  39.346 
92.947  32.312  40.281 
94.280  32.913  40.039 
94.503  33.586  39.390 
93.685  34.789  38.593 
95.159  35.270  39.778 
96.108  35.323  39.980 
96.625  36.178  40.037 
96.875  37.100  39.724 
96.753  37.788  39.687 
97.620  37.716  40.199 
97.221  38.327  39.096 
98.036  38.893  40.279 
97.624  39.728  39.924 
98.312  39.929  39.683 
98.443  40.714  39.405 
99.453  42.467  39.540 
99.998  42.819  40.004 
99.822  43.798  39.806 
99.931  44.135  40.423 
100.962  45.733  39.902 
101.581  45.881  40.559 
100.629  46.611  39.854 
101.639  47.226  39.351 
102.283  47.443  40.581 
103.063  48.947  40.605 
102.278  48.902  40.418 
103.622  49.476  41.299 
103.303  50.029  40.100 
103.459  50.209  40.563 
104.246  51.053  42.481 
104.797  52.065  42.054 
104.663  53.493  42.104 
104.910  52.984  42.450 
105.232  53.807  42.655 
105.610  57.209  42.387 
104.172  54.236  40.420 
106.267  57.585  44.322 
107.104  59.373  45.934 
104.846  57.158  42.274 
105.346  58.736  41.473 
104.075  59.117  37.731 
106.710  61.829  45.382 
103.143  61.521  36.468 
100.693  63.639  32.681 
106.111  59.119  42.926 
103.866  65.649  38.143 
105.986  62.377  42.582 
106.868  66.388  47.496 
104.391  65.467  40.025 
105.493  60.945  41.990 
104.106  59.152  39.766 
103.877  64.813  39.066 
102.377  74.836  40.698 
103.440  64.054  37.518 
101.308  74.690  37.960 
103.584  66.594  38.038 
104.307  73.551  44.977 
101.967  75.922  38.363 
103.137  74.417  41.911 
104.114  72.380  43.952 
102.495  73.118  39.299 
102.618  71.288  38.867 
103.060  74.303  41.110 
100.817  72.198  35.262 
102.923  77.988  42.157 
104.487  73.408  44.154 
98.411  83.691  39.266 
100.332  80.606  39.548 
99.208  83.018  41.866 
99.886  81.667  40.036 
97.232  84.168  39.133 
99.099  84.908  42.361 
97.902  87.087  43.908 
94.917  88.484  39.922 
95.356  88.849  41.396 
95.628  86.533  36.888 
98.454  86.224  43.055 
98.048  85.410  40.523 
97.786  84.198  39.009 
99.799  83.773  42.757 
98.651  86.164  42.614 
92.091  91.574  39.557 
97.347  85.348  40.316 
91.097  89.379  36.640 
93.183  90.377  38.551 
89.951  90.443  37.294 
90.145  92.241  37.434 
90.934  90.797  37.532 
89.938  93.160  38.974 
89.397  94.398  39.742 
88.599  94.511  39.860 
89.394  94.721  40.121 
89.960  94.870  40.786 
86.810  95.238  38.758 
86.617  96.355  39.310 
86.203  96.798  39.930 
85.686  96.151  39.363 
85.388  97.067  39.750 
84.151  97.625  39.500 
83.467  98.326  40.293 
82.731  97.962  39.686 
81.244  99.646  40.329 
82.431  98.443  39.092 
81.502  99.271  39.573 
79.933  99.360  40.137 
80.287  99.694  40.045 
79.012  100.774  40.340 
78.573  101.389  40.980 
75.085  104.883  45.650 
78.869  101.932  43.200 
76.904  105.887  48.542 
70.045  105.041  41.184 
76.421  103.524  43.691 
75.356  102.758  40.218 
76.149  102.425  39.765 
74.060  102.568  38.371 
68.780  104.136  38.602 
70.430  105.425  42.727 
68.957  106.428  45.699 
76.566  101.341  38.448 
67.280  104.108  37.636 
73.671  103.378  41.126 
66.951  105.791  43.157 
65.595  104.624  40.815 
64.201  104.537  40.326 
64.315  104.659  41.185 
62.961  104.361  41.517 
61.684  104.647  41.042 
60.566  104.534  40.611 
60.577  105.192  41.884 
60.337  104.830  40.998 
59.320  104.467  40.880 
58.644  104.980  41.717 
56.974  105.184  41.729 
57.542  104.883  42.516 
56.779  105.530  42.564 
56.202  104.855  42.013 
56.095  104.945  41.510 
52.859  104.210  40.431 
53.518  104.781  40.992 
54.158  104.445  40.919 
52.019  104.967  41.326 
51.752  104.341  42.443 
51.573  105.402  44.083 
49.912  104.913  42.985 
49.199  104.485  43.478 
48.869  103.934  42.622 
47.700  103.865  42.084 
45.778  103.062  41.152 
45.543  102.701  42.718 
44.657  104.077  46.618 
44.763  103.514  43.459 
41.776  102.098  43.710 
45.023  103.968  44.766 
41.025  103.532  48.380 
40.538  104.012  49.082 
41.545  102.795  45.956 
43.390  103.693  45.520 
38.391  100.454  40.281 
38.817  101.510  42.988 
37.196  100.467  43.758 
36.936  100.184  40.541 
28.736  96.948  44.881 
34.495  99.130  41.907 
34.233  98.279  40.808 
35.943  100.020  41.723 
34.958  97.603  40.054 
33.067  97.657  41.199 
33.721  98.218  41.143 
27.274  91.711  39.159 
24.378  92.319  42.772 
26.423  92.723  40.792 
28.136  94.137  40.921 
26.495  94.059  44.307 
25.867  93.880  43.174 
23.700  91.881  43.114 
23.612  92.801  45.436 
22.479  91.334  45.980 
19.809  89.032  46.836 
21.819  90.042  43.727 
24.002  93.052  44.205 
22.196  86.882  39.027 
21.355  84.926  38.153 
21.588  87.926  41.611 
23.545  89.967  41.353 
21.619  85.579  40.551 
24.349  91.960  43.595 
20.928  84.440  39.667 
21.811  89.965  45.537 
21.108  88.081  43.142 
17.549  82.460  45.129 
19.719  83.230  42.589 
18.648  83.021  43.408 
18.412  82.460  44.178 
18.485  82.337  43.163 
18.617  81.472  42.998 
18.002  81.093  43.353 
17.336  79.617  43.037 
16.870  79.291  44.157 
17.735  78.690  41.981 
17.109  78.384  43.128 
17.812  78.716  40.457 
15.750  75.259  41.538 
15.882  76.843  44.403 
16.767  77.273  42.829 
15.332  74.473  42.700 
15.380  72.447  42.000 
15.671  71.255  39.897 
14.465  69.000  41.001 
14.083  70.880  44.693 
16.069  66.747  37.374 
13.747  67.513  44.033 
15.939  75.323  40.997 
15.104  71.861  41.242 
14.083  67.836  42.595 
14.080  67.112  43.225 
13.879  67.573  43.092 
13.710  65.791  42.641 
13.728  64.840  42.699 
13.646  64.222  43.714 
13.219  64.007  43.812 
13.453  63.180  43.079 
13.382  63.237  43.549 
13.584  61.537  43.549 
13.573  61.945  44.658 
13.221  61.223  44.656 
13.870  60.965  44.373 
13.118  58.794  44.135 
13.473  58.247  43.292 
12.575  53.892  45.448 
12.881  58.895  45.698 
14.327  57.219  42.848 
13.858  55.453  41.645 
16.028  55.643  37.468 
16.371  50.483  37.825 
13.700  56.430  43.961 
11.317  51.027  49.870 
13.858  53.544  42.750 
12.893  48.802  47.425 
14.162  55.296  42.068 
13.721  48.205  46.743 
14.414  47.821  44.076 
14.097  50.228  43.054 
15.671  47.384  41.851 
17.159  45.626  40.902 
17.157  44.650  41.102 
16.933  43.855  41.388 
16.570  44.134  41.692 
17.561  42.034  41.828 
17.894  41.632  40.866 
17.880  41.171  41.639 
18.068  40.405  41.678 
18.760  40.585  41.641 
18.316  39.638  42.180 
18.836  39.370  41.130 
20.344  38.452  40.958 
20.300  38.055  41.822 
19.985  36.794  42.516 
19.385  37.955  43.262 
21.795  35.883  39.929 
19.624  37.701  42.259 
20.424  36.057  42.506 
21.865  34.088  42.149 
24.355  31.784  40.380 
21.234  35.320  42.126 
22.045  35.292  41.929 
23.114  34.368  40.883 
21.791  31.775  47.194 
25.561  30.225  39.246 
28.153  28.101  38.594 
24.694  32.491  38.661 
25.624  26.071  47.757 
22.709  33.306  42.724 
29.063  25.302  41.433 
30.881  29.975  32.948 
26.537  26.408  44.772 
29.983  24.962  40.062 
30.940  26.773  37.414 
29.410  28.624  36.448 
34.636  25.348  35.570 
30.408  23.806  42.906 
32.067  23.622  43.099 
32.782  22.515  43.211 
33.519  22.863  42.494 
33.913  22.048  42.514 
35.011  21.460  41.462 
35.671  20.864  41.210 
36.212  21.116  41.671 
36.523  20.848  40.818 
37.579  21.240  40.322 
37.335  20.343  40.820 
37.662  21.198  39.007 
37.268  21.478  38.267 
39.417  21.047  38.462 
38.333  21.486  37.850 
40.898  20.515  38.193 
41.624  20.198  39.711 
45.202  17.422  40.870 
43.871  18.389  40.195 
44.339  17.711  39.835 
45.274  18.061  38.989 
46.592  17.519  39.669 
47.230  17.034  39.346 
50.190  17.043  38.608 
49.294  16.857  38.886 
50.444  16.448  38.992 
51.171  16.573  39.403 
51.726  15.612  40.060 
51.059  15.282  40.786 
52.320  15.650  39.917 
52.700  15.998  38.597 
53.208  15.742  39.334 
53.887  14.958  41.535 
59.815  12.875  44.933 
57.134  14.708  39.852 
55.347  15.000  39.428 
55.621  13.011  43.857 
61.498  14.566  37.833 
56.725  13.993  41.516 
58.637  13.722  41.791 
59.760  13.942  40.570 
60.699  14.116  38.750 
61.356  14.462  40.163 
63.648  15.063  39.705 
63.620  15.388  39.273 
65.593  15.526  38.494 
66.205  16.186  38.293 
66.984  15.949  38.751 
67.558  15.925  38.983 
67.581  15.926  39.983 
68.397  16.018  40.409 
68.617  16.622  38.474 
69.691  17.028  39.054 
70.392  17.029  39.428 
71.214  17.362  38.938 
71.959  17.692  39.067 
72.788  17.636  39.408 
73.819  17.508  39.476 
74.732  17.827  39.385 
74.677  18.314  38.983 
75.619  18.242  39.445 
75.953  18.636  39.006 
78.646  19.072  40.348 
79.345  20.768  36.991 
79.926  20.902  39.135 
79.220  21.272  38.262 
81.341  21.302  39.210 
78.662  19.532  38.692 
78.347  18.409  41.102 
79.937  21.647  37.889 
79.332  19.988  40.679 
82.210  23.146  36.753 
83.834  23.789  38.019 
85.726  24.444  40.048 
83.582  23.054  39.397 
85.451  25.658  36.912 
88.292  27.472  38.609 
86.009  25.610  38.065 
88.137  26.935  37.951 
88.197  25.792  40.482 
88.380  26.788  40.301 
90.113  28.820  39.891 
90.095  28.072  39.879 
89.771  29.016  37.859 
90.534  29.526  38.266 
91.267  30.258  38.986 
91.487  31.473  38.870 
92.124  31.058  39.260 
92.571  31.659  38.803 
92.441  32.661  39.125 
93.208  33.031  39.221 
94.285  33.866  38.982 
94.690  35.531  37.591 
95.140  35.292  39.069 
95.834  35.544  39.447 
95.985  36.879  39.227 
96.060  36.441  39.494 
96.266  37.599  38.805 
97.159  39.073  39.028 
97.295  38.740  39.765 
95.949  38.623  37.896 
97.781  39.943  39.081 
98.007  40.586  39.037 
97.777  41.280  39.539 
99.012  41.741  39.633 
98.657  42.153  39.384 
99.064  42.704  39.711 
100.447  44.454  39.728 
100.319  45.117  38.833 
100.189  45.316  39.761 
100.696  45.867  39.218 
101.098  46.526  39.317 
102.311  48.057  40.018 
101.519  47.795  39.704 
101.813  48.625  39.782 
103.046  49.485  40.466 
102.979  50.176  39.250 
102.413  50.328  39.681 
103.080  49.925  41.745 
103.820  50.798  42.479 
105.238  53.087  42.962 
105.017  55.593  42.398 
104.290  53.390  41.832 
104.917  54.227  42.030 
103.996  55.159  38.919 
105.894  56.055  44.992 
105.184  56.031  41.556 
104.982  59.703  41.024 
105.231  59.189  41.666 
104.520  56.820  40.567 
103.376  61.199  37.414 
105.725  60.503  43.124 
104.381  62.792  38.894 
102.068  63.831  34.590 
103.309  57.485  38.399 
102.218  68.701  36.531 
106.678  64.409  46.995 
104.800  60.864  41.503 
101.529  69.990  37.226 
102.875  69.433  38.623 
100.257  69.126  34.626 
103.881  67.003  39.506 
103.840  70.213  40.063 
102.195  65.032  35.043 
104.261  65.076  39.221 
101.313  69.515  35.938 
101.196  71.464  36.244 
101.582  73.418  37.701 
102.208  74.866  39.188 
101.209  73.017  36.405 
101.677  71.826  36.843 
103.253  76.261  41.875 
103.827  73.084  42.177 
101.827  78.535  41.052 
101.301  77.708  39.706 
100.420  81.193  40.935 
99.417  82.296  40.151 
100.732  80.504  41.136 
100.642  80.260  40.075 
101.701  81.533  44.714 
98.842  82.839  40.322 
98.610  83.642  40.936 
101.505  82.926  45.871 
97.972  81.072  37.502 
96.745  85.277  38.051 
96.933  87.170  40.848 
98.397  84.711  41.014 
96.102  89.043  41.865 
92.867  91.031  39.177 
96.363  89.067  42.710 
92.689  90.706  38.396 
96.599  88.374  43.167 
93.403  90.415  39.330 
91.574  91.080  38.927 
91.312  91.569  39.933 
90.848  90.412  37.115 
90.163  92.696  38.052 
88.173  94.738  39.037 
90.127  93.381  40.148 
88.205  95.437  39.804 
88.021  94.150  38.575 
88.870  94.240  39.062 
87.798  96.257  40.097 
86.991  95.979  39.434 
86.277  95.867  38.416 
85.595  96.707  38.524 
85.276  96.910  38.801 
84.207  97.314  39.064 
84.500  96.719  39.401 
83.040  98.372  39.648 
84.000  97.565  38.642 
81.692  98.368  39.582 
80.279  99.344  39.357 
79.114  99.781  39.559 
79.559  100.057  39.727 
78.209  101.037  40.179 
77.936  100.368  39.503 
77.930  101.006  38.967 
78.640  102.801  43.662 
75.780  99.733  34.722 
74.777  102.723  39.072 
70.515  105.141  41.957 
74.849  104.714  43.647 
66.459  104.825  40.701 
68.017  105.102  39.879 
71.739  105.983  44.039 
67.048  105.244  41.368 
70.950  106.206  45.084 
67.420  105.310  40.924 
65.522  103.312  37.843 
66.912  103.809  38.194 
66.953  105.844  44.938 
64.922  104.937  40.580 
63.727  104.289  40.538 
63.014  104.521  40.104 
62.422  104.730  41.010 
61.162  104.729  40.979 
60.576  103.921  40.461 
60.589  104.009  39.952 
59.821  104.674  41.590 
58.687  104.837  40.639 
58.489  104.887  41.167 
57.464  104.080  40.407 
56.792  105.237  41.273 
56.367  104.830  40.694 
55.358  105.044  42.767 
54.831  104.535  41.684 
55.007  104.721  40.759 
52.350  104.205  41.212 
53.328  104.869  41.898 
53.310  104.238  40.471 
50.663  104.790  41.953 
50.661  105.225  43.431 
50.453  104.889  42.723 
48.887  104.430  42.499 
48.194  104.365  42.720 
46.771  102.842  42.022 
46.280  103.658  42.914 
45.883  103.058  41.767 
39.417  100.756  42.008 
41.295  102.146  44.260 
44.175  102.228  40.656 
43.257  104.252  48.399 
42.476  101.188  39.884 
41.400  102.921  44.704 
42.375  100.109  38.287 
36.375  100.892  43.992 
38.599  99.414  38.039 
42.079  102.931  45.851 
39.102  99.960  38.996 
40.961  102.033  43.511 
41.966  101.741  43.072 
36.677  100.488  43.153 
34.407  96.928  39.059 
35.795  99.599  41.005 
34.117  97.461  40.262 
31.339  96.752  41.493 
27.692  94.585  42.438 
30.139  96.802  42.983 
31.004  95.373  40.264 
25.207  93.799  44.784 
27.002  91.098  38.776 
25.434  93.393  42.774 
27.022  93.990  42.056 
25.468  93.793  43.994 
24.962  90.470  39.984 
22.920  88.229  40.103 
24.402  92.712  44.043 
25.485  91.967  41.348 
22.905  90.869  42.834 
22.575  88.645  41.264 
23.093  87.898  38.776 
21.350  85.870  39.833 
24.456  88.975  38.124 
22.623  85.368  38.084 
24.127  85.877  35.530 
22.596  87.148  38.183 
18.559  83.932  44.238 
19.485  85.130  43.394 
19.625  85.096  44.019 
19.946  84.216  42.504 
19.723  82.624  42.701 
19.289  82.021  42.541 
18.792  82.056  41.998 
18.156  81.206  42.521 
18.167  80.450  42.758 
17.629  79.272  42.059 
17.840  79.515  40.877 
17.560  77.965  40.049 
16.180  74.617  41.124 
17.034  78.036  41.417 
16.049  77.273  42.261 
18.369  77.409  39.237 
15.286  73.635  41.671 
14.817  73.745  43.561 
16.019  75.550  44.186 
16.028  70.378  39.329 
15.913  73.225  40.015 
15.254  73.968  43.590 
14.883  70.568  40.121 
13.822  70.843  42.995 
14.331  70.162  44.000 
14.564  71.691  43.983 
14.814  66.843  39.622 
14.633  67.077  41.220 
15.241  64.194  40.531 
14.386  65.280  42.505 
13.650  64.091  42.961 
13.985  64.839  41.859 
13.719  63.839  42.552 
14.005  62.545  42.835 
13.845  61.675  42.691 
14.273  61.410  42.846 
13.756  62.415  43.771 
13.739  59.242  42.860 
13.557  57.541  43.336 
12.939  58.252  45.412 
13.507  54.161  43.325 
13.482  52.841  43.261 
16.812  50.682  37.997 
14.455  52.405  40.844 
15.728  56.575  37.341 
14.185  56.026  40.391 
12.556  51.883  45.332 
15.762  51.040  38.652 
16.008  54.890  38.604 
13.580  50.641  44.490 
14.823  49.110  42.242 
17.084  50.751  37.367 
12.914  50.800  46.503 
15.315  46.773  42.881 
16.427  45.864  42.918 
17.500  44.350  39.787 
16.708  44.979  41.117 
16.913  43.317  41.493 
17.174  43.021  41.744 
17.549  42.466  41.040 
17.957  42.162  41.140 
18.280  41.511  41.602 
18.553  40.947  40.574 
18.971  39.670  41.473 
18.829  39.973  40.715 
19.226  38.993  40.846 
20.103  37.793  40.423 
20.478  37.408  41.210 
20.618  36.848  42.195 
21.155  36.355  40.670 
20.187  36.727  43.973 
20.043  36.220  43.178 
21.815  34.709  41.940 
22.293  34.731  40.505 
22.597  32.471  42.397 
25.845  32.211  37.643 
24.602  33.250  38.884 
29.224  30.253  32.807 
25.910  33.543  35.622 
28.473  26.388  41.124 
24.467  30.865  40.300 
24.585  28.226  45.275 
29.417  25.010  41.277 
27.950  27.364  40.791 
27.980  25.816  42.417 
31.646  24.971  39.565 
34.830  24.693  36.173 
30.739  21.305  49.206 
29.095  30.277  34.179 
32.171  23.355  42.341 
29.630  27.006  37.546 
32.590  23.054  41.697 
32.637  22.835  42.353 
33.180  23.258  41.727 
33.697  22.417  42.150 
34.276  22.474  42.141 
35.100  21.985  41.684 
35.463  21.520  40.961 
36.015  21.161  40.593 
36.579  21.520  40.150 
38.011  20.809  38.988 
38.145  20.355  39.988 
36.993  22.587  37.064 
39.237  21.169  39.254 
38.961  20.708  39.988 
43.232  18.586  39.558 
42.430  19.668  38.650 
40.416  20.227  38.863 
42.657  19.935  36.984 
44.894  18.593  38.432 
43.801  18.752  38.588 
45.392  18.158  38.518 
46.436  18.279  37.757 
46.638  17.112  39.117 
48.650  17.464  39.044 
51.300  16.228  38.781 
50.257  16.795  39.695 
52.238  17.023  38.563 
52.027  16.389  39.797 
53.448  16.335  38.916 
55.445  16.931  37.711 
54.567  15.440  39.879 
54.000  15.685  38.969 
55.225  14.753  40.786 
56.608  15.495  39.216 
59.094  13.489  42.285 
62.727  14.094  40.142 
59.781  12.417  44.619 
64.913  13.639  43.065 
60.458  13.513  40.318 
61.465  12.141  44.972 
58.906  13.388  43.987 
63.831  15.407  38.821 
64.119  15.518  37.007 
65.265  16.354  37.084 
66.093  16.366  37.391 
65.205  15.884  37.965 
66.297  15.797  38.908 
67.041  15.982  38.271 
67.950  16.148  38.625 
67.902  15.951  39.546 
69.264  16.486  38.705 
70.121  16.795  38.488 
70.679  17.319  38.146 
71.280  17.197  38.343 
71.944  17.136  38.536 
72.688  17.361  38.708 
74.108  18.260  38.877 
74.159  18.396  37.923 
74.303  19.352  36.638 
75.132  18.297  38.850 
75.877  19.138  38.364 
77.511  18.745  39.382 
78.328  19.978  37.690 
79.650  21.635  36.994 
78.284  22.175  34.491 
79.052  20.499  37.848 
80.003  20.100  39.472 
81.101  23.378  35.716 
76.487  21.158  36.067 
78.325  21.075  35.284 
84.936  24.091  38.754 
82.425  22.996  38.702 
85.060  23.838  40.162 
82.743  22.995  37.896 
85.275  24.370  40.813 
86.417  25.729  38.790 
88.220  27.618  37.726 
88.685  26.797  39.427 
86.806  26.259  38.471 
88.434  26.331  40.483 
89.748  30.697  33.858 
89.675  27.715  39.681 
90.130  30.300  37.835 
90.512  29.958  37.534 
91.140  30.135  38.082 
91.782  32.149  37.789 
92.620  32.231  38.243 
92.157  32.836  37.076 
93.045  32.536  38.477 
93.812  33.364  38.827 
93.499  34.068  37.721 
93.873  34.117  38.669 
94.953  36.502  37.713 
94.831  35.738  38.513 
95.264  36.829  37.393 
96.384  37.569  37.903 
96.113  38.491  36.898 
96.679  37.333  38.909 
96.767  38.716  38.301 
97.443  39.497  39.477 
97.424  40.631  37.962 
97.938  40.689  38.552 
98.365  41.396  38.904 
98.305  42.119  38.651 
98.802  42.670  38.898 
99.537  43.281  39.647 
99.356  43.600  38.857 
100.355  44.903  39.952 
99.947  45.440  38.754 
100.459  46.632  39.189 
101.026  46.893  38.550 
100.946  47.767  39.188 
101.926  48.437  39.288 
102.302  49.355  38.327 
102.570  48.909  39.961 
102.587  49.421  39.218 
103.048  51.130  40.155 
103.370  50.395  41.055 
104.113  51.585  41.932 
104.488  52.212  41.359 
104.209  53.461  40.898 
105.178  53.981  43.451 
103.798  55.801  38.594 
104.983  55.702  40.887 
105.017  54.777  43.639 
104.730  58.187  40.808 
103.243  66.145  37.380 
104.323  57.591  40.163 
103.307  59.350  36.216 
106.264  56.677  44.667 
104.083  63.683  38.271 
102.312  64.775  36.510 
100.913  62.796  32.945 
100.823  64.135  33.262 
103.917  62.384  37.620 
103.537  64.923  37.663 
103.107  65.842  36.809 
103.572  72.509  42.401 
102.575  67.026  36.386 
100.224  71.558  35.708 
103.224  67.506  37.888 
102.774  71.810  40.492 
103.896  70.950  41.720 
104.212  66.373  40.849 
103.632  71.514  40.965 
100.579  68.355  35.384 
103.339  76.438  43.267 
101.724  76.472  38.253 
102.072  70.087  36.652 
101.805  73.935  39.035 
99.275  73.172  34.108 
101.515  76.985  38.913 
100.175  78.014  37.672 
100.018  75.589  36.820 
98.468  81.329  38.431 
100.397  82.669  42.338 
98.745  83.840  40.300 
99.061  81.797  38.813 
100.799  81.992  42.241 
95.817  85.408  36.595 
98.650  84.672  40.524 
95.931  86.859  38.032 
99.923  82.552  41.602 
99.700  80.724  38.634 
95.726  87.074  39.823 
95.627  86.470  37.743 
90.408  86.871  32.414 
93.989  87.648  37.833 
99.239  85.156  42.900 
93.178  87.800  36.427 
95.432  87.153  38.827 
93.554  89.989  39.671 
91.902  90.606  38.442 
89.505  90.985  36.517 
89.965  91.188  36.696 
92.452  90.989  38.850 
89.337  92.938  37.896 
88.794  93.814  38.170 
88.734  95.217  39.967 
87.568  94.858  38.440 
86.720  94.947  38.312 
87.434  94.097  37.463 
85.766  95.210  37.893 
85.857  96.377  38.852 
85.355  95.986  38.396 
84.727  96.599  38.576 
83.690  96.898  38.416 
83.119  97.449  38.320 
81.808  98.574  38.979 
81.406  98.075  38.861 
81.397  98.904  38.945 
80.738  98.820  39.691 
79.254  99.262  39.175 
75.681  102.837  41.120 
78.762  100.026  39.307 
78.174  99.609  39.066 
79.784  101.042  42.745 
76.382  105.092  48.003 
76.573  101.699  39.174 
75.035  103.653  41.497 
68.224  104.119  38.788 
68.272  104.971  40.857 
73.404  103.424  41.549 
70.070  104.183  40.534 
67.929  105.534  43.122 
71.441  105.271  42.428 
65.073  105.801  42.764 
66.053  106.102  43.959 
66.712  106.552  44.510 
65.661  105.332  40.698 
65.607  104.016  38.396 
64.877  104.445  40.533 
63.748  104.194  39.528 
62.291  104.130  39.834 
62.542  104.081  40.780 
61.456  104.283  40.160 
61.005  103.783  39.204 
59.290  104.457  40.050 
59.992  104.273  40.347 
58.610  104.491  40.317 
57.915  104.666  40.276 
58.334  104.067  40.157 
56.122  104.612  40.282 
55.826  104.963  40.943 
55.624  104.599  40.220 
55.624  104.502  41.161 
54.111  104.421  39.972 
51.816  104.223  41.091 
51.191  104.600  41.200 
51.097  104.110  41.631 
50.369  104.370  41.838 
49.155  104.098  41.416 
50.008  104.347  41.354 
48.747  103.929  41.045 
48.324  103.986  41.840 
45.037  102.279  40.416 
46.036  102.112  38.796 
43.151  102.708  43.022 
43.518  102.061  41.669 
44.635  103.064  42.879 
37.425  100.541  41.417 
42.489  101.801  40.643 
40.866  101.054  39.466 
45.385  102.015  39.624 
40.356  102.199  43.356 
39.613  98.915  36.729 
37.365  99.488  39.448 
39.577  99.561  38.766 
39.248  100.506  41.157 
37.542  100.887  42.708 
35.147  98.827  41.060 
38.104  100.696  41.139 
32.227  96.416  40.634 
29.574  97.722  44.643 
31.269  95.826  41.006 
32.313  96.835  40.890 
29.481  95.569  41.629 
26.912  94.815  44.237 
31.098  95.140  41.014 
30.108  93.346  39.582 
26.306  93.794  42.387 
24.671  89.811  40.090 
28.766  93.966  40.431 
24.525  93.655  44.018 
25.690  90.958  39.799 
28.306  91.438  37.514 
27.873  92.479  40.054 
24.182  93.089  43.408 
27.066  92.591  40.085 
19.960  85.550  43.444 
21.409  86.161  39.440 
25.395  92.639  42.020 
21.101  85.395  41.310 
21.592  86.869  40.708 
21.466  87.679  40.708 
19.058  84.381  43.563 
20.877  87.277  43.040 
20.522  85.270  42.265 
19.124  84.092  44.413 
20.671  83.921  40.260 
19.072  82.646  42.147 
19.518  81.748  41.423 
18.181  80.859  41.297 
17.632  80.517  43.045 
17.404  80.209  43.495 
18.179  78.788  40.784 
18.310  78.236  39.857 
17.592  77.095  40.011 
17.495  75.946  39.195 
15.544  71.887  40.067 
16.534  75.198  40.431 
15.780  76.094  41.716 
16.717  73.000  38.473 
16.044  76.608  42.887 
16.357  73.085  38.843 
16.387  70.051  37.732 
16.166  67.593  37.281 
14.908  73.668  42.711 
14.182  69.364  42.778 
14.443  69.745  41.657 
13.698  69.829  44.264 
14.157  65.992  41.909 
15.138  68.292  38.745 
13.924  68.553  42.682 
14.887  67.382  40.372 
14.543  65.306  41.674 
14.289  63.897  41.463 
14.098  63.591  42.245 
13.959  62.665  41.949 
14.101  62.000  42.323 
13.797  60.913  42.825 
14.509  60.410  42.535 
13.293  61.155  43.757 
13.360  59.721  44.218 
13.794  57.641  42.078 
13.896  58.460  42.297 
15.465  57.080  39.290 
13.289  57.075  43.677 
13.023  56.027  45.213 
13.236  54.426  43.027 
15.432  56.068  39.064 
13.331  54.392  44.222 
16.783  49.629  38.087 
15.728  52.286  39.517 
16.217  51.371  38.154 
15.005  48.035  43.312 
14.026  48.168  44.743 
16.334  46.195  41.180 
17.150  46.510  40.440 
15.879  46.583  41.855 
16.950  44.939  40.201 
16.839  44.001  40.423 
17.546  44.020  40.454 
18.041  43.128  41.142 
17.757  42.150  40.262 
18.830  42.039  38.802 
18.518  40.654  40.090 
18.430  40.158  40.964 
19.044  40.409  40.014 
19.106  39.653  40.252 
19.526  38.777  40.356 
20.079  37.423  40.724 
19.989  37.289  41.878 
21.381  36.639  39.995 
21.574  37.165  38.930 
21.256  36.827  41.438 
21.963  36.400  40.009 
21.877  36.139  40.817 
23.221  33.954  40.083 
24.433  33.115  38.043 
23.007  33.477  40.344 
23.698  33.405  40.086 
23.367  31.387  43.013 
24.461  31.717  40.974 
23.000  30.704  44.082 
25.167  28.608  42.328 
23.305  30.325  42.900 
26.395  31.585  37.387 
31.177  25.591  39.256 
28.891  26.805  38.763 
32.078  24.878  39.856 
34.504  26.841  33.082 
31.067  26.033  38.208 
28.923  29.348  34.536 
32.270  24.330  40.365 
30.224  25.316  40.647 
31.654  23.949  41.920 
31.458  24.763  40.408 
32.924  23.708  40.900 
33.615  22.710  41.476 
34.155  22.025  41.626 
34.916  22.151  41.143 
35.287  22.216  40.813 
36.008  21.622  40.291 
37.051  21.453  40.028 
36.866  21.674  39.156 
38.340  20.838  39.402 
37.586  22.163  37.236 
38.718  20.790  38.561 
39.060  20.579  38.965 
41.068  20.640  37.610 
43.366  18.207  40.124 
47.493  18.901  36.383 
41.847  20.450  38.267 
44.826  18.250  39.338 
47.453  18.575  37.270 
46.911  18.254  37.453 
47.260  17.761  38.606 
48.441  17.567  37.868 
49.779  17.203  38.303 
51.479  16.825  38.050 
51.160  16.985  38.750 
52.337  16.219  38.271 
52.084  15.995  39.038 
54.985  16.653  37.965 
56.520  17.789  34.961 
56.220  15.969  38.374 
53.809  15.802  39.517 
56.354  15.976  37.823 
57.465  14.996  40.021 
60.204  13.478  42.824 
58.439  15.299  37.692 
58.672  12.334  45.576 
61.990  14.158  41.407 
59.130  14.253  42.473 
61.584  14.500  38.661 
57.466  13.421  43.039 
62.560  16.738  36.101 
62.883  15.884  36.370 
66.500  16.230  37.631 
67.405  16.262  37.684 
66.403  17.007  37.052 
66.019  16.832  36.703 
67.678  16.490  38.300 
67.976  16.733  37.488 
69.031  16.861  37.574 
69.201  17.013  38.006 
69.395  17.507  38.118 
71.047  18.057  38.011 
72.029  17.642  37.948 
72.456  18.090  38.316 
73.403  18.626  38.613 
73.941  18.415  38.419 
73.296  18.517  37.046 
75.542  18.677  38.153 
76.377  19.567  38.867 
76.261  19.111  37.999 
74.914  18.437  37.953 
76.685  19.771  37.555 
77.086  19.515  38.096 
78.194  22.367  33.809 
79.677  22.625  34.025 
81.757  22.769  38.144 
80.209  22.856  34.669 
81.216  21.267  38.516 
79.911  24.132  31.603 
80.362  20.240  40.199 
85.477  23.646  41.032 
84.739  25.494  34.419 
83.976  23.681  39.185 
87.337  26.414  39.392 
86.273  24.704  40.121 
89.843  28.169  40.548 
89.194  27.971  40.172 
88.808  27.408  40.887 
87.685  25.861  39.866 
88.998  28.255  36.270 
89.484  28.156  38.190 
90.430  30.079  36.766 
91.521  30.880  38.446 
91.083  32.236  34.540 
89.382  28.877  35.473 
92.640  35.125  35.359 
92.325  32.764  36.438 
93.948  34.235  37.581 
93.881  33.646  38.102 
94.401  34.729  39.112 
95.627  36.105  38.728 
95.275  36.107  37.891 
95.643  36.871  38.141 
96.107  37.067  38.447 
95.517  38.089  36.665 
95.197  38.061  36.236 
96.003  39.293  37.204 
96.493  39.625  38.434 
97.481  40.898  38.586 
97.836  41.441  38.381 
97.852  41.835  38.745 
98.099  42.272  37.889 
98.433  43.635  38.078 
98.949  43.924  38.945 
99.758  44.350  38.871 
99.992  44.608  38.569 
99.624  45.006  38.117 
100.277  45.822  38.169 
100.416  46.488  38.681 
101.588  47.977  38.700 
101.764  48.802  38.012 
102.085  48.987  38.711 
101.822  49.540  37.712 
102.562  49.824  38.675 
102.875  51.554  39.808 
103.340  51.349  40.584 
104.058  50.892  41.122 
104.520  53.026  41.564 
104.418  53.569  42.897 
103.018  52.806  39.654 
103.543  53.746  40.030 
104.610  55.070  40.354 
105.875  55.706  44.503 
105.595  55.910  42.892 
105.287  57.047  40.902 
104.820  61.057  39.771 
104.515  59.426  39.558 
101.511  62.911  33.896 
102.903  59.601  34.752 
103.658  63.185  37.621 
103.692  65.289  38.482 
104.297  60.672  37.922 
100.095  68.244  33.377 
102.567  68.614  37.865 
101.753  70.917  36.768 
105.865  67.277  44.206 
105.342  62.394  40.393 
101.473  67.637  35.653 
101.853  74.370  39.443 
104.599  72.574  43.844 
102.694  71.609  39.500 
106.517  64.702  44.585 
102.760  69.484  37.442 
105.033  72.217  45.332 
101.497  71.277  37.418 
103.327  72.380  40.894 
103.427  72.844  41.130 
102.858  73.622  39.927 
100.787  75.154  36.846 
102.115  79.158  41.744 
102.880  75.046  41.280 
103.878  73.339  42.794 
102.083  76.145  39.329 
100.497  77.413  37.384 
99.840  79.030  38.381 
97.493  82.004  36.750 
99.382  83.584  41.246 
97.858  83.582  39.307 
