37.985  36.468  21.497 
39.766  34.842  21.519 
37.617  37.433  21.318 
41.389  35.469  20.270 
41.521  36.576  19.266 
42.405  36.616  18.685 
48.014  33.534  18.889 
49.904  37.359  16.389 
42.966  36.366  19.339 
43.658  34.369  20.342 
44.788  31.902  21.921 
50.839  27.979  22.865 
46.748  30.730  21.152 
42.380  34.214  21.063 
46.232  28.665  23.798 
45.870  31.241  21.311 
46.123  32.178  20.602 
47.475  29.598  22.347 
51.238  27.059  23.450 
53.209  30.729  19.018 
51.771  29.175  21.486 
54.530  31.903  18.823 
50.889  29.214  22.030 
56.045  30.485  19.104 
56.027  29.052  20.569 
57.551  28.734  20.665 
56.516  29.092  20.927 
57.634  28.672  20.220 
58.415  28.863  20.312 
59.144  27.626  21.304 
59.672  28.889  20.583 
60.859  26.721  22.389 
60.361  27.178  21.930 
61.684  27.423  21.763 
65.695  27.670  20.660 
64.743  28.002  20.788 
65.335  31.168  19.024 
62.297  28.281  20.483 
67.524  29.342  20.936 
63.261  30.456  19.838 
77.693  26.048  26.752 
69.931  27.896  21.765 
70.938  34.081  17.761 
70.927  34.310  18.221 
72.808  29.294  21.268 
78.515  28.486  24.583 
73.697  30.279  21.605 
65.781  30.988  19.447 
72.084  28.695  21.483 
77.376  31.799  21.432 
73.432  29.599  21.651 
76.629  31.982  20.313 
78.275  32.464  21.863 
80.218  32.649  22.439 
78.158  33.582  20.211 
77.201  34.243  19.674 
78.456  34.521  20.370 
78.646  35.883  18.779 
77.807  32.937  20.469 
80.391  36.806  19.528 
80.885  36.778  20.222 
81.717  37.719  19.935 
82.157  38.703  20.286 
82.852  39.692  20.052 
81.417  39.990  19.506 
83.019  41.400  19.679 
83.514  42.311  19.694 
84.424  42.376  20.047 
83.763  43.252  19.238 
84.063  44.166  19.992 
85.091  43.868  20.060 
85.784  44.200  20.275 
85.243  45.101  20.562 
85.751  46.059  20.210 
87.029  46.654  20.050 
87.207  47.362  20.276 
87.170  47.876  20.606 
88.004  47.881  21.175 
88.182  51.340  19.273 
89.464  48.834  21.173 
87.826  50.984  19.905 
83.817  52.007  16.286 
91.441  52.573  21.854 
91.045  51.330  21.920 
93.237  55.582  23.170 
94.643  55.829  24.103 
92.307  58.184  21.706 
94.185  54.966  23.629 
89.026  61.232  18.947 
95.017  59.589  24.374 
89.953  68.408  20.989 
90.746  55.851  21.086 
97.257  53.875  27.472 
90.468  59.814  20.647 
91.297  66.313  21.788 
91.517  61.981  21.099 
89.538  67.778  20.345 
83.755  67.995  17.152 
86.926  64.525  18.569 
90.076  60.258  20.082 
88.560  69.526  19.723 
90.486  68.836  21.903 
83.220  63.343  15.666 
82.774  66.240  15.747 
85.307  70.017  18.759 
82.147  69.113  15.507 
86.607  69.393  18.854 
85.386  65.512  17.422 
86.106  70.119  18.785 
88.798  77.377  23.221 
85.408  77.989  22.144 
90.238  74.442  23.608 
91.994  77.636  26.815 
85.026  70.964  17.716 
88.990  74.059  22.459 
83.358  77.001  19.692 
80.127  78.278  18.669 
75.455  77.533  16.457 
76.898  76.814  16.528 
81.238  73.905  16.270 
83.145  81.863  22.163 
86.397  77.385  22.775 
90.455  80.093  26.526 
86.919  76.808  21.866 
86.824  79.858  23.654 
86.467  86.088  26.603 
78.318  84.951  21.937 
78.498  86.458  22.604 
77.596  86.098  22.115 
77.013  85.753  21.725 
77.302  87.164  23.603 
76.338  87.149  22.542 
74.462  88.185  23.318 
75.309  88.303  23.597 
73.639  87.819  22.321 
72.929  88.883  22.712 
71.202  89.225  23.470 
70.092  89.721  22.719 
69.163  91.704  23.567 
67.323  92.948  23.582 
65.743  89.591  21.673 
70.422  91.681  24.959 
63.924  87.762  19.038 
64.444  89.418  20.168 
68.034  95.778  26.196 
64.521  87.879  19.689 
66.774  93.614  24.359 
61.115  92.044  21.321 
62.015  92.124  21.331 
56.131  87.309  17.799 
59.475  92.234  21.949 
55.203  91.861  21.818 
57.016  94.009  22.888 
57.242  93.163  22.082 
58.187  85.521  17.420 
63.474  86.173  17.933 
56.434  92.821  21.854 
52.588  94.254  23.723 
53.933  93.828  23.313 
57.388  86.276  16.979 
50.735  88.557  20.494 
54.598  91.882  20.954 
47.380  92.412  23.482 
53.210  89.884  20.001 
52.301  89.635  20.102 
53.983  90.036  20.276 
47.666  89.460  21.482 
44.331  86.529  20.822 
44.752  89.101  22.602 
47.683  90.691  21.768 
44.184  95.112  28.307 
43.971  89.240  22.649 
46.660  89.328  21.654 
54.865  94.727  23.937 
46.011  93.227  25.453 
45.499  86.844  20.860 
43.803  91.395  24.667 
44.544  91.653  24.379 
38.766  87.266  23.280 
42.805  89.613  24.123 
42.212  88.766  23.832 
44.869  90.124  22.783 
40.550  90.028  25.314 
39.194  90.647  26.983 
35.467  87.330  25.023 
38.636  84.083  22.850 
32.997  82.241  23.720 
38.734  84.161  22.229 
36.223  80.364  21.460 
37.014  78.805  20.608 
38.064  85.452  23.791 
33.389  76.110  20.617 
31.597  79.858  24.172 
36.124  80.620  21.906 
30.476  77.664  24.008 
32.059  74.592  20.950 
34.656  79.329  22.384 
35.521  77.849  20.552 
30.782  77.730  23.428 
34.436  76.383  20.810 
31.272  74.566  22.030 
28.803  73.594  24.244 
31.201  77.260  22.854 
30.947  66.597  20.229 
31.459  67.485  20.154 
29.850  73.779  23.142 
28.452  72.879  24.203 
28.135  71.104  25.004 
27.887  69.700  23.881 
28.016  68.756  23.871 
26.289  66.277  25.095 
25.695  64.616  25.651 
28.564  67.546  23.299 
26.879  68.398  24.452 
29.040  68.128  22.927 
28.608  61.633  22.133 
26.445  62.177  24.498 
29.541  61.575  21.351 
27.929  64.398  23.139 
27.476  62.680  23.106 
27.080  62.426  24.110 
26.929  60.942  23.412 
26.809  59.514  23.491 
26.694  57.804  23.452 
27.712  58.059  23.448 
27.904  56.735  23.265 
26.837  55.355  24.135 
27.071  54.685  24.152 
26.998  55.023  24.467 
27.801  54.986  23.859 
28.539  54.924  23.282 
28.579  51.332  22.633 
27.747  54.556  23.450 
27.705  49.754  24.667 
31.227  50.407  20.792 
24.709  48.280  27.724 
29.241  50.515  21.872 
29.664  53.298  21.811 
30.982  44.415  22.370 
28.843  41.418  25.291 
32.004  42.878  21.729 
28.697  48.326  23.072 
30.556  46.114  22.349 
34.287  46.130  19.171 
28.360  39.643  26.229 
29.358  40.640  24.446 
30.173  48.133  22.353 
32.666  44.034  21.701 
31.870  45.211  21.772 
31.804  40.770  23.371 
37.973  38.464  20.218 
39.434  39.941  18.802 
33.340  42.660  21.341 
35.633  38.032  22.459 
37.598  43.748  18.477 
41.915  37.242  19.067 
36.243  36.959  22.042 
33.821  42.938  20.142 
43.439  33.076  21.832 
41.430  34.497  21.148 
41.255  36.333  20.156 
54.029  36.225  15.798 
44.203  38.123  17.338 
48.893  34.941  17.633 
43.987  32.686  21.141 
42.438  37.535  18.628 
48.504  35.290  18.036 
45.663  32.846  19.969 
43.720  32.510  21.745 
44.097  33.538  20.512 
46.553  32.450  20.141 
48.214  30.154  22.058 
44.839  31.037  22.138 
50.277  30.642  20.141 
49.649  32.287  18.586 
51.115  31.344  19.052 
54.456  29.772  19.960 
55.713  30.200  19.770 
55.746  29.207  21.098 
57.034  29.828  19.863 
57.290  29.435  20.017 
56.704  28.992  20.034 
58.458  31.043  18.875 
58.643  29.399  19.591 
59.132  28.189  21.126 
58.916  30.365  19.033 
60.282  28.161  20.585 
59.830  29.635  19.527 
61.788  27.733  20.990 
63.899  27.997  21.074 
69.815  28.548  21.773 
64.042  29.408  19.999 
63.883  32.234  18.450 
65.002  30.456  19.233 
68.655  31.485  19.014 
69.126  27.522  21.507 
71.652  32.143  19.178 
74.275  35.420  17.355 
68.569  29.606  20.313 
68.087  32.424  18.458 
72.345  23.342  26.712 
70.998  27.017  22.443 
70.490  31.251  19.915 
72.004  31.091  20.850 
74.910  30.688  21.222 
80.052  33.299  21.547 
77.895  31.629  21.559 
75.809  32.582  19.996 
77.906  34.534  19.064 
76.629  33.586  19.386 
75.335  34.549  19.035 
76.888  35.166  18.531 
77.350  36.033  18.001 
78.725  34.752  19.767 
78.893  36.657  18.985 
79.559  36.923  19.621 
80.377  38.298  19.054 
81.414  38.587  19.707 
81.653  39.013  19.675 
82.221  40.424  19.787 
82.882  41.335  20.511 
83.208  42.859  18.928 
83.841  42.512  19.245 
83.219  44.114  19.043 
84.516  43.946  19.556 
84.765  44.470  19.964 
85.400  44.845  19.851 
85.725  46.420  19.695 
86.407  46.152  20.116 
86.234  47.090  20.197 
86.783  47.402  19.879 
87.599  48.692  20.311 
88.344  48.916  20.589 
87.743  47.891  20.401 
87.659  49.111  20.059 
89.361  50.328  21.241 
89.589  49.085  21.971 
92.844  52.535  23.690 
92.943  59.283  22.182 
91.516  53.790  21.831 
91.199  56.854  21.051 
95.749  58.511  25.036 
95.094  51.835  26.365 
94.925  55.429  24.821 
91.424  60.520  20.444 
89.151  65.430  19.176 
92.123  56.484  22.141 
90.516  62.040  20.335 
91.419  58.307  20.489 
93.039  62.017  24.433 
89.538  68.550  20.133 
89.307  64.020  19.647 
91.604  66.232  22.513 
88.466  65.080  18.717 
86.491  63.739  17.661 
87.208  62.365  18.216 
87.110  63.669  18.222 
85.680  72.759  19.190 
89.426  71.228  22.419 
83.989  73.794  18.805 
85.375  77.487  21.027 
86.343  71.270  18.755 
84.419  74.726  18.702 
86.321  70.563  18.451 
85.598  76.533  21.221 
84.509  78.647  21.146 
86.462  68.633  18.431 
89.748  73.975  22.978 
83.311  71.355  16.981 
88.825  75.100  22.048 
81.043  75.948  17.587 
78.249  77.570  18.098 
79.819  77.401  17.838 
88.762  76.843  23.157 
85.933  80.076  22.718 
78.221  81.994  19.878 
78.052  79.014  18.002 
80.678  82.614  21.684 
84.652  80.459  22.034 
82.336  81.833  21.974 
84.002  83.874  24.151 
76.792  86.370  22.138 
81.273  84.392  22.660 
76.934  84.860  21.216 
74.538  87.709  22.404 
74.916  87.072  21.892 
73.958  88.437  22.602 
74.261  87.544  21.838 
71.876  89.431  23.167 
71.288  89.266  22.527 
70.057  89.497  22.054 
69.280  89.183  22.323 
68.699  89.919  22.573 
68.098  91.689  23.342 
66.556  90.452  22.100 
68.395  90.445  22.765 
65.439  90.878  21.450 
63.144  93.316  22.540 
63.378  88.941  19.428 
66.256  89.761  21.786 
61.181  88.667  19.182 
62.785  87.006  18.388 
58.381  91.929  21.465 
52.114  88.193  19.218 
57.247  92.010  21.456 
58.569  87.471  18.163 
58.565  88.411  17.799 
59.198  88.429  18.750 
59.263  84.681  16.358 
64.776  88.637  20.045 
55.494  91.712  21.032 
53.635  91.224  20.652 
52.680  95.617  25.107 
55.883  90.037  20.074 
55.756  86.193  17.349 
52.136  93.105  23.130 
49.571  89.709  20.616 
51.478  90.337  20.994 
56.391  86.881  17.795 
50.458  94.026  24.441 
45.179  96.431  28.711 
48.805  93.049  24.011 
52.461  89.815  20.512 
50.026  91.349  21.882 
47.486  91.294  22.538 
46.127  85.673  19.526 
46.575  89.964  22.305 
47.423  90.147  22.040 
44.439  90.794  24.264 
44.110  90.163  23.687 
46.093  94.004  26.586 
41.414  87.747  24.010 
41.378  86.072  22.104 
43.532  86.106  21.594 
40.992  85.355  21.565 
40.786  85.567  22.001 
39.726  86.686  22.599 
36.273  82.570  22.801 
33.542  84.650  24.724 
32.780  81.561  23.322 
34.960  82.590  23.471 
38.229  87.872  24.777 
35.349  81.439  22.276 
31.551  76.674  22.050 
32.996  71.603  19.628 
34.995  77.272  20.171 
30.261  76.068  23.378 
37.517  74.292  17.477 
32.656  76.141  21.038 
29.605  79.085  25.629 
29.213  74.862  24.801 
31.498  74.335  21.223 
30.693  70.280  21.970 
29.055  74.170  24.090 
30.310  73.245  22.463 
29.776  71.498  23.239 
28.392  71.824  23.993 
28.254  71.672  24.437 
29.238  72.305  23.059 
28.147  70.815  24.274 
28.454  69.460  24.158 
27.612  67.198  24.196 
28.243  69.124  23.519 
32.919  68.242  19.455 
25.198  64.521  25.392 
27.527  65.965  23.730 
26.066  64.265  25.252 
30.464  63.743  21.149 
27.107  62.000  23.332 
27.000  63.864  24.187 
28.436  63.008  23.290 
27.705  61.142  23.190 
27.076  61.477  23.393 
27.664  59.827  22.580 
27.029  59.990  23.340 
27.018  58.710  23.326 
26.890  57.172  23.972 
27.334  56.970  23.465 
26.467  56.001  23.974 
27.016  56.489  23.309 
27.207  55.682  23.648 
28.682  55.370  22.664 
29.951  53.888  21.271 
28.441  52.031  22.823 
24.942  49.076  26.571 
25.116  48.228  26.278 
32.504  47.264  20.411 
32.274  47.702  20.449 
26.861  43.675  26.527 
33.597  46.925  20.063 
25.022  50.896  26.754 
29.189  48.587  23.281 
28.042  43.468  25.768 
35.159  45.038  19.033 
34.470  37.332  22.384 
33.217  48.412  19.699 
30.295  44.063  22.774 
33.292  37.363  23.448 
33.405  38.206  22.491 
35.025  44.122  19.677 
31.504  43.871  22.287 
39.757  39.271  19.093 
42.301  40.322  17.152 
36.133  39.141  20.670 
34.441  40.980  20.378 
40.864  38.758  18.803 
40.903  33.450  22.603 
47.805  39.308  16.294 
40.778  36.838  19.543 
46.114  39.883  16.973 
41.893  34.368  21.022 
40.835  39.640  18.266 
49.145  32.528  18.801 
51.607  38.786  15.929 
47.955  34.597  17.981 
48.011  37.556  16.184 
44.126  35.559  18.717 
42.931  34.082  20.633 
48.569  38.248  15.934 
49.416  31.438  20.054 
52.945  35.880  16.013 
47.818  30.454  21.256 
49.514  30.296  20.694 
48.336  29.213  22.146 
50.183  34.788  17.122 
53.328  29.861  21.028 
48.870  30.851  20.430 
54.823  29.932  20.561 
55.229  30.990  19.015 
55.976  29.899  20.479 
54.766  29.903  19.353 
56.831  30.392  19.059 
57.972  30.174  19.793 
58.933  29.841  19.750 
59.411  29.011  19.952 
62.333  31.217  18.342 
60.213  28.873  20.645 
60.306  29.248  20.053 
63.021  27.802  20.885 
62.687  25.446  23.017 
65.082  28.280  20.482 
61.590  28.468  20.899 
68.049  37.201  15.864 
74.524  31.519  20.201 
70.536  34.775  17.338 
71.843  30.583  20.389 
69.297  32.045  19.360 
72.580  27.205  22.513 
71.649  29.672  20.840 
67.603  32.414  18.321 
74.540  30.298  21.351 
70.978  30.142  20.712 
72.781  30.327  20.692 
68.845  30.714  19.425 
70.190  32.182  18.963 
72.704  35.425  17.275 
75.679  33.434  19.354 
74.786  31.412  20.632 
76.407  34.968  18.714 
74.253  30.767  20.664 
74.434  34.460  18.803 
74.113  32.507  19.797 
78.748  35.293  19.530 
78.291  37.621  18.232 
80.066  37.544  19.158 
79.352  37.209  18.663 
80.904  37.877  19.588 
80.578  39.638  19.173 
81.207  40.743  18.911 
82.158  40.532  19.116 
81.819  41.140  18.652 
82.604  41.329  18.953 
83.617  44.664  19.228 
83.883  43.579  19.604 
83.389  45.444  18.685 
84.460  44.924  19.576 
85.133  45.725  19.794 
84.969  46.858  19.755 
85.613  47.611  19.317 
85.677  48.114  18.915 
85.735  48.179  19.908 
86.521  48.317  19.961 
87.027  48.791  19.521 
88.815  49.193  20.695 
88.184  49.867  20.400 
91.229  55.459  20.962 
89.619  53.360  19.580 
89.597  50.843  20.416 
88.314  54.186  18.834 
86.206  57.052  17.725 
91.834  65.130  23.082 
91.250  58.808  20.544 
89.141  62.081  19.503 
88.379  55.752  18.370 
89.695  59.768  19.494 
88.791  59.847  18.679 
82.016  59.688  14.500 
84.210  59.307  16.162 
86.887  60.118  18.193 
84.679  66.493  16.935 
89.625  61.725  19.418 
86.809  65.738  18.555 
84.750  61.642  16.310 
86.257  60.184  17.175 
81.129  62.270  14.242 
83.731  66.119  16.569 
85.195  60.629  16.565 
85.201  67.111  18.057 
87.020  69.191  19.452 
83.316  72.353  16.959 
88.536  66.461  19.111 
81.941  75.565  17.870 
85.409  71.295  18.622 
88.041  74.837  22.239 
84.831  69.161  17.463 
88.273  75.831  22.273 
83.746  77.180  19.397 
88.945  77.776  23.916 
80.739  79.993  20.372 
74.568  76.350  15.522 
82.247  80.379  20.696 
84.417  79.294  22.023 
84.074  81.508  22.915 
90.157  81.767  26.560 
84.750  81.350  23.083 
78.866  77.201  17.094 
74.619  77.492  16.409 
77.884  79.990  19.063 
80.942  79.735  19.538 
77.987  85.770  22.262 
81.387  85.925  24.095 
77.754  85.407  22.080 
75.228  86.311  21.529 
77.605  86.565  22.598 
74.118  87.071  22.187 
72.943  87.717  22.009 
72.104  88.329  22.975 
71.624  88.844  22.389 
70.851  89.284  22.299 
69.402  89.082  21.549 
68.990  89.771  21.793 
68.366  89.224  21.431 
67.009  90.667  22.184 
66.707  89.202  20.820 
69.510  90.863  23.675 
67.374  89.932  21.863 
64.577  88.996  20.723 
59.850  91.342  20.721 
61.538  87.548  18.302 
63.739  91.026  20.861 
65.587  97.251  27.636 
61.182  91.799  22.373 
58.101  90.370  20.147 
59.692  88.619  18.998 
58.011  91.995  21.815 
54.552  94.455  23.605 
54.079  91.408  20.501 
58.152  89.803  19.605 
52.481  93.894  22.883 
52.429  91.552  21.555 
55.122  98.491  28.293 
53.364  96.750  26.390 
55.956  85.432  17.031 
53.145  88.537  20.211 
50.215  86.578  19.013 
56.036  87.881  17.990 
48.829  93.366  23.583 
55.211  89.002  19.470 
43.887  88.242  22.340 
52.415  93.738  23.790 
46.765  86.033  19.745 
45.112  88.197  21.237 
49.800  90.146  21.047 
47.053  89.444  21.168 
46.997  94.614  26.727 
43.819  85.854  20.784 
42.964  86.301  21.516 
44.492  86.954  21.169 
47.434  87.614  20.376 
44.380  88.968  22.295 
41.690  85.973  21.715 
42.978  85.681  20.847 
42.258  85.557  21.932 
40.464  84.740  21.517 
35.407  85.908  24.988 
39.352  85.515  22.702 
39.705  84.575  21.990 
35.722  84.567  23.609 
35.641  80.937  22.356 
36.873  76.975  19.525 
35.169  76.495  19.479 
34.044  83.039  23.382 
34.138  84.197  24.801 
34.034  78.133  21.365 
35.930  76.153  19.718 
33.585  78.203  21.631 
32.879  79.710  23.247 
30.822  75.828  22.559 
32.457  76.663  22.205 
29.901  72.368  22.620 
33.391  68.797  18.948 
29.273  69.062  22.919 
31.316  71.140  21.176 
29.975  66.661  22.019 
28.604  64.816  22.682 
28.767  69.521  23.193 
27.695  70.477  24.303 
28.387  70.055  23.437 
31.238  65.513  20.017 
30.832  69.278  21.917 
27.650  68.337  24.004 
26.681  66.652  24.721 
26.810  65.047  24.133 
27.961  64.584  23.686 
27.446  62.948  23.567 
28.115  61.262  22.400 
28.769  61.020  22.778 
30.405  59.991  20.051 
27.918  60.508  22.650 
26.659  60.878  24.231 
27.401  60.260  23.070 
27.292  59.332  22.784 
27.876  58.077  22.376 
28.101  56.083  22.569 
27.643  57.234  22.661 
28.962  56.580  22.225 
29.047  56.041  21.550 
28.064  55.417  23.023 
30.967  51.675  20.247 
27.847  52.352  23.325 
29.694  54.604  21.638 
25.813  51.285  25.247 
29.587  49.069  22.105 
29.422  55.334  21.251 
28.108  51.762  23.940 
31.090  49.598  21.057 
27.036  47.408  25.008 
32.834  46.050  20.985 
30.439  48.591  21.777 
35.027  46.399  19.053 
37.732  44.586  18.063 
29.803  49.854  21.748 
29.495  41.521  24.458 
29.683  42.932  23.748 
35.811  46.720  19.090 
34.074  44.271  19.856 
32.920  40.372  22.064 
32.644  42.097  21.599 
40.543  39.559  18.770 
33.796  40.104  21.915 
42.395  38.710  17.861 
35.450  38.098  21.662 
36.044  41.204  20.193 
38.195  37.836  20.860 
42.788  41.929  16.425 
38.976  38.904  19.450 
43.793  36.473  19.136 
44.507  36.518  18.523 
49.766  35.152  16.950 
46.396  38.107  17.179 
47.550  26.177  25.561 
47.034  34.354  18.295 
45.434  35.332  19.163 
49.196  34.506  17.215 
53.204  37.475  15.531 
47.744  27.694  24.484 
44.218  30.748  23.184 
44.185  33.532  20.987 
47.201  37.513  17.319 
49.016  31.630  19.720 
45.278  36.371  17.861 
54.134  30.706  19.159 
53.849  30.071  19.465 
54.285  31.447  18.428 
53.404  30.332  19.553 
55.440  33.940  16.787 
56.836  32.133  18.170 
56.426  34.169  16.583 
56.574  30.047  19.739 
56.864  31.208  19.225 
58.251  30.900  20.038 
60.774  30.789  19.477 
61.239  29.946  19.523 
60.039  30.534  19.371 
60.982  27.969  20.604 
61.107  27.806  21.439 
63.643  27.463  21.815 
68.234  27.801  22.064 
64.764  28.834  20.509 
65.044  32.604  17.907 
70.941  32.437  19.397 
64.288  34.231  16.710 
68.477  33.139  18.046 
71.191  36.891  16.087 
68.134  33.958  17.689 
69.688  33.214  18.277 
71.661  34.119  18.131 
67.857  30.871  19.728 
70.342  34.859  17.859 
76.392  33.013  19.447 
72.534  33.534  18.500 
72.654  31.637  19.770 
72.490  31.191  20.200 
73.675  33.570  18.448 
75.706  31.326  20.477 
74.940  35.728  17.593 
76.009  35.130  18.508 
79.521  35.257  20.052 
78.137  37.459  17.590 
78.736  38.776  17.610 
79.855  38.301  19.039 
80.287  38.968  19.488 
80.986  39.790  18.753 
80.624  40.821  18.085 
80.937  40.671  18.498 
81.154  41.399  18.376 
81.874  41.793  18.434 
83.091  42.019  19.102 
82.879  45.069  18.333 
84.444  45.391  19.093 
83.803  45.336  19.371 
83.964  46.043  19.193 
84.611  46.347  19.156 
85.177  46.951  19.269 
85.999  47.576  19.649 
85.654  49.101  19.202 
87.136  49.666  19.458 
88.911  51.383  20.274 
88.728  50.589  20.525 
89.996  52.988  20.175 
87.620  52.313  18.897 
88.280  57.795  18.096 
89.695  58.410  19.259 
94.039  53.175  23.560 
92.026  53.133  21.778 
87.064  55.938  17.909 
94.192  59.319  23.913 
94.255  60.146  23.212 
89.256  59.046  19.325 
83.314  61.083  16.435 
90.166  61.408  20.167 
92.024  63.013  21.795 
85.563  61.874  17.397 
86.219  62.347  17.303 
91.060  65.636  21.399 
83.450  59.221  16.077 
86.333  61.191  17.512 
89.376  59.608  18.559 
84.871  70.639  18.209 
79.209  63.596  13.380 
87.380  64.114  18.130 
85.779  60.247  16.991 
86.929  71.054  19.364 
84.186  69.905  18.066 
86.715  71.489  20.516 
83.992  75.805  19.268 
89.444  74.650  23.125 
86.565  71.905  19.880 
78.708  74.364  15.550 
85.118  76.532  19.839 
87.034  74.112  20.995 
80.983  74.814  17.696 
83.177  75.715  18.789 
80.848  67.565  14.793 
77.347  79.470  18.034 
83.720  79.341  21.195 
75.377  80.674  18.906 
79.006  80.522  19.373 
77.358  76.323  16.094 
80.589  84.280  22.331 
78.350  79.240  18.699 
79.165  81.390  20.246 
79.785  81.691  20.562 
76.161  83.918  20.347 
77.175  84.853  21.648 
75.780  85.621  21.765 
76.094  86.741  22.243 
74.939  86.920  22.346 
75.597  86.848  22.186 
71.921  88.195  21.720 
72.810  87.858  22.513 
71.483  88.040  22.148 
71.400  87.962  21.209 
71.067  88.631  21.735 
69.497  88.496  21.389 
68.869  89.159  21.352 
68.483  88.453  21.478 
67.882  89.916  22.213 
67.501  89.281  21.573 
66.636  86.418  18.823 
66.981  87.847  20.012 
65.103  87.254  19.263 
63.551  87.263  18.252 
65.779  88.684  20.223 
59.003  93.667  22.447 
58.832  89.879  19.117 
60.881  89.913  19.377 
58.443  89.346  19.497 
61.594  91.322  20.971 
60.401  90.463  19.952 
63.962  93.715  23.934 
54.919  87.230  18.176 
57.325  89.219  18.913 
47.168  90.290  21.554 
45.996  89.256  22.162 
53.246  94.534  23.853 
57.980  85.762  16.646 
56.896  86.850  17.534 
45.572  87.811  20.721 
50.609  88.787  19.995 
49.412  86.750  18.951 
51.506  91.002  21.858 
46.794  90.640  22.065 
53.107  93.569  23.154 
53.066  94.761  24.568 
51.278  89.346  20.208 
47.262  93.304  24.946 
49.409  90.760  22.006 
46.002  90.152  22.814 
46.416  85.068  19.035 
47.114  86.334  19.409 
45.956  88.470  21.177 
42.373  85.694  21.359 
42.432  86.430  21.572 
42.457  84.900  21.088 
41.879  85.061  21.268 
41.883  84.306  21.451 
41.297  84.745  21.833 
40.439  84.269  21.947 
39.576  84.197  22.299 
39.013  85.201  23.345 
36.986  80.529  21.280 
35.452  79.865  21.182 
35.686  85.323  24.021 
33.864  75.040  19.501 
30.348  80.195  25.215 
31.579  73.307  20.798 
35.996  73.038  18.765 
33.442  79.921  22.490 
30.236  76.554  24.168 
29.911  71.406  22.561 
31.860  71.373  19.872 
29.596  76.899  24.557 
30.589  75.308  23.527 
30.637  72.614  21.928 
31.156  76.569  22.438 
29.015  71.382  23.038 
29.724  67.932  22.231 
30.175  64.465  21.374 
28.958  68.931  23.733 
29.642  70.833  22.813 
28.440  68.289  23.488 
29.069  68.095  23.780 
27.408  66.846  23.788 
30.234  70.543  22.952 
26.193  66.960  24.710 
26.289  65.183  24.749 
32.318  63.558  18.296 
26.926  66.016  24.001 
29.685  62.350  21.734 
33.103  56.330  18.573 
29.765  60.086  21.406 
28.858  60.773  22.174 
28.370  60.267  22.025 
27.533  58.785  22.631 
28.193  58.456  22.113 
28.111  56.641  22.550 
28.952  57.245  22.302 
27.601  56.146  23.201 
29.007  55.181  21.943 
27.313  55.410  24.370 
28.567  56.653  21.864 
32.807  52.292  19.758 
28.376  53.483  22.954 
31.223  48.803  21.484 
31.440  54.646  20.038 
28.391  44.751  23.752 
27.784  44.123  26.503 
29.759  49.710  22.234 
31.449  45.977  21.611 
28.311  48.602  24.395 
33.175  46.229  20.156 
31.277  45.997  22.063 
31.407  48.652  20.708 
32.232  46.165  21.919 
33.885  44.790  20.041 
35.704  40.666  20.781 
31.939  44.535  21.272 
48.962  38.521  15.795 
31.401  42.593  22.407 
32.615  42.816  21.525 
38.050  40.507  19.250 
39.290  37.687  19.800 
33.533  41.007  20.762 
38.879  36.394  21.375 
41.665  34.791  20.223 
39.261  41.308  18.655 
40.191  39.979  18.510 
37.314  40.489  19.072 
45.526  39.848  16.444 
43.879  39.451  17.531 
41.524  37.649  18.958 
42.614  35.024  20.550 
48.160  39.984  15.566 
50.254  33.511  17.843 
51.751  37.419  15.998 
45.582  37.978  17.000 
48.058  32.365  19.587 
45.482  30.460  22.568 
46.853  31.496  20.725 
46.225  31.658  20.378 
47.438  29.529  23.040 
50.916  31.117  20.407 
52.250  30.913  19.327 
55.405  31.702  18.352 
55.082  32.042  18.172 
56.095  32.537  17.535 
55.038  32.366  17.797 
56.018  31.063  19.349 
57.123  31.242  18.820 
55.957  31.989  18.044 
57.805  30.921  19.194 
59.437  31.175  19.232 
58.152  31.992  18.639 
62.137  30.063  19.529 
62.432  31.946  18.369 
61.654  29.713  20.269 
60.926  29.158  19.998 
62.669  29.769  19.726 
63.469  29.867  19.466 
66.686  26.660  22.180 
62.888  31.114  19.789 
64.669  32.197  18.113 
73.637  38.069  16.311 
69.176  30.060  21.068 
70.852  35.473  17.180 
74.109  28.930  21.825 
69.393  37.244  16.338 
69.760  32.294  18.616 
76.565  32.860  20.189 
69.443  31.202  19.312 
70.521  30.710  19.731 
73.330  33.424  18.811 
74.190  32.905  19.423 
72.484  32.458  19.252 
76.904  34.369  18.880 
75.055  34.126  18.499 
74.092  34.706  17.729 
77.439  37.225  17.501 
76.178  34.113  19.375 
77.955  36.687  17.956 
77.955  39.381  17.766 
78.297  36.115  18.383 
79.801  38.807  18.383 
80.550  39.087  18.779 
79.931  40.612  17.830 
80.596  41.887  18.143 
81.782  41.600  18.956 
83.199  43.631  18.571 
82.875  42.857  18.305 
82.474  43.643  18.013 
84.009  45.927  18.647 
83.943  46.897  19.003 
83.295  46.890  18.123 
84.838  47.173  18.614 
84.777  48.008  18.626 
85.767  49.385  18.464 
90.550  55.664  20.479 
85.003  54.968  16.115 
86.914  50.243  18.993 
88.521  49.653  20.135 
91.610  55.968  21.501 
90.150  53.883  20.115 
86.071  50.194  18.301 
84.364  55.818  15.405 
87.287  54.076  17.829 
90.098  55.805  19.923 
89.813  54.677  20.181 
89.408  55.846  19.752 
89.885  63.177  19.560 
92.489  56.674  21.868 
92.420  62.732  22.616 
93.198  61.140  22.420 
85.297  63.180  16.815 
93.141  60.097  21.950 
87.130  58.763  17.264 
84.719  60.648  16.233 
80.351  59.385  14.453 
78.199  62.556  13.574 
87.882  63.446  18.487 
87.386  65.649  18.830 
82.642  63.957  15.413 
80.748  63.557  13.989 
81.463  65.650  14.652 
86.993  70.143  19.136 
88.632  73.605  21.898 
81.944  76.012  18.799 
83.018  68.583  16.886 
86.147  72.803  19.982 
81.487  80.111  20.824 
83.962  66.698  17.035 
85.131  80.442  22.178 
81.256  69.555  15.611 
81.568  78.251  18.782 
81.053  80.823  20.376 
73.679  77.936  16.271 
87.096  80.544  24.252 
79.694  77.193  17.392 
86.848  79.002  22.709 
79.239  77.886  17.207 
88.052  76.592  22.680 
78.826  81.456  19.547 
75.693  79.215  18.276 
79.213  83.852  21.282 
78.349  84.015  21.739 
76.393  85.989  22.160 
74.794  86.551  21.718 
73.617  86.390  20.963 
73.590  87.645  21.459 
74.231  87.074  21.221 
72.645  87.901  21.658 
71.029  87.776  20.945 
70.262  88.036  21.489 
70.159  88.892  21.708 
69.372  88.518  20.865 
69.074  88.054  20.956 
68.595  87.867  20.521 
68.357  88.597  20.915 
67.186  88.762  21.255 
67.473  88.191  20.732 
66.897  86.527  19.470 
66.332  86.881  19.692 
65.110  90.182  20.883 
66.501  92.625  23.615 
63.723  88.692  20.061 
63.969  93.140  22.379 
64.724  93.486  22.955 
63.605  86.987  19.128 
54.773  90.742  19.984 
54.429  86.017  17.331 
56.456  91.061  21.148 
51.638  82.391  16.090 
54.095  93.478  23.021 
51.572  92.577  22.850 
58.059  87.458  17.890 
56.062  82.833  16.122 
54.804  88.822  19.128 
52.848  90.870  21.102 
52.989  81.826  15.348 
51.192  87.524  19.065 
52.156  91.950  22.074 
50.595  92.524  22.595 
48.533  88.198  19.892 
48.816  87.685  19.933 
52.885  89.370  20.053 
46.462  93.102  25.301 
48.616  88.904  20.890 
44.621  85.443  20.424 
44.461  86.029  20.549 
45.337  85.424  19.890 
45.609  85.027  20.080 
43.527  84.797  20.084 
43.444  85.384  20.350 
43.642  84.998  20.673 
42.680  84.904  20.309 
41.640  83.568  20.649 
40.137  83.878  21.213 
40.954  84.116  21.298 
39.196  84.984  22.449 
38.339  83.535  22.430 
38.798  82.806  22.140 
33.736  83.170  24.466 
35.362  77.218  19.871 
32.154  81.569  24.468 
36.352  79.797  21.079 
29.930  79.974  26.655 
35.186  75.673  19.453 
39.949  75.956  17.311 
36.791  81.065  21.514 
35.933  79.110  20.838 
31.284  73.766  21.522 
30.004  74.583  23.206 
30.839  71.077  21.473 
31.364  75.402  23.182 
30.462  75.095  23.126 
30.506  71.410  22.516 
28.699  66.169  22.774 
32.148  71.951  19.551 
29.179  69.959  22.804 
27.939  67.503  23.458 
28.792  70.776  23.621 
28.589  67.134  22.934 
26.862  65.465  24.957 
27.489  65.094  24.438 
30.277  61.194  21.079 
27.468  61.366  22.729 
33.685  60.977  17.666 
32.751  61.790  18.404 
28.110  62.020  22.556 
30.880  58.336  19.465 
29.606  57.704  20.681 
28.925  59.933  21.638 
27.969  59.337  22.154 
28.343  57.523  22.230 
29.540  57.724  21.759 
30.664  55.665  20.038 
30.301  57.164  21.108 
29.772  56.468  21.031 
31.946  56.888  19.058 
28.121  54.421  22.737 
28.842  54.573  22.363 
30.901  54.132  20.179 
30.381  45.087  22.803 
32.786  51.294  19.493 
25.930  45.300  26.742 
28.085  49.122  24.140 
24.533  48.755  27.484 
34.311  36.598  22.732 
30.501  49.458  21.504 
29.393  51.569  22.376 
33.772  46.662  19.707 
34.579  47.294  20.024 
39.256  45.220  17.008 
37.461  43.882  17.988 
33.996  51.205  19.235 
36.340  43.932  18.894 
33.055  43.915  20.700 
35.424  42.887  19.193 
36.928  44.573  18.173 
33.129  36.694  23.871 
39.851  38.306  20.009 
38.695  47.827  17.073 
36.570  40.179  19.418 
45.695  36.500  18.088 
41.039  42.023  17.188 
39.650  41.347  17.897 
44.768  40.262  16.916 
40.807  42.690  17.362 
42.690  38.833  18.276 
41.839  38.172  18.371 
47.553  39.892  16.071 
48.995  36.216  16.674 
51.268  31.073  19.630 
52.371  40.596  15.007 
48.145  35.908  17.035 
56.864  36.553  15.671 
45.321  32.391  21.442 
50.782  38.254  15.701 
47.317  32.106  19.964 
48.559  27.662  23.634 
51.735  31.860  19.013 
44.840  36.920  17.880 
49.735  31.142  19.606 
50.626  34.651  17.540 
55.500  33.561  17.263 
58.451  34.786  16.290 
53.361  36.661  16.232 
53.503  32.566  17.920 
57.834  31.614  18.606 
58.361  33.343  17.176 
57.256  31.828  17.972 
61.692  30.729  18.906 
59.212  31.051  18.463 
61.003  31.926  18.519 
61.220  31.429  18.332 
61.472  28.875  20.644 
62.035  32.921  17.932 
68.874  34.250  17.705 
68.922  32.752  18.191 
70.423  34.051  17.534 
75.271  29.959  21.657 
65.568  32.323  18.378 
71.245  36.538  16.785 
69.764  34.642  17.072 
76.109  30.255  21.475 
71.044  28.267  22.338 
68.231  30.239  20.472 
74.159  34.327  18.109 
73.121  32.334  19.631 
74.838  32.110  19.980 
73.143  33.161  19.626 
75.740  35.833  18.047 
75.389  32.790  19.753 
74.689  33.032  19.142 
75.029  33.775  18.885 
75.592  34.836  18.232 
76.484  36.195  17.506 
78.930  37.493  18.328 
79.209  37.701  19.140 
80.161  39.721  18.898 
79.730  39.758  18.013 
79.861  40.276  18.333 
80.361  41.623  17.719 
81.054  42.075  18.028 
81.994  42.480  18.286 
82.616  42.340  18.438 
82.728  44.273  18.264 
82.722  45.719  18.293 
83.742  46.760  18.205 
83.643  47.716  17.843 
84.059  47.329  18.255 
84.974  47.532  18.885 
86.412  49.306  19.114 
86.722  49.051  19.832 
85.005  49.417  17.999 
87.889  57.030  17.890 
87.766  55.295  18.162 
91.730  60.186  21.175 
87.192  53.295  18.006 
91.610  54.411  22.103 
86.250  55.137  17.215 
86.971  51.447  18.165 
90.345  64.037  20.880 
93.532  57.934  23.183 
89.179  60.481  18.854 
86.166  52.875  17.197 
89.544  66.380  19.672 
88.972  63.667  18.835 
90.283  64.886  20.510 
90.076  63.589  20.233 
83.953  58.613  15.749 
87.178  61.451  17.926 
82.363  58.027  14.504 
87.886  64.805  18.260 
85.285  63.993  17.181 
87.455  69.730  19.853 
79.709  64.157  13.959 
79.745  65.124  14.456 
81.861  73.126  16.635 
84.832  62.382  16.669 
86.389  67.525  17.654 
84.175  70.072  17.235 
84.950  75.352  19.387 
87.419  79.662  23.116 
84.516  73.987  18.613 
82.603  75.940  18.261 
75.978  81.275  18.770 
84.815  77.079  20.414 
79.246  75.776  16.291 
85.436  75.672  19.910 
80.962  71.786  15.979 
80.153  73.931  16.402 
79.386  73.975  15.907 
85.372  79.808  22.102 
78.090  81.730  19.119 
80.474  80.603  19.943 
80.473  83.353  21.968 
74.361  78.359  16.163 
77.790  83.279  20.456 
76.382  82.432  19.563 
75.624  85.596  21.248 
76.249  85.289  21.760 
74.561  86.277  21.079 
74.482  85.630  21.296 
73.856  85.622  20.263 
73.135  86.998  21.945 
72.511  87.256  20.945 
72.437  87.438  21.457 
70.024  87.869  20.947 
70.003  87.368  20.287 
69.378  87.864  20.420 
68.532  87.483  20.160 
68.041  87.422  20.224 
67.038  87.357  20.256 
65.970  86.219  18.551 
66.268  87.994  19.891 
65.468  88.211  19.623 
65.911  89.539  20.715 
60.464  87.938  17.954 
60.613  86.650  17.509 
57.466  90.812  20.557 
56.515  93.686  22.283 
65.302  88.947  20.385 
63.979  88.368  19.256 
60.136  86.636  17.003 
58.918  90.146  20.007 
56.805  88.057  17.939 
60.676  95.035  24.094 
55.551  94.767  24.988 
50.255  95.270  26.247 
56.227  89.834  19.561 
53.396  89.330  19.787 
47.456  84.318  18.112 
52.438  82.677  16.233 
52.296  86.424  17.528 
51.525  88.792  19.599 
52.778  92.564  22.563 
56.463  95.185  24.289 
52.718  87.157  17.986 
43.911  84.615  19.838 
44.489  87.362  20.819 
43.209  88.999  22.976 
47.670  85.224  18.794 
47.627  83.163  17.624 
44.683  84.793  19.769 
44.463  84.024  19.751 
43.174  84.021  20.086 
42.949  84.519  20.517 
42.680  84.024  20.632 
42.274  83.904  20.158 
41.243  83.775  20.964 
40.420  83.123  21.099 
40.375  83.762  21.663 
39.855  82.906  21.657 
39.226  83.412  22.248 
37.554  82.359  22.238 
37.054  81.665  21.782 
37.519  74.998  18.263 
37.118  74.442  18.063 
36.598  75.965  19.209 
33.249  74.761  19.767 
31.488  72.977  21.184 
35.014  72.275  17.905 
39.130  72.593  16.568 
32.685  77.354  22.027 
33.776  72.602  19.195 
31.292  72.498  21.327 
32.216  77.246  21.945 
35.031  76.446  19.964 
33.353  68.244  18.498 
30.168  70.802  22.108 
30.334  68.056  22.336 
29.645  69.370  22.562 
30.238  66.669  21.417 
27.954  66.041  23.315 
27.991  65.818  23.805 
29.852  63.991  21.879 
29.122  65.313  22.995 
27.108  66.613  24.486 
33.181  57.997  18.613 
30.980  59.694  18.746 
29.189  61.909  22.232 
30.732  56.589  20.155 
32.729  57.296  18.322 
30.753  62.515  20.201 
29.476  58.804  20.946 
28.755  59.029  22.063 
28.567  58.603  22.424 
29.231  56.336  21.164 
29.219  58.400  21.961 
28.196  53.111  23.298 
28.803  55.780  21.931 
30.313  56.470  20.386 
28.618  52.394  23.607 
30.157  55.324  21.364 
31.416  47.271  21.473 
34.603  45.910  19.776 
28.372  50.469  22.836 
30.255  51.664  21.308 
26.990  50.772  24.613 
32.904  47.116  20.686 
34.662  49.338  18.727 
30.358  46.590  22.433 
30.403  41.996  23.291 
44.189  46.825  14.211 
36.291  46.702  18.149 
40.075  43.004  17.455 
36.191  49.535  18.464 
33.674  48.751  19.920 
38.548  37.718  20.375 
40.318  40.300  17.903 
35.888  39.953  20.176 
38.907  43.529  17.530 
36.186  41.448  19.548 
33.283  40.783  22.044 
33.303  40.502  21.512 
34.260  42.458  19.845 
39.933  44.533  16.712 
42.612  41.145  16.903 
48.315  39.280  15.741 
45.478  34.927  18.498 
43.841  38.943  17.148 
46.502  39.898  16.233 
46.509  41.082  16.101 
48.871  34.445  17.973 
45.933  33.859  19.592 
44.591  38.138  17.822 
42.590  44.646  16.080 
52.744  30.598  19.907 
48.586  31.789  19.354 
49.601  29.912  21.021 
43.249  36.395  18.570 
43.436  31.766  22.836 
48.478  33.338  18.378 
52.139  33.135  17.845 
54.112  31.007  18.784 
53.305  33.804  17.151 
54.167  32.024  18.240 
53.811  35.521  16.300 
56.271  31.379  18.450 
60.074  35.380  15.960 
58.369  34.226  17.015 
60.007  31.272  18.585 
56.610  32.623  17.614 
60.907  31.233  19.147 
61.650  32.527  17.614 
64.400  31.303  19.168 
60.669  30.894  18.752 
72.726  32.811  18.985 
65.583  28.067  21.301 
67.194  26.660  22.898 
62.588  29.534  20.339 
68.116  36.188  16.321 
63.081  31.728  18.190 
66.899  29.667  19.675 
68.120  31.402  19.162 
67.953  38.573  15.022 
71.856  35.200  17.080 
74.023  36.358  16.915 
69.924  30.798  20.267 
71.932  35.697  16.654 
71.143  35.523  16.671 
70.947  32.746  18.937 
76.566  35.618  18.079 
74.815  36.257  17.142 
76.900  36.042  18.294 
77.258  37.841  17.053 
74.940  36.986  17.297 
75.490  36.378  17.642 
78.180  39.584  17.242 
77.393  37.835  17.927 
79.112  39.467  18.005 
79.142  38.154  17.992 
78.069  40.481  16.910 
79.084  40.315  17.611 
80.693  42.397  17.437 
81.368  42.968  17.508 
81.579  42.447  17.876 
81.302  43.072  18.155 
82.444  45.050  18.004 
83.130  44.593  18.305 
82.908  46.459  18.018 
82.657  47.528  17.810 
83.449  47.202  17.644 
84.372  47.725  18.351 
85.500  50.077  18.116 
84.965  50.468  17.561 
87.890  50.901  19.099 
88.043  54.435  18.278 
81.084  55.703  13.853 
85.009  51.816  17.017 
86.462  56.956  16.930 
94.335  52.528  24.350 
87.967  53.031  18.552 
88.261  58.233  18.385 
88.810  56.609  18.863 
85.747  55.099  16.517 
91.659  65.536  21.663 
89.225  62.705  19.373 
84.590  62.578  16.170 
82.605  62.000  15.705 
86.407  56.136  17.287 
82.935  59.391  15.042 
80.812  63.106  14.371 
81.593  65.108  15.216 
80.161  62.007  13.587 
84.843  66.916  17.446 
80.825  63.505  14.987 
77.069  64.319  12.936 
85.334  64.256  16.704 
85.651  67.222  17.724 
84.030  70.415  17.697 
81.688  74.955  17.984 
85.281  74.843  19.789 
83.078  78.547  20.483 
84.259  75.330  18.904 
86.007  79.251  22.471 
79.790  73.016  15.243 
83.715  74.101  18.052 
76.417  73.995  14.343 
75.234  80.952  18.477 
81.835  77.866  19.307 
78.089  77.477  16.842 
76.725  78.877  17.598 
79.698  80.040  18.979 
82.194  76.876  18.477 
79.654  79.852  19.799 
75.869  75.974  15.806 
79.412  85.752  22.631 
83.872  77.942  20.383 
75.699  81.874  19.743 
76.149  85.057  21.023 
77.958  84.713  21.519 
74.718  85.707  20.526 
74.007  84.713  19.906 
74.665  84.517  20.151 
73.291  87.255  21.207 
72.242  86.912  20.757 
71.573  87.131  21.183 
71.574  87.357  20.571 
70.747  87.314  20.667 
69.164  87.175  19.977 
68.871  86.743  20.089 
67.719  87.340  19.823 
66.671  89.562  21.204 
66.808  87.309  19.692 
65.867  85.550  18.098 
64.497  86.905  18.822 
62.396  87.551  18.739 
64.082  86.560  18.403 
66.186  90.273  21.488 
64.840  87.003  19.997 
66.645  85.596  18.459 
62.252  86.772  18.220 
61.341  81.476  14.937 
56.676  85.195  17.410 
54.577  90.079  20.154 
54.688  91.535  21.525 
59.216  87.312  17.954 
57.435  84.572  16.967 
54.106  92.507  22.252 
54.066  86.977  18.529 
52.150  78.199  14.558 
55.710  86.940  17.941 
56.796  87.634  17.581 
47.010  86.908  19.682 
51.857  93.817  23.326 
50.921  85.917  17.938 
48.627  90.699  21.680 
53.457  85.085  17.084 
55.256  87.960  18.587 
48.820  90.395  21.374 
46.146  83.606  18.494 
46.932  84.905  18.426 
47.067  83.641  18.124 
44.618  84.209  19.251 
44.803  83.184  19.059 
43.470  83.293  19.471 
43.597  83.808  19.992 
42.071  83.273  20.423 
41.510  82.792  20.692 
40.790  83.440  20.873 
39.888  83.162  21.011 
39.196  82.933  21.368 
37.507  82.763  21.883 
36.853  82.255  22.007 
37.527  81.763  21.649 
34.832  83.382  23.404 
34.609  82.114  22.863 
36.607  80.080  21.735 
32.683  75.272  20.768 
34.726  78.107  20.693 
32.160  71.019  19.267 
33.724  74.144  19.381 
35.915  68.873  16.996 
30.739  74.834  22.740 
31.827  75.566  21.229 
30.215  65.733  21.233 
30.830  73.917  21.782 
31.659  69.944  20.498 
35.425  68.648  17.715 
30.931  62.845  20.492 
29.888  67.493  21.874 
29.810  63.111  21.413 
29.631  67.562  22.964 
27.510  63.811  23.845 
28.163  66.644  23.340 
28.560  63.996  22.614 
31.946  61.837  19.046 
30.900  63.583  20.363 
30.649  59.393  20.772 
30.018  59.057  21.548 
31.431  53.994  19.589 
35.374  57.156  17.442 
31.496  60.438  18.796 
32.408  56.096  18.902 
29.884  59.480  20.833 
29.368  57.184  21.757 
30.471  54.834  20.162 
31.905  53.690  19.379 
30.242  52.462  21.710 
35.074  49.471  18.929 
31.767  46.605  21.177 
31.143  55.287  19.423 
31.753  50.278  20.129 
31.929  50.903  20.608 
32.442  49.745  20.201 
28.736  49.243  22.666 
29.502  52.805  21.452 
28.028  50.849  23.919 
36.251  44.015  18.236 
27.153  48.808  25.179 
30.923  48.204  21.505 
34.634  47.344  19.307 
33.418  49.337  19.487 
31.794  42.377  23.136 
33.323  41.835  20.766 
26.131  43.700  26.872 
37.107  46.505  17.643 
34.895  43.494  19.114 
37.006  41.991  19.083 
36.953  45.526  18.668 
39.134  44.357  17.811 
33.290  45.355  20.491 
40.653  37.920  19.189 
41.305  40.237  17.983 
45.576  38.588  17.091 
38.615  40.459  18.848 
48.171  32.985  19.657 
46.927  42.325  15.690 
48.287  36.952  16.919 
50.335  37.879  15.782 
48.936  35.324  16.974 
47.063  39.165  16.171 
43.361  42.546  16.339 
45.640  30.756  22.087 
46.834  35.998  17.311 
49.853  38.114  15.871 
44.760  41.209  16.732 
51.076  33.764  17.524 
42.893  37.705  17.704 
48.827  32.748  19.021 
52.988  31.150  19.038 
51.693  33.584  18.413 
50.631  32.153  18.703 
52.035  32.323  18.373 
60.868  38.211  14.663 
58.875  33.563  17.142 
58.791  35.803  15.585 
58.878  32.233  17.616 
57.926  32.660  17.478 
59.850  33.721  17.419 
59.697  32.065  17.433 
60.607  33.002  17.967 
60.260  29.926  19.275 
63.139  32.313  18.238 
73.104  34.575  17.815 
64.158  34.971  16.238 
66.784  26.900  21.737 
72.504  34.577  18.341 
66.626  28.731  19.898 
66.692  30.486  18.738 
64.590  33.600  17.337 
73.189  26.835  23.039 
69.905  36.137  16.781 
66.588  38.908  14.839 
70.133  35.405  16.756 
66.392  41.166  13.791 
73.120  38.987  15.412 
74.803  34.836  17.897 
73.702  38.696  15.910 
75.221  38.756  16.213 
76.887  36.865  17.326 
73.160  39.474  15.308 
72.634  37.593  16.672 
77.553  39.839  16.623 
73.405  34.101  18.163 
77.112  38.698  17.084 
76.857  41.220  15.263 
77.711  40.773  16.725 
78.308  41.458  16.797 
80.263  42.170  17.323 
80.011  42.730  16.761 
80.882  43.474  17.683 
80.917  43.985  16.935 
82.358  44.337  17.929 
81.787  45.417  18.014 
83.491  45.908  18.272 
82.633  45.880  17.757 
82.999  47.478  17.417 
83.043  49.255  16.950 
83.656  48.211  18.048 
84.363  48.571  18.487 
87.515  49.580  20.075 
86.216  49.781  19.113 
84.801  52.618  16.727 
86.612  51.019  19.242 
92.155  59.035  22.008 
80.702  50.885  13.980 
85.241  52.641  17.538 
82.223  53.319  14.138 
87.372  50.941  19.018 
92.955  61.934  22.447 
90.465  60.765  20.830 
90.601  57.687  20.440 
87.787  56.179  18.118 
90.447  63.290  20.312 
91.083  62.627  20.556 
85.624  58.518  16.339 
89.751  65.024  19.941 
81.881  64.043  15.578 
88.255  52.211  19.528 
84.445  57.866  16.108 
81.950  58.575  14.978 
84.728  63.678  16.718 
84.125  61.198  16.007 
86.494  62.239  17.788 
82.045  61.671  14.638 
81.577  73.637  17.161 
84.442  65.597  16.721 
82.667  76.867  19.219 
79.566  78.155  17.806 
86.218  75.700  20.334 
82.171  77.644  18.696 
81.369  74.555  16.940 
84.959  72.610  18.797 
79.971  75.317  16.926 
75.432  72.436  14.152 
75.109  79.316  17.407 
81.698  77.002  18.057 
81.926  78.995  19.873 
75.239  81.451  19.119 
72.555  77.487  15.909 
80.275  82.163  21.096 
77.731  82.630  19.901 
77.620  84.528  22.286 
77.540  84.459  21.315 
78.030  78.419  18.119 
74.977  85.980  20.911 
73.956  85.611  20.985 
73.863  83.236  19.383 
73.785  84.838  20.408 
72.891  86.448  20.979 
73.013  85.849  20.362 
71.942  86.540  20.512 
72.215  85.755  20.829 
71.583  86.230  20.942 
70.248  86.991  20.440 
69.697  86.606  20.159 
68.532  86.629  19.659 
67.493  86.779  19.273 
67.097  85.729  19.125 
62.831  89.142  19.123 
62.578  89.257  19.741 
66.304  84.088  17.384 
65.280  86.843  19.040 
61.384  88.346  18.732 
61.863  82.005  14.695 
63.826  85.729  17.762 
60.081  87.340  17.649 
59.016  87.588  17.541 
65.409  94.066  24.048 
55.969  83.379  15.774 
52.188  84.572  16.954 
58.391  86.076  16.746 
57.924  88.658  18.863 
55.793  89.029  18.770 
53.451  80.587  15.221 
47.390  89.238  20.477 
58.071  79.954  15.078 
50.171  87.148  19.071 
50.167  92.829  23.917 
46.051  86.481  20.018 
53.724  88.301  18.959 
48.819  89.231  20.237 
46.795  91.975  23.304 
45.486  86.006  20.594 
51.447  92.651  22.185 
46.790  82.721  17.507 
45.374  84.426  19.623 
45.386  83.692  18.991 
44.107  83.564  19.116 
43.836  84.095  19.651 
43.733  82.859  19.001 
42.500  82.956  19.872 
42.166  82.418  20.445 
41.816  82.343  19.991 
41.307  82.239  20.062 
40.049  82.491  20.469 
39.158  82.249  21.941 
38.735  82.006  21.341 
38.425  81.821  21.861 
34.208  70.330  18.286 
37.959  80.658  20.798 
43.857  78.135  16.961 
36.563  81.920  22.599 
35.682  83.052  23.002 
32.679  80.617  23.045 
37.442  75.414  18.685 
37.577  73.143  17.781 
33.447  70.029  18.870 
31.647  73.522  21.756 
30.303  72.288  22.250 
30.475  73.159  23.067 
30.121  69.719  22.222 
31.022  67.334  21.209 
31.125  70.528  21.754 
28.884  65.757  23.272 
36.120  64.839  16.599 
31.650  71.359  20.468 
28.300  65.284  23.163 
30.912  65.946  20.549 
28.578  64.073  23.152 
30.017  60.358  20.619 
30.558  63.989  22.034 
31.634  62.089  19.477 
31.059  61.697  19.996 
34.691  65.431  17.082 
30.110  57.671  20.383 
32.196  58.440  18.735 
29.151  59.263  21.357 
30.453  58.196  19.884 
29.751  55.674  21.115 
31.477  58.208  19.994 
30.651  51.008  20.964 
30.891  52.373  20.954 
32.609  54.158  19.436 
31.871  52.743  19.411 
31.202  50.968  20.543 
32.263  52.066  19.610 
30.901  52.593  20.197 
28.883  52.482  22.080 
35.320  49.849  18.392 
33.081  47.970  20.190 
30.378  50.336  21.215 
33.008  46.637  20.420 
38.475  45.660  17.130 
33.887  47.907  19.559 
32.654  49.173  19.954 
40.788  44.391  16.575 
37.156  46.949  17.828 
34.468  48.721  19.222 
38.124  39.979  20.029 
36.004  48.721  18.115 
36.013  45.037  18.499 
39.741  47.728  15.964 
36.809  40.948  19.398 
39.369  45.642  17.294 
30.429  43.008  23.184 
39.850  38.257  19.462 
38.728  41.933  18.239 
44.311  40.978  16.588 
47.499  35.569  17.739 
42.599  35.944  19.104 
45.444  42.964  15.912 
42.056  39.260  17.930 
43.688  37.470  17.983 
52.122  35.588  16.450 
47.552  33.620  19.409 
51.431  36.160  16.260 
45.035  37.977  17.541 
46.550  36.443  17.417 
50.910  37.109  16.053 
46.178  34.729  18.848 
46.264  31.488  21.092 
56.015  35.411  16.197 
52.827  32.338  18.385 
60.330  36.584  15.074 
52.607  32.006  17.977 
54.705  34.924  16.079 
58.527  42.531  13.238 
53.245  34.672  17.290 
57.103  32.780  17.680 
60.336  32.200  17.941 
60.335  31.438  18.030 
61.214  33.642  17.179 
60.190  37.608  14.704 
62.920  34.408  16.943 
67.771  29.581  20.137 
62.175  30.811  19.029 
61.860  29.366  19.981 
64.669  30.088  19.831 
71.422  33.162  18.937 
62.780  31.471  18.934 
65.926  35.203  16.403 
66.315  27.591  21.167 
66.061  31.579  18.864 
73.193  35.877  16.905 
66.121  37.567  15.186 
70.013  31.388  19.464 
75.122  39.611  16.372 
73.788  37.181  16.608 
75.398  35.391  17.813 
70.339  40.239  14.782 
74.595  36.988  16.685 
74.347  37.791  16.826 
76.072  40.428  15.798 
76.206  41.633  15.150 
75.869  39.044  16.781 
76.958  39.893  17.107 
75.972  37.382  17.009 
78.275  38.421  17.615 
78.654  42.656  16.363 
78.059  40.455  16.097 
78.946  41.082  17.040 
80.670  42.967  17.099 
80.428  43.401  16.608 
80.928  45.534  16.801 
81.863  43.565  17.472 
82.100  45.689  17.753 
82.653  46.807  17.728 
80.113  46.504  15.815 
82.598  48.699  16.803 
83.980  48.067  17.702 
84.527  48.628  18.015 
83.326  48.153  17.322 
84.319  50.620  16.876 
84.154  52.416  16.378 
86.870  52.327  18.534 
90.102  54.158  20.919 
84.037  52.932  16.570 
83.471  53.649  16.323 
87.466  58.229  17.960 
87.202  57.431  17.517 
84.229  51.327  17.193 
85.145  51.325  17.683 
88.932  52.883  19.073 
91.331  60.855  21.035 
89.348  56.040  19.210 
85.747  58.301  16.754 
