90.506  35.226  90.382 
93.109  36.469  88.661 
90.342  35.958  90.154 
90.021  34.882  90.434 
94.732  42.489  90.479 
93.732  36.013  87.820 
91.724  35.460  89.160 
89.208  39.593  94.248 
95.727  40.668  88.574 
92.995  37.113  89.796 
93.923  45.707  92.919 
93.542  36.629  89.357 
95.779  45.337  90.093 
94.622  44.171  90.591 
95.610  42.416  89.429 
95.926  46.063  89.612 
97.024  44.790  87.455 
96.739  44.903  88.155 
98.061  48.562  88.125 
98.113  47.594  87.738 
96.905  46.078  88.005 
98.456  50.184  88.319 
97.958  50.716  88.218 
99.219  51.212  87.557 
99.662  51.162  87.816 
96.515  49.832  90.946 
97.174  51.799  90.246 
98.220  52.549  89.210 
98.275  52.766  88.434 
98.258  54.168  89.595 
99.004  54.741  89.016 
99.003  55.356  88.760 
99.351  56.613  89.090 
99.147  56.548  88.197 
99.486  57.357  88.153 
99.327  59.913  88.551 
98.112  61.779  90.052 
98.145  61.240  90.723 
100.350  58.904  86.548 
100.245  60.021  87.388 
98.846  61.972  88.842 
99.872  61.681  86.884 
100.103  63.921  87.872 
96.773  63.508  92.072 
100.066  66.052  88.016 
99.825  69.666  88.733 
100.550  70.122  87.285 
101.298  66.185  85.944 
97.467  71.575  89.769 
103.627  66.792  83.116 
102.281  66.970  85.410 
98.607  64.186  90.638 
103.888  66.862  82.036 
101.533  70.353  85.999 
99.119  72.767  88.491 
98.943  69.064  89.722 
96.760  72.161  90.770 
95.620  71.149  91.790 
98.298  72.037  89.533 
94.861  80.355  87.979 
96.697  74.343  90.778 
96.587  79.418  85.801 
94.210  80.721  87.196 
96.024  81.019  84.671 
93.042  83.129  86.245 
87.614  86.789  88.659 
89.738  86.399  87.174 
93.841  81.653  86.848 
90.923  83.074  89.805 
93.051  82.530  87.494 
89.420  84.429  88.144 
90.255  86.531  86.448 
89.649  82.751  90.229 
88.160  87.055  86.981 
87.310  85.886  89.174 
89.134  84.895  88.185 
87.468  86.616  89.467 
87.140  86.511  88.400 
86.804  90.043  87.267 
86.133  91.069  85.118 
85.853  90.584  88.565 
88.519  88.666  85.858 
86.355  88.418  89.115 
85.987  89.103  89.671 
86.566  91.253  84.951 
85.150  90.220  89.098 
83.843  91.503  90.212 
84.387  91.381  89.604 
84.637  92.302  87.650 
80.707  89.803  93.090 
80.227  92.002  91.655 
79.744  92.501  91.150 
83.144  92.031  90.233 
82.313  94.924  87.809 
83.958  95.133  83.124 
77.564  93.286  91.782 
80.001  93.296  91.057 
77.530  95.265  88.850 
75.459  95.825  88.811 
73.725  96.167  89.221 
74.115  97.204  87.187 
73.506  96.348  88.356 
72.450  96.990  88.001 
71.198  97.465  89.139 
70.613  97.441  89.036 
71.223  97.693  88.132 
69.223  98.275  89.099 
68.435  97.923  89.082 
67.984  98.561  88.691 
66.766  98.841  88.555 
66.279  98.931  89.325 
66.590  99.299  88.884 
65.653  99.430  88.791 
64.094  99.165  89.001 
65.140  98.872  89.967 
63.118  101.153  87.647 
61.993  99.103  90.188 
63.033  99.117  90.042 
60.535  98.344  90.013 
59.153  95.322  95.571 
62.617  100.601  88.362 
57.144  98.691  89.583 
59.259  96.408  92.480 
58.534  98.594  90.288 
55.198  100.301  88.557 
57.623  100.694  87.994 
50.731  99.179  89.601 
57.894  98.492  90.909 
56.444  97.969  91.771 
50.476  100.443  87.916 
52.007  96.622  92.726 
52.542  100.862  87.995 
57.219  98.337  91.390 
48.949  100.211  86.844 
45.040  100.394  84.943 
46.483  97.638  89.301 
47.340  96.570  90.194 
44.016  95.979  89.868 
43.793  94.740  91.312 
45.666  97.495  88.948 
44.322  97.248  88.892 
42.563  93.425  91.643 
43.213  97.178  87.987 
43.396  95.784  89.318 
41.947  95.571  88.153 
38.150  94.245  88.945 
42.845  94.561  90.451 
40.304  93.363  90.664 
38.467  91.054  91.332 
41.198  93.644  90.995 
39.257  96.774  86.078 
34.109  90.135  91.051 
39.221  94.983  88.525 
37.030  96.261  85.939 
32.243  89.065  90.756 
32.796  89.834  90.820 
32.352  89.711  89.486 
30.322  86.093  89.797 
31.767  89.205  90.253 
31.833  91.185  88.450 
26.930  85.825  87.896 
27.793  83.832  88.891 
28.996  83.530  89.729 
28.251  83.544  89.180 
29.255  82.191  91.279 
28.256  79.729  91.260 
29.729  83.622  90.395 
29.594  85.596  89.813 
26.031  85.781  86.339 
25.280  81.081  88.107 
27.008  79.789  90.240 
25.615  77.539  89.718 
29.116  81.019  90.963 
26.176  76.371  91.177 
25.031  76.940  89.547 
24.182  74.206  90.691 
24.609  75.017  90.466 
24.610  73.328  91.495 
25.516  74.881  90.665 
24.060  73.089  90.581 
24.105  72.206  90.370 
23.392  71.572  89.536 
22.888  71.478  89.354 
21.714  68.042  88.431 
23.898  71.345  90.966 
23.264  68.987  90.673 
23.577  68.712  91.240 
24.087  68.575  91.469 
23.445  67.860  91.046 
23.009  66.659  90.375 
21.894  67.326  89.013 
22.563  67.257  90.524 
22.289  65.680  90.312 
23.263  64.418  91.809 
22.075  64.279  90.134 
21.587  63.404  90.178 
22.148  61.712  90.847 
21.999  62.602  90.310 
21.847  60.568  90.388 
21.674  58.816  90.376 
21.886  58.285  91.221 
21.664  58.959  91.078 
21.350  57.786  90.493 
20.540  54.165  88.094 
20.833  56.899  89.480 
22.481  55.098  91.435 
21.088  53.523  89.259 
21.195  54.599  89.147 
21.464  53.264  89.914 
22.176  52.367  89.785 
21.037  52.793  89.094 
22.039  50.184  90.419 
22.601  49.135  90.865 
22.506  46.506  89.214 
21.993  49.232  89.320 
23.040  47.552  91.290 
23.338  46.715  90.798 
22.172  47.193  90.155 
21.962  44.804  89.107 
25.536  44.227  91.807 
25.221  41.565  90.134 
25.484  38.881  87.988 
28.197  40.846  92.581 
26.073  41.981  91.658 
23.699  46.873  91.572 
26.050  41.156  90.355 
26.492  40.168  89.984 
27.563  38.955  89.767 
26.578  38.983  90.293 
28.901  37.714  90.648 
29.629  36.755  90.055 
30.309  35.944  90.767 
30.300  36.331  90.418 
30.365  34.757  89.967 
31.389  35.032  90.546 
31.910  33.307  90.065 
32.518  33.077  90.594 
32.554  32.216  89.943 
32.778  32.704  90.159 
33.428  32.018  90.045 
33.751  31.615  90.551 
34.208  30.784  89.766 
34.119  30.057  89.548 
32.010  30.787  88.218 
35.512  29.473  89.972 
36.650  25.816  88.703 
35.836  27.064  88.899 
34.264  22.959  83.017 
39.463  28.509  93.191 
36.072  26.658  88.521 
38.616  25.618  90.163 
38.762  28.198  91.763 
35.613  22.819  84.581 
38.467  24.260  88.903 
42.501  26.369  93.100 
43.142  21.927  88.011 
38.001  25.813  89.444 
41.068  24.691  89.245 
42.362  21.714  86.497 
43.754  25.147  91.127 
45.156  22.727  89.792 
42.103  22.074  87.156 
44.127  21.272  86.287 
45.345  22.716  88.377 
45.388  20.480  86.459 
45.922  21.266  88.017 
47.182  21.676  88.519 
48.041  20.399  87.485 
46.817  20.205  86.947 
47.114  21.924  89.033 
57.429  17.540  85.407 
54.672  19.245  88.483 
50.953  17.268  83.736 
53.756  19.608  88.069 
49.103  21.989  90.869 
53.734  19.247  86.779 
51.501  20.828  88.618 
55.305  24.933  94.801 
57.788  18.444  87.605 
51.549  23.030  92.112 
63.104  21.305  90.298 
67.504  21.748  90.572 
64.623  19.297  88.190 
65.610  21.293  90.335 
62.676  20.114  89.231 
64.039  15.852  82.138 
60.592  20.496  89.822 
64.941  14.327  77.196 
59.497  23.812  93.449 
61.857  21.104  89.219 
73.624  19.090  84.921 
70.954  19.387  85.803 
64.546  15.362  80.486 
69.127  19.679  86.639 
69.709  17.792  83.964 
71.829  20.329  87.070 
67.319  18.218  86.339 
83.217  24.831  86.172 
81.258  26.337  90.343 
78.261  25.614  90.768 
76.312  23.515  88.372 
73.932  22.608  88.173 
76.698  24.072  89.455 
80.564  23.578  87.440 
76.637  19.427  84.806 
80.159  23.298  87.547 
73.337  22.701  89.306 
83.997  24.896  85.698 
80.713  23.367  86.390 
82.353  24.215  86.987 
82.730  29.724  91.892 
84.031  29.167  90.276 
83.467  29.435  91.084 
82.128  25.154  88.126 
82.405  29.301  92.339 
85.332  27.596  86.774 
85.259  28.138  86.774 
86.357  28.618  87.241 
86.390  28.569  86.623 
86.592  29.619  87.254 
86.898  29.866  87.684 
87.990  30.010  86.793 
88.033  31.163  88.062 
90.317  32.507  87.869 
89.467  33.295  89.162 
90.298  33.070  89.132 
90.700  31.965  86.576 
90.978  33.558  88.676 
92.232  36.898  90.082 
93.303  34.669  86.584 
93.175  34.155  86.765 
87.995  33.509  90.625 
93.858  40.304  90.282 
93.235  34.438  87.531 
90.011  33.834  88.869 
94.397  38.003  88.902 
94.809  44.220  91.085 
96.465  44.227  87.322 
96.185  45.196  89.382 
95.481  46.630  90.214 
92.917  41.332  91.959 
96.849  47.760  89.307 
96.821  41.255  86.787 
97.410  45.275  87.610 
97.352  47.392  88.201 
97.585  46.459  87.333 
98.852  48.188  86.870 
99.081  48.953  86.904 
98.815  49.959  87.273 
98.891  50.495  88.049 
99.268  49.649  87.328 
97.257  47.829  88.815 
98.428  51.115  88.464 
99.191  51.997  87.921 
99.472  52.940  88.052 
98.473  53.878  89.220 
98.796  53.608  88.331 
99.212  55.958  88.629 
99.721  55.578  88.315 
99.781  57.002  87.878 
99.558  56.976  87.356 
100.034  57.843  87.678 
98.958  59.534  89.664 
100.647  59.698  86.451 
101.434  58.787  85.693 
99.094  60.680  87.984 
99.906  59.650  88.041 
100.447  61.045  86.570 
101.921  63.482  84.955 
100.235  61.848  87.867 
99.929  65.438  88.380 
100.852  65.388  85.880 
100.920  68.754  87.116 
104.517  67.885  81.656 
101.181  66.930  86.839 
99.150  69.889  89.506 
102.881  72.082  82.478 
101.473  70.498  85.101 
99.888  66.823  88.849 
95.709  74.227  91.843 
97.330  73.633  89.424 
94.996  79.209  87.734 
97.860  77.225  87.235 
98.409  72.422  88.813 
93.357  75.768  93.783 
96.424  78.976  87.137 
94.931  78.838  89.382 
93.641  82.142  87.543 
99.673  75.751  85.437 
95.746  79.826  85.013 
96.481  78.649  86.194 
94.969  80.720  86.138 
94.670  81.711  85.648 
94.353  81.825  86.448 
90.485  84.566  87.933 
91.431  85.265  86.019 
93.376  82.040  89.233 
90.272  85.435  86.435 
89.434  84.711  89.019 
90.438  84.832  86.985 
89.421  86.688  86.418 
87.226  88.183  88.157 
86.773  87.420  88.151 
88.384  85.541  89.281 
88.888  90.786  83.591 
85.577  87.774  90.806 
89.448  89.337  85.065 
86.487  90.996  85.962 
86.085  90.501  87.791 
83.598  90.995  90.161 
88.046  90.354  84.578 
84.502  91.998  88.373 
85.570  91.955  87.489 
82.549  92.487  90.145 
76.365  94.378  90.697 
84.058  93.027  87.786 
81.866  96.431  85.624 
79.159  91.862  92.415 
80.706  93.313  90.350 
77.135  98.675  84.618 
77.592  94.389  90.157 
80.930  93.877  88.394 
78.926  97.250  84.962 
76.162  93.525  91.391 
75.284  94.752  90.631 
72.583  96.089  90.067 
72.757  96.279  89.619 
74.794  97.087  87.329 
71.830  97.453  87.987 
72.192  98.557  87.219 
71.373  97.993  87.214 
71.964  97.681  88.654 
70.236  98.019  88.093 
69.589  98.446  88.358 
68.775  98.150  88.743 
68.399  98.915  88.629 
67.746  99.135  88.114 
66.884  99.720  88.214 
65.697  99.832  88.389 
64.873  99.380  88.171 
63.878  99.221  89.712 
59.986  99.907  89.387 
63.275  101.202  85.883 
62.552  103.004  84.435 
62.503  98.910  89.566 
63.258  98.817  89.306 
56.207  100.590  88.929 
59.789  97.120  92.208 
53.553  102.099  87.057 
59.405  99.225  89.433 
58.349  97.504  91.057 
54.803  101.949  86.568 
57.895  100.237  88.911 
53.413  101.718  86.657 
49.410  100.180  87.134 
47.214  97.841  89.501 
53.450  97.736  91.362 
54.531  99.917  89.834 
48.571  97.742  89.739 
48.510  97.624  88.987 
49.678  99.298  88.383 
46.695  103.105  82.806 
46.758  96.895  89.317 
45.084  97.024  89.428 
46.266  96.915  88.842 
45.210  97.312  88.907 
43.817  95.295  90.341 
44.562  97.514  87.884 
44.465  96.327  89.754 
42.592  95.791  89.239 
40.919  95.506  88.834 
43.220  96.570  87.833 
41.812  95.773  88.865 
42.313  94.734  89.749 
39.846  94.921  89.202 
42.018  94.843  90.106 
38.590  94.185  88.569 
37.715  93.233  89.293 
33.740  89.433  91.473 
38.561  95.457  87.685 
36.605  89.973  92.525 
35.823  90.244  91.789 
35.392  88.919  93.032 
33.520  91.776  89.452 
30.321  90.384  87.708 
31.957  89.680  90.293 
31.333  88.629  89.586 
31.306  92.150  86.157 
29.915  87.361  88.859 
30.992  90.266  88.901 
30.811  90.415  88.090 
27.848  82.123  89.049 
30.361  83.162  91.645 
30.518  80.693  93.096 
28.325  82.410  90.290 
28.270  80.295  90.742 
23.163  83.424  85.272 
26.249  79.283  89.824 
24.279  78.154  87.629 
21.236  77.827  85.021 
27.342  77.814  91.092 
27.638  79.093  90.297 
24.040  76.161  89.238 
24.197  75.235  89.701 
23.846  74.463  90.067 
24.946  74.551  90.936 
23.437  72.971  90.031 
23.150  72.816  89.598 
23.640  71.945  90.266 
23.178  69.914  90.051 
22.289  70.043  89.127 
23.357  71.269  90.430 
23.327  69.515  90.494 
22.749  70.012  89.340 
22.843  68.906  89.996 
23.160  67.868  90.285 
23.492  68.562  90.445 
22.299  67.721  89.907 
21.936  64.357  89.145 
20.778  62.776  88.299 
22.373  63.983  90.814 
21.305  63.002  89.832 
21.303  62.667  89.136 
20.969  60.281  89.756 
21.360  62.148  88.848 
21.941  62.175  90.803 
20.983  59.135  89.708 
21.811  58.116  90.730 
22.215  57.843  90.415 
20.392  54.815  88.502 
21.770  57.055  90.590 
20.366  55.673  88.079 
21.339  54.511  89.698 
21.402  55.406  89.776 
21.542  54.019  89.826 
21.273  50.621  89.578 
19.917  55.111  87.223 
21.932  51.234  89.755 
20.894  52.250  89.514 
20.917  51.210  89.219 
20.893  50.241  89.105 
25.132  45.071  92.467 
20.714  41.861  85.967 
21.369  46.521  89.175 
18.772  47.802  86.317 
26.109  42.919  91.955 
24.916  43.858  91.031 
24.515  43.476  90.233 
24.512  44.785  91.138 
27.660  41.861  91.731 
25.821  42.946  90.686 
24.223  40.015  87.075 
24.439  41.949  89.289 
25.494  39.578  89.290 
26.203  39.316  89.554 
27.562  37.571  89.931 
27.857  39.097  90.714 
28.211  37.234  90.074 
28.683  36.575  89.890 
29.893  35.466  90.028 
28.039  36.272  88.823 
29.567  36.365  90.340 
30.397  34.171  89.418 
31.380  34.554  90.155 
31.344  33.789  89.711 
32.089  32.533  89.450 
33.104  31.672  89.665 
33.425  31.105  90.279 
33.059  30.931  89.538 
34.613  31.030  90.957 
34.929  30.597  90.819 
34.154  30.732  90.338 
34.909  25.770  87.288 
34.644  22.708  82.736 
35.412  25.775  87.221 
37.758  24.141  87.743 
36.644  22.296  85.202 
34.037  27.445  87.316 
35.689  27.246  89.404 
37.797  22.948  86.164 
37.569  23.727  87.254 
36.940  24.225  87.310 
39.080  23.532  87.784 
46.693  25.599  94.091 
39.260  24.956  89.802 
41.636  22.039  86.264 
44.118  21.232  87.334 
39.137  23.902  88.376 
39.429  22.658  86.403 
40.713  22.659  87.408 
44.328  20.447  85.931 
44.892  21.062  86.546 
45.443  21.383  86.937 
45.988  20.302  86.485 
47.187  20.353  86.477 
52.766  19.984  88.045 
49.297  22.054  88.913 
51.195  20.237  88.656 
51.239  19.559  86.815 
53.041  19.790  89.020 
49.336  18.932  85.033 
55.280  15.420  81.408 
53.759  23.108  92.980 
55.427  18.197  86.334 
56.889  15.985  83.021 
53.081  17.755  85.104 
58.222  20.117  89.981 
66.237  18.654  86.881 
54.735  17.428  85.066 
57.547  15.668  83.023 
58.891  21.813  91.604 
61.488  19.433  88.676 
67.747  18.592  86.944 
60.490  21.163  91.467 
58.955  20.670  90.542 
59.006  19.986  89.494 
65.942  15.792  82.456 
55.291  19.230  88.524 
74.120  20.025  86.229 
74.366  23.979  88.949 
66.473  15.729  80.453 
68.491  18.507  85.127 
74.967  20.404  86.318 
72.215  19.611  86.329 
70.826  21.953  88.653 
70.665  15.684  78.704 
72.914  19.260  85.336 
70.776  20.362  87.393 
75.660  23.445  89.001 
73.791  17.447  82.424 
73.864  18.327  84.198 
80.060  21.124  84.424 
80.573  21.552  82.954 
77.235  18.963  83.657 
77.753  24.126  89.383 
84.506  27.130  87.100 
82.233  23.712  86.791 
83.537  26.517  87.949 
83.743  24.463  85.015 
84.197  27.789  87.612 
83.074  28.770  89.780 
84.712  26.176  86.082 
84.130  25.459  86.256 
84.964  27.404  87.631 
85.178  26.763  86.198 
86.605  27.943  86.143 
86.035  28.186  86.845 
87.135  29.045  86.131 
87.329  29.399  87.116 
88.450  30.214  87.051 
88.941  30.945  87.248 
89.844  31.188  87.069 
89.781  31.456  87.429 
91.966  32.720  86.839 
89.949  30.913  86.353 
88.409  31.428  88.757 
94.929  35.017  85.113 
92.020  34.344  88.061 
91.840  35.654  90.014 
95.770  35.931  85.627 
91.879  34.772  88.473 
94.794  41.601  90.150 
90.680  41.188  93.374 
96.481  38.397  86.801 
95.611  37.257  87.233 
96.404  36.623  84.132 
93.077  43.412  92.295 
97.546  41.259  85.541 
97.825  43.749  86.234 
93.680  41.721  91.516 
97.723  40.894  84.836 
93.349  40.980  91.263 
96.342  46.407  88.609 
97.304  47.243  87.248 
98.646  46.971  86.132 
98.004  48.101  87.104 
98.079  47.133  87.393 
99.502  48.501  86.301 
99.866  51.077  87.046 
99.787  50.508  87.151 
100.390  51.416  86.580 
99.397  52.497  87.207 
99.785  51.796  87.176 
99.597  53.884  88.129 
99.470  54.793  88.235 
99.582  54.946  87.350 
98.727  55.159  89.582 
99.746  55.829  87.859 
100.198  57.109  86.916 
100.594  56.754  86.823 
99.935  58.410  86.944 
99.012  58.885  88.593 
98.843  60.118  89.172 
100.309  59.341  86.793 
100.212  60.425  86.718 
101.546  61.499  85.162 
100.230  62.148  87.296 
100.617  64.431  86.854 
98.846  64.788  89.986 
102.628  64.598  84.321 
101.154  69.575  86.492 
103.695  66.418  82.490 
99.671  68.204  87.561 
98.029  60.905  90.169 
101.426  67.317  86.421 
97.522  64.905  90.522 
98.534  67.630  89.975 
104.778  63.178  79.763 
101.274  73.553  84.338 
96.298  72.859  91.483 
98.198  68.318  90.729 
97.678  72.445  89.774 
98.103  76.610  87.803 
96.490  75.226  90.318 
92.319  74.854  94.057 
96.873  74.691  90.143 
96.772  79.213  85.336 
96.925  79.100  84.714 
93.691  78.930  90.574 
97.222  78.268  85.263 
97.149  77.682  87.477 
93.229  80.539  90.004 
91.730  83.063  89.226 
91.115  83.763  89.013 
93.341  82.851  84.935 
95.252  79.800  87.159 
90.161  86.822  85.997 
87.558  87.527  88.220 
92.135  84.642  86.443 
90.929  87.001  84.809 
89.120  88.732  85.441 
90.186  87.344  85.181 
88.794  89.774  84.556 
85.679  88.610  89.555 
85.130  87.597  90.688 
86.931  90.463  86.613 
88.992  90.376  84.570 
86.220  92.143  84.775 
86.314  87.486  88.885 
83.884  91.716  89.126 
85.563  91.250  87.919 
83.298  92.204  88.707 
81.527  93.054  90.235 
82.239  90.550  91.961 
81.525  94.919  87.837 
85.207  91.959  86.545 
78.480  95.941  86.654 
81.343  95.952  86.377 
80.170  95.054  87.777 
78.881  93.168  91.153 
80.173  97.283  84.325 
80.251  96.000  87.012 
77.460  93.330  90.940 
74.168  94.195  91.077 
78.724  96.725  86.694 
76.536  96.276  87.813 
72.158  97.313  88.962 
76.150  95.704  88.309 
74.062  97.705  87.090 
72.002  98.366  86.760 
70.613  97.999  88.640 
71.450  98.763  87.451 
69.665  99.144  87.676 
68.640  99.035  87.777 
68.712  99.402  86.943 
68.355  99.424  87.660 
67.197  99.113  87.693 
66.415  99.541  88.199 
66.018  99.709  87.782 
63.456  99.854  89.167 
64.837  99.637  88.650 
63.850  102.135  85.843 
57.140  102.296  85.769 
60.692  100.744  88.023 
58.497  100.937  88.033 
60.843  102.109  85.240 
59.219  100.838  87.987 
56.760  101.107  86.630 
55.665  100.503  87.692 
55.756  99.677  89.404 
59.583  99.860  89.147 
55.423  101.039  87.432 
52.009  102.278  85.377 
50.972  101.283  86.397 
56.764  98.678  90.599 
51.072  100.224  88.531 
53.823  97.790  92.004 
46.953  98.177  88.276 
45.425  100.773  85.041 
51.648  99.464  88.688 
49.050  98.406  89.328 
46.811  98.605  87.443 
42.303  102.317  79.950 
50.495  97.254  90.555 
42.272  102.049  81.637 
44.348  97.955  87.800 
44.401  96.826  89.146 
43.180  96.497  88.581 
44.656  98.212  86.971 
43.675  96.765  88.458 
41.346  94.908  89.323 
43.672  97.450  87.744 
42.752  97.353  87.387 
41.697  94.155  90.475 
35.414  93.568  88.535 
38.100  94.956  87.541 
39.177  96.525  87.276 
38.730  96.984  86.508 
32.912  91.033  89.806 
35.592  93.913  88.169 
33.476  91.023  89.801 
34.336  90.578  90.875 
34.796  90.237  91.564 
34.459  87.289  93.065 
33.681  92.237  89.561 
31.254  88.009  90.198 
30.618  88.736  89.209 
27.059  84.967  88.141 
29.307  85.997  89.765 
31.490  90.243  89.073 
27.701  86.129  88.042 
29.240  84.196  90.044 
27.701  83.071  89.256 
26.785  81.123  89.307 
26.023  81.686  88.371 
28.319  81.569  90.545 
27.503  79.844  90.748 
26.644  80.029  89.778 
21.934  75.759  86.522 
25.323  79.569  88.080 
25.640  80.371  88.417 
23.132  76.539  88.114 
23.526  75.018  89.435 
24.710  76.424  89.854 
21.907  73.355  86.692 
24.110  75.052  90.274 
24.028  73.591  89.957 
23.344  73.672  89.461 
22.410  72.283  88.731 
23.791  72.505  89.474 
22.298  72.261  87.845 
22.923  70.757  89.717 
22.337  70.959  89.054 
22.628  68.770  89.126 
22.258  68.189  89.947 
20.533  67.000  88.138 
22.806  68.175  90.510 
21.627  68.556  88.509 
18.770  65.014  85.975 
20.716  64.356  88.799 
21.229  63.734  88.895 
17.940  63.479  84.737 
20.936  61.156  89.622 
20.411  61.003  88.998 
19.733  61.479  87.042 
19.458  58.344  87.771 
22.548  62.003  90.597 
17.704  58.834  86.080 
21.505  59.248  90.442 
19.516  59.829  87.736 
21.049  56.111  89.602 
21.350  56.642  90.205 
19.960  56.500  88.321 
20.769  54.902  89.347 
21.063  55.172  88.825 
20.704  54.063  88.899 
21.105  51.943  88.835 
20.104  52.148  88.394 
19.853  51.297  87.609 
20.410  49.480  88.958 
21.437  49.940  89.831 
22.832  49.185  90.161 
24.237  40.835  88.119 
20.224  45.779  86.440 
21.024  44.937  87.114 
18.654  49.884  86.849 
25.066  47.894  93.130 
25.049  42.819  90.318 
23.470  41.275  87.695 
24.814  44.634  91.697 
23.768  44.861  90.349 
23.912  47.120  91.959 
26.526  41.271  91.555 
26.031  39.755  89.898 
24.188  38.077  86.880 
26.706  39.836  90.610 
25.303  38.539  88.408 
26.936  38.120  89.667 
28.468  38.002  90.027 
27.487  37.669  89.278 
28.906  36.664  89.049 
29.463  35.458  89.383 
29.514  35.064  89.714 
31.335  33.480  89.324 
32.214  32.987  89.345 
31.148  32.897  89.198 
32.633  32.247  88.931 
30.874  31.830  88.186 
32.695  31.063  88.579 
33.417  29.567  87.955 
32.495  31.630  89.363 
33.378  30.441  89.584 
34.454  28.957  88.539 
33.573  30.876  89.524 
33.961  29.682  89.201 
35.679  28.158  89.378 
35.531  28.742  89.935 
35.052  24.831  86.232 
38.254  22.275  84.716 
39.599  21.347  84.377 
39.145  28.419  92.472 
35.853  24.843  86.986 
34.151  23.934  83.184 
36.933  22.785  86.448 
39.668  25.768  89.940 
38.356  23.895  88.378 
39.527  21.582  85.285 
38.289  23.528  87.900 
42.951  20.844  85.656 
42.360  20.994  85.680 
41.909  21.550  86.232 
44.330  20.656  85.428 
44.966  20.258  85.600 
46.129  20.236  85.704 
47.138  19.620  86.300 
46.517  19.773  85.896 
47.425  19.984  86.289 
54.140  19.902  89.450 
50.773  21.139  89.641 
54.035  20.352  89.700 
50.727  18.878  85.244 
52.560  22.720  93.323 
53.320  20.605  90.283 
54.316  17.863  86.026 
56.604  19.767  89.485 
56.088  18.991  88.059 
57.907  16.404  84.211 
58.837  16.351  83.863 
59.879  20.976  90.679 
57.608  15.577  82.540 
60.344  17.318  86.497 
62.851  20.773  89.606 
65.116  17.686  85.307 
60.436  16.316  83.086 
68.531  20.540  88.400 
65.234  21.416  89.827 
67.515  19.756  87.919 
67.883  19.223  87.672 
64.740  22.432  92.221 
62.562  18.167  87.417 
65.479  15.674  80.581 
65.128  18.307  87.286 
73.979  20.854  86.607 
70.995  17.286  82.203 
62.072  17.933  87.450 
73.303  19.012  83.911 
68.767  16.175  82.370 
64.315  17.128  84.067 
72.799  21.480  88.130 
74.742  21.282  87.257 
75.836  19.230  84.836 
76.781  20.883  86.412 
73.309  19.661  85.954 
74.273  21.208  87.246 
78.224  22.928  88.262 
76.187  24.438  89.910 
84.381  25.271  84.790 
80.021  20.768  81.929 
81.872  24.846  87.474 
82.958  25.396  87.008 
84.103  22.349  82.609 
80.851  22.234  85.544 
83.647  28.110  89.638 
82.443  23.915  85.956 
83.985  26.757  87.124 
84.619  27.602  86.330 
85.623  27.588  86.327 
85.866  28.082  85.844 
87.364  28.073  85.856 
87.221  28.543  85.996 
87.308  29.820  86.429 
88.422  30.607  86.463 
89.103  30.023  85.894 
89.360  30.350  86.659 
89.308  31.605  88.344 
89.755  29.775  85.532 
92.644  33.262  87.067 
93.154  37.787  90.095 
90.631  31.915  86.048 
94.393  33.981  84.287 
92.621  41.685  92.502 
92.621  34.533  87.316 
94.634  39.642  89.420 
89.524  34.635  90.687 
94.657  36.207  87.390 
95.545  39.120  88.058 
95.082  37.703  87.753 
93.913  40.424  90.764 
95.579  45.658  90.918 
95.210  39.112  88.894 
95.902  44.697  89.285 
96.257  42.679  87.722 
95.438  44.932  89.745 
97.408  42.299  86.357 
97.458  45.866  87.313 
97.568  47.889  88.330 
97.930  46.653  87.103 
98.570  47.393  86.952 
98.708  48.209  86.395 
99.484  49.856  86.468 
96.946  48.601  89.067 
99.299  50.625  87.585 
100.482  51.047  85.872 
99.036  54.423  88.204 
100.013  52.590  87.507 
100.013  54.362  87.674 
100.211  53.509  87.203 
100.234  54.439  87.129 
100.268  55.385  87.272 
100.427  55.867  87.242 
100.861  57.150  86.191 
101.434  57.593  85.482 
100.276  58.019  86.765 
100.852  58.717  85.768 
99.685  59.079  88.055 
100.929  58.179  86.221 
100.949  61.745  86.250 
101.187  60.390  85.640 
101.557  63.892  85.717 
104.553  69.668  80.159 
100.008  65.077  87.974 
101.503  62.182  85.767 
102.418  67.753  83.880 
103.140  69.687  82.342 
103.053  63.585  83.749 
100.018  68.453  88.079 
100.128  70.263  88.193 
97.924  75.502  88.229 
101.181  68.768  86.236 
103.144  69.380  83.665 
102.343  70.555  84.398 
99.988  68.732  88.721 
100.516  66.332  87.666 
93.728  75.088  93.200 
98.386  76.700  86.630 
94.851  73.841  92.765 
98.098  75.046  88.926 
100.007  73.610  86.630 
95.556  81.408  84.834 
95.907  78.516  89.109 
97.917  77.788  85.897 
96.214  77.652  88.059 
96.596  78.458  87.355 
95.769  79.269  87.743 
93.017  83.678  86.910 
96.110  78.582  88.027 
94.152  83.122  85.071 
92.258  84.924  85.708 
94.914  81.342  86.027 
94.011  81.344  89.209 
92.622  84.318  86.337 
91.734  85.537  85.127 
87.925  87.134  87.979 
88.429  88.735  86.643 
86.156  89.791  88.379 
84.626  90.510  89.233 
89.501  89.501  84.166 
89.203  85.702  87.775 
86.257  93.369  82.655 
86.019  89.321  89.092 
87.798  90.034  85.658 
84.217  91.756  88.756 
88.888  86.419  87.374 
86.725  88.528  87.543 
84.041  93.041  86.459 
85.883  91.533  86.695 
84.319  90.474  90.292 
78.703  95.258  88.896 
81.726  93.414  89.376 
85.245  92.430  84.919 
81.782  94.630  88.244 
79.992  96.865  85.893 
76.654  94.686  90.002 
83.563  94.251  85.876 
78.998  95.584  88.109 
74.239  95.458  89.580 
76.771  95.571  87.728 
73.458  95.816  90.082 
74.128  96.927  88.172 
77.256  96.418  87.346 
75.884  96.781  86.589 
72.790  97.781  87.594 
72.825  98.129  87.134 
70.454  98.338  87.366 
70.919  98.827  87.375 
70.158  99.238  87.293 
69.296  98.864  87.108 
68.272  99.989  86.962 
67.877  99.138  87.379 
67.379  99.657  87.417 
66.581  100.203  87.379 
65.307  100.530  87.853 
63.591  100.716  88.324 
64.739  100.275  87.637 
64.589  100.977  87.439 
61.561  102.173  85.759 
59.542  100.288  88.716 
56.342  101.013  87.750 
58.725  96.147  93.233 
59.899  101.063  87.603 
59.422  98.205  90.615 
60.542  101.889  86.604 
56.893  100.471  88.144 
58.333  102.138  86.265 
49.012  98.996  88.931 
50.888  96.920  91.884 
53.172  101.096  88.113 
55.277  100.908  88.630 
48.438  99.790  87.899 
53.497  100.345  87.606 
50.402  99.811  88.333 
45.271  101.144  84.581 
46.801  98.843  86.406 
44.773  99.918  85.545 
46.113  99.140  86.696 
48.276  98.685  89.130 
45.067  98.645  86.685 
47.475  99.497  86.443 
45.560  98.404  87.231 
47.609  98.855  88.491 
45.242  97.950  87.755 
43.895  97.321  88.365 
44.051  98.013  87.303 
43.609  97.862  87.473 
41.455  96.585  87.257 
40.496  96.662  87.337 
42.577  95.227  89.045 
40.067  95.294  88.415 
41.254  95.811  87.607 
38.454  92.560  90.488 
37.091  94.236  87.994 
38.283  97.212  85.915 
38.782  95.960  87.501 
36.449  94.534  88.406 
35.272  90.677  91.152 
34.377  89.247  92.110 
34.019  93.126  88.275 
34.226  89.844  91.613 
32.712  90.581  90.022 
29.270  90.450  85.783 
31.365  90.966  88.433 
30.593  89.460  89.055 
27.857  85.245  88.916 
28.891  87.831  87.959 
27.193  80.660  89.907 
32.732  87.271  91.875 
25.859  79.579  89.350 
25.830  85.176  86.836 
26.043  80.775  88.695 
26.784  80.506  89.078 
23.889  77.208  88.427 
26.413  78.501  90.293 
24.972  78.428  88.502 
25.969  78.997  88.882 
23.462  81.330  86.490 
23.988  78.995  86.808 
23.686  75.128  88.382 
23.991  74.288  89.243 
18.515  74.729  83.269 
24.881  74.120  90.572 
23.633  73.726  90.299 
23.127  74.200  89.064 
21.599  71.507  87.581 
22.050  74.366  87.187 
22.277  69.190  89.282 
22.520  73.001  88.938 
21.876  70.287  88.709 
21.812  65.329  89.488 
23.771  67.824  90.596 
19.970  68.500  87.272 
21.034  67.271  88.801 
21.653  67.604  89.462 
23.049  65.605  90.529 
20.868  60.697  88.907 
21.434  64.698  88.613 
20.887  62.405  89.042 
19.125  64.391  86.438 
20.233  60.973  87.920 
19.456  62.146  86.225 
20.709  57.540  88.670 
21.359  60.455  90.109 
20.806  56.837  89.942 
20.745  58.434  89.515 
20.151  58.278  89.076 
19.448  57.415  87.617 
18.595  57.062  85.762 
20.843  56.030  88.317 
18.971  59.131  87.206 
20.068  52.907  88.034 
19.016  55.390  87.232 
21.250  51.557  89.952 
19.847  50.033  87.945 
20.128  53.463  88.135 
19.670  49.580  87.803 
19.906  44.070  85.868 
22.946  46.844  90.427 
20.436  43.912  86.325 
22.288  48.298  89.498 
25.730  44.476  92.385 
22.869  45.503  89.328 
26.445  46.174  92.982 
17.936  48.276  85.624 
17.444  48.956  85.647 
24.966  40.930  88.939 
21.630  47.746  89.742 
23.113  39.086  86.988 
23.692  45.820  90.904 
25.399  32.089  82.997 
27.033  38.327  90.091 
25.966  34.725  84.420 
26.049  36.494  86.713 
27.754  38.204  90.247 
25.531  35.683  85.658 
27.859  36.794  89.491 
28.015  37.187  89.095 
29.153  35.929  89.998 
28.839  35.359  89.482 
30.132  33.533  88.700 
30.817  33.285  88.374 
31.531  32.166  88.836 
31.501  31.455  88.440 
34.855  28.214  88.773 
32.176  31.468  88.624 
32.103  28.882  86.296 
33.350  30.236  88.615 
34.788  29.305  89.465 
33.026  29.027  87.371 
33.726  29.419  88.756 
33.409  27.171  86.088 
36.578  20.825  81.633 
35.056  27.286  88.095 
35.732  23.735  85.503 
37.028  25.862  89.103 
34.353  25.956  86.724 
30.566  26.305  83.004 
38.988  24.437  88.952 
39.334  19.651  81.741 
35.429  21.635  81.384 
40.252  21.315  84.804 
37.069  21.474  83.420 
40.476  22.380  86.541 
38.939  27.239  91.023 
38.371  22.630  85.617 
42.388  20.328  84.143 
43.619  20.802  86.089 
43.877  20.264  85.073 
44.727  20.556  85.236 
45.786  19.770  85.401 
45.296  20.915  85.790 
45.565  19.945  85.820 
48.020  18.922  84.927 
48.444  20.375  86.590 
49.785  19.792  86.655 
48.912  19.661  85.036 
50.308  18.027  84.140 
54.101  19.444  88.986 
53.423  14.332  79.483 
54.736  17.780  85.795 
55.918  15.259  81.972 
55.540  24.110  93.984 
52.498  16.999  83.706 
57.881  21.677  91.688 
57.283  18.340  86.991 
56.759  14.255  79.638 
56.242  17.614  86.281 
64.320  22.287  91.777 
59.056  18.703  88.365 
59.616  14.670  80.587 
65.996  20.918  89.733 
66.621  17.758  85.885 
66.355  20.105  88.481 
69.251  20.766  88.603 
65.819  21.737  90.519 
69.696  21.365  89.004 
71.668  19.032  85.945 
71.320  17.387  82.928 
72.988  17.487  81.903 
72.503  20.510  87.479 
69.919  17.396  84.155 
64.444  16.193  81.459 
66.718  14.849  79.181 
62.517  15.639  81.141 
67.160  15.169  80.260 
78.206  21.181  86.371 
75.333  19.217  84.864 
77.343  24.448  89.216 
82.376  26.128  88.304 
74.548  19.810  85.761 
80.550  21.814  84.126 
78.426  21.399  85.170 
82.121  23.338  85.684 
77.138  22.581  88.283 
84.269  26.946  87.987 
77.783  22.379  87.751 
84.224  23.965  84.771 
80.953  20.566  82.098 
81.118  24.682  88.173 
81.586  23.969  86.036 
84.842  26.753  86.628 
85.367  26.497  85.645 
85.662  26.761  86.036 
86.169  27.319  85.918 
86.755  27.744  85.466 
87.985  28.761  85.726 
87.502  28.917  86.441 
89.089  29.366  85.297 
89.700  30.585  85.895 
89.593  32.140  87.691 
89.528  31.216  86.584 
92.024  31.721  84.600 
91.614  33.774  87.958 
93.075  37.513  89.285 
91.728  33.280  87.408 
91.804  32.471  86.248 
92.082  31.694  85.839 
90.403  34.540  89.637 
94.186  33.454  84.059 
95.775  35.938  83.521 
96.388  36.690  86.285 
95.719  39.762  88.348 
92.449  33.844  87.552 
95.988  41.461  88.715 
94.153  37.028  88.830 
96.220  43.254  88.315 
94.028  38.389  89.856 
94.954  42.117  88.964 
97.731  44.923  86.756 
93.129  40.274  90.768 
97.878  44.235  86.223 
98.666  45.146  85.646 
98.319  45.938  86.817 
99.256  46.873  85.794 
98.850  46.135  86.200 
99.169  47.822  86.281 
99.505  49.027  86.416 
100.255  50.303  86.533 
99.949  49.759  86.031 
100.650  52.695  86.035 
99.846  52.796  87.067 
99.750  53.592  87.364 
99.801  52.949  86.578 
101.252  53.582  86.256 
100.537  54.894  86.975 
100.868  55.553  86.535 
100.206  55.036  87.805 
100.349  56.303  86.305 
100.488  55.857  86.565 
100.555  57.474  86.330 
101.831  57.926  84.784 
101.616  58.311  85.661 
100.961  61.126  86.660 
101.566  59.986  85.348 
100.875  60.166  86.692 
102.888  68.382  83.422 
101.727  62.968  85.695 
101.266  61.836  85.562 
104.181  70.694  81.157 
101.621  64.821  85.922 
102.541  63.949  83.677 
102.820  65.002  83.087 
104.602  68.830  80.563 
105.744  69.267  77.908 
102.124  72.026  84.286 
103.679  68.920  83.345 
104.497  69.172  80.927 
101.605  69.454  85.480 
94.625  75.675  92.345 
94.419  74.592  92.909 
100.437  71.433  86.781 
97.040  72.544  89.595 
96.498  73.880  91.258 
100.971  71.858  85.996 
95.998  74.568  91.103 
94.237  75.859  91.582 
98.078  77.534  84.906 
98.196  76.183  87.571 
101.206  75.749  83.394 
97.055  74.873  89.342 
97.700  78.312  85.343 
95.389  82.150  84.192 
93.901  77.512  91.392 
94.560  82.388  84.061 
92.508  85.150  84.555 
89.163  86.143  87.639 
92.900  83.009  87.581 
91.434  86.345  85.056 
92.469  84.879  85.151 
88.239  86.322  88.974 
88.350  87.851  86.281 
88.729  89.625  85.532 
87.813  87.676  87.300 
88.430  91.921  82.818 
89.156  87.824  86.126 
87.155  92.451  83.859 
88.484  89.430  86.302 
87.393  89.286  87.258 
87.297  92.767  83.290 
85.263  90.590  87.827 
86.549  91.793  85.441 
87.819  89.564  86.466 
82.853  93.942  87.878 
79.846  92.144  91.998 
78.291  94.699  88.444 
79.258  94.823  88.019 
81.809  95.730  86.203 
77.753  97.873  84.534 
81.973  93.535  89.833 
76.923  96.902  86.793 
76.637  95.392  88.907 
77.259  92.172  92.904 
79.268  96.114  87.242 
75.365  93.913  91.028 
75.534  94.388  90.818 
76.629  97.655  86.469 
75.903  98.027  85.976 
72.291  98.383  87.823 
73.428  97.121  87.823 
73.647  98.281  86.435 
72.774  98.392  86.532 
70.526  100.031  85.704 
70.001  98.396  87.593 
69.694  99.529  86.898 
69.434  99.464  86.373 
68.696  99.632  86.190 
67.806  100.046  86.745 
66.966  100.553  86.798 
65.881  100.941  87.474 
66.245  100.931  87.149 
64.383  100.300  88.356 
65.270  101.586  86.425 
60.735  103.644  83.703 
60.558  101.019  87.183 
59.797  100.051  88.166 
60.236  104.798  82.309 
59.245  99.529  88.663 
60.174  100.955  88.133 
61.881  102.438  84.844 
51.438  104.337  82.738 
50.734  103.251  84.636 
51.597  102.875  85.353 
49.420  102.250  85.223 
49.285  103.532  83.367 
49.907  98.133  89.619 
48.454  102.058  85.222 
51.974  101.242  87.438 
54.447  98.744  91.160 
49.603  104.443  81.163 
54.148  98.492  90.873 
47.571  102.861  83.851 
48.353  104.785  80.623 
46.801  104.450  80.570 
46.111  98.048  88.302 
44.251  98.919  86.252 
46.774  98.314  88.743 
45.640  97.415  88.118 
47.046  104.330  79.617 
43.553  99.172  85.658 
43.614  98.400  86.555 
43.272  97.731  86.275 
42.993  97.631  86.930 
42.801  97.175  86.749 
41.157  96.499  88.112 
42.273  96.664  87.310 
40.093  95.875  88.395 
40.844  92.846  90.947 
38.713  94.755  88.313 
38.910  93.716  89.659 
37.700  92.000  90.656 
39.372  95.859  88.014 
33.664  95.867  83.348 
37.721  93.788  89.192 
37.239  95.007  87.827 
33.322  92.588  88.334 
29.813  89.391  87.007 
29.945  90.384  86.798 
31.127  91.657  86.532 
32.321  92.765  87.224 
31.830  93.362  85.234 
28.661  84.226  89.239 
26.327  83.090  87.875 
27.370  81.728  89.583 
26.836  81.844  88.784 
29.177  82.301  90.273 
27.436  81.454  89.968 
22.521  79.486  84.510 
27.729  80.698  89.567 
21.270  79.645  84.271 
26.219  78.860  89.667 
22.513  78.559  85.228 
24.371  79.018  87.578 
26.883  79.149  90.314 
25.302  77.360  88.930 
23.962  75.656  89.046 
25.572  78.779  89.162 
24.482  76.565  88.430 
18.493  76.768  82.070 
24.006  77.627  87.650 
22.050  72.881  88.236 
20.831  71.111  87.245 
22.843  72.234  89.020 
21.528  69.606  88.700 
19.622  71.293  84.928 
22.006  69.056  88.855 
20.659  68.971  87.605 
21.142  68.081  87.516 
21.445  66.063  89.493 
19.266  69.238  86.137 
21.103  67.760  88.484 
21.712  61.212  89.976 
22.191  66.514  90.368 
20.420  62.423  88.307 
20.065  65.901  86.690 
20.747  63.276  88.467 
20.882  57.826  89.026 
21.089  59.132  89.026 
21.139  58.671  90.342 
20.169  62.951  87.387 
21.059  57.570  89.927 
17.941  60.962  85.812 
20.212  57.458  87.407 
19.918  59.372  88.510 
20.318  59.001  88.673 
20.452  56.463  88.887 
20.127  55.636  88.567 
20.058  52.851  87.562 
19.529  52.280  87.527 
19.262  56.610  87.068 
20.105  50.354  88.707 
21.958  49.370  90.269 
19.947  48.028  87.736 
23.053  42.943  88.563 
20.149  47.490  87.942 
20.724  49.138  89.572 
24.395  44.864  91.960 
16.838  50.251  83.716 
26.475  44.257  92.182 
22.517  43.974  88.164 
23.698  43.371  88.939 
21.889  45.740  88.946 
24.973  39.366  88.492 
20.903  44.711  87.709 
20.172  41.582  84.725 
21.019  37.040  82.257 
26.021  31.712  82.760 
25.273  41.038  89.815 
26.979  38.594  89.083 
25.872  38.044  87.358 
21.406  37.857  82.523 
26.927  37.940  88.382 
27.602  36.617  88.488 
26.925  37.215  88.576 
28.634  35.924  89.239 
28.688  34.976  88.723 
30.007  34.890  88.915 
30.167  33.994  88.456 
30.615  33.770  89.214 
31.423  29.962  86.855 
32.290  29.649  87.550 
30.918  30.033  86.373 
32.529  30.087  88.176 
34.748  22.906  83.986 
31.020  27.896  85.449 
34.563  25.084  85.364 
32.340  24.313  83.158 
33.249  27.905  87.249 
34.549  28.629  88.096 
33.600  26.458  86.633 
36.163  29.023  90.060 
35.660  24.056  86.128 
35.518  25.387  87.485 
33.050  22.597  79.089 
36.188  23.163  85.289 
33.271  28.611  87.197 
37.856  21.022  82.882 
37.645  19.430  78.877 
37.132  19.997  80.852 
38.019  22.879  86.962 
40.166  26.617  91.535 
39.199  22.094  86.112 
42.539  21.013  84.324 
41.917  20.570  84.413 
43.431  20.517  85.689 
44.466  20.094  84.540 
44.046  19.906  84.720 
45.057  19.758  84.859 
46.318  19.944  84.771 
46.824  19.587  85.459 
47.205  18.874  84.941 
48.477  19.084  85.516 
50.404  20.426  88.379 
48.616  19.560  86.103 
51.895  18.825  86.574 
51.360  18.424  85.104 
53.975  18.412  86.959 
55.055  16.088  82.612 
54.315  16.688  83.035 
55.377  16.287  83.341 
56.542  13.957  78.848 
55.148  17.809  86.413 
60.513  17.108  85.598 
54.507  16.966  85.184 
58.828  20.436  89.508 
65.090  17.955  86.771 
58.039  17.136  86.265 
58.775  14.647  79.869 
62.364  17.808  86.275 
60.867  17.036  85.191 
57.913  15.158  81.713 
69.507  16.531  82.191 
63.015  19.026  87.631 
67.260  13.742  76.347 
61.895  21.151  90.564 
67.917  18.290  85.772 
72.992  18.210  83.316 
76.594  18.737  84.307 
62.671  15.356  79.769 
67.709  15.135  81.100 
72.524  17.200  82.405 
68.767  17.048  83.570 
67.564  14.863  79.365 
71.385  17.828  83.104 
72.357  19.484  85.294 
73.579  18.472  83.683 
73.235  20.372  86.188 
76.593  22.538  87.774 
83.345  20.873  80.857 
81.680  19.865  79.786 
79.550  21.024  84.352 
75.646  23.058  88.597 
82.932  24.084  86.509 
80.597  20.175  81.262 
75.688  20.587  86.373 
83.804  27.394  88.315 
84.653  22.070  81.148 
79.901  19.665  81.513 
85.892  25.974  83.164 
84.913  26.033  85.025 
85.764  26.071  85.067 
86.263  26.138  84.490 
86.143  26.661  85.255 
87.271  27.880  84.677 
87.935  28.114  85.036 
87.984  29.625  85.947 
88.554  28.784  85.371 
90.575  30.752  85.837 
91.916  31.076  85.040 
89.982  29.350  83.870 
92.554  31.596  85.420 
89.655  32.117  88.406 
90.966  33.083  87.946 
90.534  31.237  86.563 
93.644  33.936  86.140 
92.725  33.551  85.660 
95.362  34.631  83.465 
93.787  32.347  84.130 
94.980  32.825  83.901 
92.620  35.016  88.087 
94.558  34.244  84.756 
99.149  42.691  83.567 
94.992  35.332  85.505 
93.796  34.552  85.506 
97.016  42.046  87.049 
96.950  43.584  87.322 
98.089  42.916  85.507 
98.828  45.618  85.796 
98.191  45.610  86.511 
98.968  45.285  84.931 
99.392  46.169  85.565 
99.769  46.280  85.242 
99.617  47.655  85.701 
99.557  48.470  85.776 
99.183  48.222  85.499 
100.444  48.927  84.738 
100.873  50.846  85.380 
100.318  50.563  86.002 
100.488  52.336  86.698 
99.883  51.506  85.930 
100.734  53.245  86.400 
100.645  53.201  85.593 
100.968  54.270  86.599 
100.402  54.466  86.056 
101.174  54.986  86.240 
100.991  56.451  86.064 
102.091  56.902  85.194 
101.130  55.930  85.367 
101.232  57.124  85.400 
101.742  58.419  85.157 
101.938  57.801  84.152 
100.841  59.552  85.489 
99.022  61.403  89.085 
102.855  59.312  83.355 
102.181  61.313  84.512 
102.762  62.670  83.937 
101.802  65.422  85.352 
101.455  62.509  86.491 
101.846  68.498  85.672 
103.185  65.269  83.326 
102.611  69.808  84.746 
102.649  65.953  84.093 
99.505  69.383  88.998 
102.897  70.285  84.213 
99.274  75.107  87.013 
101.990  71.117  84.768 
100.281  72.271  86.847 
102.653  68.174  84.712 
100.040  77.194  83.506 
99.908  71.816  87.068 
97.093  69.893  91.133 
92.673  77.013  92.846 
97.948  74.134  89.190 
98.818  77.190  85.278 
97.553  76.828  88.618 
98.042  73.317  88.804 
102.075  74.295  82.150 
99.497  76.970  84.146 
95.558  80.594  85.431 
97.247  80.204  84.055 
94.186  82.294  85.615 
95.960  79.676  85.424 
95.714  81.719  84.148 
94.456  81.998  84.925 
94.516  83.258  84.710 
93.112  84.530  84.354 
91.279  85.893  85.640 
92.346  84.129  87.283 
90.144  88.146  84.530 
88.957  87.651  86.790 
89.448  90.254  83.266 
90.410  87.546  83.906 
89.867  90.861  82.104 
89.588  89.575  84.682 
88.757  86.731  87.789 
85.995  93.673  83.582 
88.283  89.989  85.860 
86.597  89.394  87.875 
86.510  90.874  86.940 
88.046  88.232  87.102 
86.227  88.606  88.330 
85.898  91.300  87.409 
83.101  94.738  86.392 
80.277  94.849  87.300 
81.301  92.037  91.277 
83.344  94.662  84.554 
87.731  91.168  84.621 
77.471  97.289  86.217 
79.333  97.252  85.405 
76.901  95.772  88.355 
77.182  95.233  88.499 
77.560  95.935  87.735 
76.823  93.496  91.415 
74.099  96.410  88.977 
75.691  96.705  87.499 
82.976  94.545  87.336 
73.434  96.787  88.615 
73.836  97.789  86.588 
74.834  97.827  86.686 
72.982  98.571  87.024 
71.047  99.765  85.170 
70.589  99.009  86.623 
70.889  99.402  86.816 
72.007  100.094  85.178 
69.762  100.253  85.503 
68.651  100.181  86.371 
67.589  100.171  86.135 
66.153  100.264  87.740 
66.247  101.484  86.184 
65.830  101.083  86.484 
65.650  100.485  87.398 
65.092  101.265  85.867 
63.833  101.098  87.223 
59.870  101.722  87.188 
59.468  101.898  85.621 
60.422  103.023  84.672 
54.698  97.988  92.234 
59.770  100.917  86.863 
57.744  100.533  88.487 
58.118  103.169  84.208 
52.680  103.123  84.511 
57.615  102.861  83.805 
51.717  100.137  88.711 
50.474  99.574  88.907 
45.641  100.013  85.486 
49.282  102.348  84.192 
52.105  104.236  84.020 
52.694  97.995  91.352 
48.307  100.879  85.859 
49.496  101.370  86.459 
50.135  100.585  87.109 
48.584  103.047  83.581 
43.205  101.624  81.351 
45.816  101.843  83.247 
46.126  99.291  85.919 
47.915  98.164  89.074 
46.635  103.401  81.568 
45.410  99.254  86.454 
42.849  97.997  85.844 
43.458  98.702  85.941 
42.082  97.719  85.921 
42.101  97.573  86.830 
41.780  97.253  87.265 
41.136  97.756  85.848 
41.186  97.026  87.491 
39.675  96.088  87.549 
40.609  94.477  89.537 
39.357  94.276  88.836 
30.982  94.640  82.546 
37.698  95.010  87.046 
39.555  93.554  89.302 
37.069  95.729  87.074 
36.952  93.156  89.666 
37.957  93.087  89.911 
28.918  90.979  85.392 
32.616  93.083  86.007 
30.864  90.157  87.650 
32.035  88.604  90.178 
26.650  83.376  87.122 
24.066  81.860  86.446 
25.709  82.624  87.524 
26.657  81.411  88.896 
25.036  81.314  87.379 
29.523  79.972  91.381 
26.870  81.738  88.039 
28.236  84.468  89.238 
26.495  82.407  88.058 
21.288  78.326  84.085 
23.171  79.341  86.184 
20.616  79.050  83.243 
26.847  79.858  88.945 
23.415  81.801  85.883 
21.646  83.065  83.534 
25.200  79.350  88.536 
24.160  84.233  85.695 
24.473  77.474  88.799 
25.761  79.887  88.678 
22.730  79.583  85.487 
23.345  74.130  88.539 
23.185  74.856  88.820 
22.801  73.333  89.242 
22.976  75.314  88.201 
22.651  69.325  89.771 
22.211  71.695  88.780 
21.145  71.761  86.481 
21.820  71.124  88.417 
20.710  69.515  87.482 
20.667  66.575  88.386 
20.448  70.065  86.833 
21.518  66.384  88.638 
21.470  63.833  89.640 
22.191  66.933  89.628 
21.216  65.618  88.946 
19.275  63.125  87.126 
19.374  64.205  86.860 
19.213  61.039  86.730 
14.940  62.996  81.624 
20.738  60.114  88.955 
20.237  57.961  87.659 
19.672  59.251  87.875 
17.323  62.939  84.049 
20.201  60.308  88.446 
20.382  56.917  88.161 
16.130  59.975  83.814 
19.425  60.924  87.695 
16.698  58.604  84.727 
18.873  57.925  87.007 
19.441  51.382  87.857 
20.627  53.329  88.521 
20.392  50.696  88.012 
19.189  48.439  86.233 
20.110  51.264  88.493 
20.318  46.946  88.051 
23.158  44.751  89.859 
21.153  40.054  84.926 
21.319  43.256  87.477 
23.960  37.354  85.915 
20.012  49.608  88.671 
21.891  42.577  87.320 
20.750  46.167  88.581 
18.993  43.715  84.307 
23.862  40.441  87.658 
25.300  43.406  89.897 
23.976  42.990  89.630 
24.656  35.101  84.388 
26.644  38.790  88.795 
21.937  41.196  86.862 
24.688  39.792  87.888 
26.265  38.637  89.230 
22.896  33.946  82.252 
26.092  38.524  88.369 
26.940  37.610  89.260 
26.814  35.594  87.087 
27.063  37.297  88.063 
27.440  33.986  86.784 
29.849  34.213  89.105 
26.810  35.633  87.954 
29.335  33.432  88.274 
28.903  33.033  87.338 
32.389  28.971  86.937 
28.062  31.159  85.071 
31.254  30.744  87.620 
34.726  25.688  86.101 
31.797  24.352  82.268 
32.649  26.572  85.894 
34.373  27.694  88.201 
34.100  27.819  87.785 
32.078  26.467  84.824 
37.403  22.720  86.464 
34.893  24.921  87.019 
33.247  22.937  81.404 
36.293  24.123  86.697 
34.284  25.177  86.296 
35.166  23.920  85.581 
33.445  26.219  85.811 
37.806  24.486  88.129 
37.489  21.748  85.519 
38.342  21.757  85.084 
38.027  21.297  84.306 
38.125  20.357  82.386 
40.985  22.348  86.717 
42.199  21.733  85.388 
41.063  20.924  84.239 
41.276  21.600  84.806 
42.098  19.717  83.428 
43.311  19.838  84.303 
43.924  19.494  83.772 
45.242  18.972  84.100 
45.772  19.720  84.577 
46.377  19.186  84.932 
47.021  19.450  84.421 
47.827  19.722  85.653 
52.785  20.618  89.248 
51.068  18.945  86.968 
48.955  19.623  86.520 
48.607  18.750  84.530 
52.733  18.572  86.252 
55.177  20.483  90.263 
53.327  16.873  83.387 
52.654  20.032  88.656 
52.115  20.742  89.804 
54.519  15.798  81.637 
58.216  18.152  86.987 
57.221  17.838  87.122 
57.605  20.339  90.421 
57.059  21.129  90.547 
58.431  19.458  88.472 
67.239  22.108  90.935 
63.934  15.305  80.378 
64.028  17.816  85.346 
56.948  14.431  80.412 
60.399  20.200  88.551 
65.795  18.403  86.646 
63.423  17.847  85.780 
69.129  19.599  87.389 
67.206  18.679  85.592 
61.919  16.322  82.280 
64.125  16.649  83.320 
67.898  19.234  86.759 
69.730  19.019  85.315 
71.606  17.543  84.381 
74.690  21.796  87.827 
60.947  16.667  84.368 
67.437  17.218  84.099 
66.771  17.812  84.600 
70.822  16.654  80.670 
76.366  21.366  86.583 
82.757  21.322  82.092 
78.654  19.250  82.527 
77.759  21.582  86.932 
82.539  20.671  80.681 
75.644  21.184  87.047 
77.570  18.529  80.469 
77.882  20.822  85.795 
86.218  22.410  77.853 
80.073  20.388  82.684 
83.510  24.135  85.316 
82.241  22.701  84.844 
87.110  26.053  83.454 
83.493  25.426  86.795 
85.562  25.483  84.551 
86.820  26.628  84.248 
86.630  26.918  84.708 
