102.319  87.287  54.130 
100.036  89.706  64.280 
104.598  83.954  63.444 
101.651  88.874  60.197 
101.330  88.963  54.962 
100.015  90.072  64.967 
100.739  88.574  51.037 
100.496  89.584  62.406 
96.834  92.778  65.675 
100.483  88.958  63.845 
98.423  92.045  62.727 
97.330  93.674  56.023 
99.256  89.316  66.226 
95.749  95.857  59.311 
100.669  90.357  59.481 
94.845  95.824  62.945 
91.665  98.203  63.248 
97.987  93.227  62.855 
90.558  99.014  62.208 
94.671  95.825  62.359 
92.878  97.438  62.493 
94.002  96.970  62.458 
93.429  96.245  65.710 
84.756  101.746  67.367 
88.161  99.387  67.595 
89.813  98.461  65.727 
87.720  101.824  61.583 
85.632  100.668  70.703 
90.271  100.200  56.010 
89.817  100.314  60.438 
89.735  99.978  61.698 
81.329  105.336  58.666 
81.701  105.253  58.337 
84.605  103.404  56.288 
78.347  105.699  55.642 
83.834  103.949  60.792 
82.938  104.585  59.987 
80.983  105.249  61.542 
79.716  105.633  61.374 
80.165  105.098  61.290 
79.178  106.065  60.907 
77.632  106.738  56.780 
75.507  107.526  57.073 
78.869  106.021  60.179 
75.381  107.957  59.342 
74.944  106.930  61.322 
76.092  107.812  60.118 
75.990  106.520  62.189 
79.186  106.027  53.921 
71.257  108.557  54.682 
71.737  107.773  64.330 
73.298  106.869  49.482 
68.244  109.187  58.261 
67.976  108.633  54.272 
69.957  109.241  63.235 
70.698  108.011  53.049 
67.517  109.505  62.107 
68.477  108.717  57.699 
68.023  109.136  59.606 
68.424  108.833  57.233 
66.656  109.469  58.173 
63.540  109.527  60.635 
62.120  109.693  59.760 
61.703  109.346  61.533 
60.400  109.634  60.394 
60.108  110.177  61.507 
60.353  109.502  58.022 
59.024  110.474  60.747 
57.029  110.340  57.253 
60.188  110.236  59.643 
56.890  110.716  60.336 
57.660  110.669  60.674 
59.161  109.964  62.544 
50.081  109.638  61.268 
59.599  110.508  60.258 
54.130  110.862  60.335 
50.265  109.324  56.528 
48.999  107.849  55.178 
55.525  110.542  58.962 
46.486  107.857  59.120 
45.669  107.885  64.304 
47.406  108.790  59.144 
43.654  107.472  64.380 
49.975  109.308  64.411 
46.915  108.344  58.371 
44.597  107.156  61.503 
41.104  106.175  61.735 
39.113  105.300  60.752 
40.594  105.942  61.317 
37.642  104.898  61.277 
37.852  104.817  62.194 
37.099  104.669  58.997 
36.897  104.584  60.887 
35.723  104.192  59.388 
34.994  103.925  59.000 
36.206  103.788  63.580 
36.196  103.523  60.648 
34.797  103.586  60.073 
33.109  102.993  58.431 
31.183  101.442  58.934 
33.706  102.784  60.043 
34.689  102.573  63.379 
31.889  101.479  64.240 
27.628  98.683  61.147 
32.173  101.607  65.095 
29.726  99.926  63.227 
26.093  97.364  58.919 
30.485  99.787  63.668 
31.095  100.864  64.300 
26.084  97.054  60.991 
29.719  99.359  63.883 
28.141  98.445  62.584 
27.707  97.990  63.146 
24.698  94.753  64.200 
24.402  94.609  66.035 
21.211  91.890  63.169 
22.091  92.714  64.957 
26.241  97.164  56.173 
22.562  92.716  62.073 
22.155  92.970  59.324 
21.981  92.935  60.653 
23.966  95.199  51.655 
19.192  87.592  57.519 
20.458  91.342  57.179 
17.695  86.267  60.395 
18.852  87.865  58.371 
21.182  91.925  57.436 
20.431  89.728  54.199 
19.328  88.277  56.331 
18.430  86.978  63.549 
18.027  85.635  59.499 
18.560  87.585  62.427 
16.162  83.196  60.263 
16.711  84.257  61.685 
17.235  86.032  61.819 
15.408  81.311  62.026 
15.938  83.061  64.587 
15.197  81.398  64.811 
15.163  80.717  61.780 
14.886  78.429  61.200 
14.763  79.278  61.231 
14.124  78.705  61.198 
14.023  78.453  60.307 
14.068  78.978  62.243 
14.047  78.339  61.916 
12.975  73.039  63.261 
13.147  75.624  65.769 
13.529  76.005  66.233 
13.016  74.630  65.342 
11.814  72.055  59.267 
11.119  68.962  62.775 
11.256  68.856  67.394 
12.775  73.615  57.130 
11.684  71.651  58.064 
11.021  67.671  62.961 
11.116  64.811  65.916 
10.682  63.048  64.789 
12.225  68.437  69.102 
10.596  64.525  63.012 
10.758  66.909  60.090 
10.485  65.934  58.864 
11.409  69.747  59.976 
12.119  73.759  58.754 
11.071  67.072  66.045 
10.080  59.720  57.967 
9.728  61.774  57.431 
10.642  64.258  64.273 
11.438  67.458  60.898 
10.572  57.289  61.120 
11.137  62.159  68.141 
10.634  57.488  64.898 
10.669  54.837  60.925 
10.126  59.170  64.389 
10.109  57.685  57.155 
11.363  53.354  61.190 
10.478  61.250  60.381 
11.202  51.597  61.341 
10.718  54.400  62.678 
11.091  52.015  60.559 
11.308  51.215  60.431 
11.418  50.760  59.703 
11.530  49.314  57.533 
12.897  45.641  59.258 
12.387  46.110  59.602 
12.576  47.229  56.678 
12.684  45.203  62.597 
13.031  44.151  61.663 
13.140  43.151  61.013 
13.544  41.389  57.861 
12.794  44.492  58.696 
12.115  47.944  55.878 
14.475  38.625  58.030 
15.190  38.650  58.535 
17.602  34.756  63.602 
14.200  40.008  60.337 
15.984  37.585  58.415 
14.679  39.740  65.415 
15.305  38.156  64.293 
16.166  35.269  61.057 
16.986  34.135  60.613 
21.788  28.474  66.888 
17.539  33.622  62.733 
17.250  34.096  62.040 
17.094  34.399  57.389 
17.968  32.747  57.003 
18.282  32.635  55.992 
17.373  33.772  54.066 
20.869  29.159  59.600 
22.844  26.603  54.916 
24.012  26.032  64.826 
21.008  29.106  60.492 
20.198  29.599  59.330 
22.289  27.160  59.494 
23.759  25.721  58.325 
27.615  22.691  57.785 
28.215  22.097  54.210 
26.614  24.237  63.609 
23.857  25.726  57.539 
27.431  23.666  51.119 
26.087  23.787  60.956 
24.381  25.098  57.122 
28.682  22.366  54.580 
30.010  21.205  59.416 
29.575  21.096  61.273 
28.213  23.036  54.330 
29.155  22.256  54.631 
33.988  18.134  59.258 
30.960  19.668  56.336 
29.856  22.122  62.641 
36.964  16.336  61.279 
39.987  15.273  56.926 
40.855  14.782  57.815 
34.254  18.169  59.848 
36.840  16.617  53.079 
39.664  15.105  62.196 
40.490  14.725  64.224 
35.050  18.235  60.196 
38.418  15.487  59.667 
37.697  16.216  58.522 
42.787  14.081  58.997 
37.252  16.832  63.169 
42.076  14.480  56.726 
41.019  15.006  58.416 
37.240  16.869  60.494 
43.835  13.831  60.665 
38.662  15.636  54.220 
44.038  13.548  57.965 
45.405  13.881  57.777 
45.537  13.643  58.236 
46.688  13.459  58.322 
47.199  13.218  57.973 
47.371  13.155  58.780 
48.368  12.978  58.156 
48.386  13.023  58.777 
49.142  12.005  59.931 
49.867  11.832  59.324 
51.596  11.685  58.985 
51.326  11.705  60.147 
58.668  10.482  59.992 
58.889  10.032  58.295 
61.855  10.450  55.291 
63.138  10.423  54.239 
55.947  10.391  62.348 
60.962  10.571  55.439 
56.222  10.533  55.768 
59.705  10.880  64.193 
63.824  10.595  54.774 
60.631  10.702  61.458 
63.854  10.755  55.639 
61.143  10.815  57.955 
64.282  10.860  57.175 
65.358  11.262  56.071 
65.871  11.153  57.804 
66.397  11.100  57.106 
67.439  11.472  58.394 
67.258  11.411  57.320 
68.444  11.573  59.035 
68.034  11.194  57.202 
75.355  13.024  59.460 
71.680  12.782  50.312 
69.818  11.311  56.875 
71.462  12.533  51.871 
71.403  12.746  60.333 
72.777  12.110  55.877 
77.029  13.614  60.791 
79.066  13.812  62.993 
75.572  13.523  53.967 
73.610  12.456  63.946 
78.932  15.521  52.869 
76.977  13.279  58.707 
77.912  14.629  56.164 
81.125  15.760  55.738 
81.096  15.968  57.437 
81.217  16.453  56.941 
82.874  17.688  58.056 
83.351  17.345  58.794 
83.106  17.444  56.436 
84.242  18.538  57.342 
85.066  18.737  58.020 
85.096  19.282  55.963 
86.910  20.273  54.790 
86.649  19.765  56.157 
88.128  21.158  56.648 
87.578  20.697  56.238 
86.929  20.433  56.458 
88.327  21.831  54.455 
89.932  22.025  58.794 
88.663  21.402  54.358 
91.915  22.998  65.578 
89.601  22.099  56.918 
94.427  26.161  55.269 
94.257  24.403  58.119 
92.829  23.928  58.248 
93.434  24.282  58.680 
94.075  24.374  59.357 
92.396  23.503  60.997 
96.176  26.272  55.665 
97.317  27.590  55.765 
98.241  28.573  54.648 
94.704  25.723  54.126 
96.349  26.629  57.569 
94.841  26.563  53.076 
93.717  24.217  61.076 
97.735  27.970  62.311 
100.717  31.684  54.877 
96.293  27.874  52.549 
101.909  32.393  58.276 
99.058  29.864  53.605 
99.857  30.400  60.698 
102.247  33.100  58.003 
102.645  35.596  54.012 
102.042  33.185  59.720 
102.468  34.411  57.655 
103.236  36.173  55.131 
103.254  36.335  58.056 
104.025  37.512  56.632 
102.974  34.475  58.430 
104.883  39.009  57.757 
105.164  40.855  57.092 
104.961  38.576  56.933 
104.598  39.938  54.665 
106.381  43.744  62.831 
104.297  39.579  55.521 
104.835  45.009  53.485 
105.919  41.738  58.658 
104.438  40.917  54.240 
105.472  43.483  57.230 
106.023  42.872  56.316 
106.257  46.714  58.346 
106.177  45.762  59.410 
106.504  47.618  59.534 
106.200  48.518  56.969 
106.640  48.737  58.379 
106.963  48.286  59.562 
107.596  50.555  58.139 
106.755  49.767  59.366 
107.362  51.651  59.625 
107.963  51.636  59.627 
108.114  52.234  59.896 
107.572  52.668  59.884 
107.977  54.348  60.094 
108.913  55.783  58.862 
109.378  60.454  63.898 
109.549  58.213  58.995 
108.292  63.298  61.387 
109.043  59.442  57.776 
108.790  62.897  59.362 
107.806  64.991  62.164 
109.470  57.028  61.815 
108.579  61.564  55.040 
108.503  66.036  59.689 
107.959  64.820  58.802 
108.668  64.534  55.673 
108.254  65.621  59.036 
108.005  66.034  59.776 
108.563  65.584  57.447 
108.068  67.016  61.248 
108.121  68.240  59.622 
108.231  69.339  58.895 
107.957  69.584  59.725 
107.765  70.794  57.729 
108.077  70.522  58.287 
108.067  71.173  58.458 
107.651  74.099  58.936 
106.923  72.797  59.462 
107.557  74.016  56.932 
107.577  71.633  58.904 
106.921  75.276  59.382 
106.425  80.455  59.237 
106.515  76.166  58.599 
105.907  80.874  58.570 
106.209  79.738  58.390 
106.721  78.051  57.867 
105.636  81.655  56.962 
103.066  85.513  56.144 
104.913  82.875  64.538 
104.740  83.430  62.765 
102.803  87.417  58.646 
104.955  82.066  57.507 
103.826  84.514  55.096 
103.944  85.224  59.237 
105.212  82.233  58.897 
101.612  88.754  58.301 
96.240  94.292  59.826 
99.794  91.646  59.758 
104.404  84.082  60.886 
94.402  96.635  53.970 
102.530  87.879  59.518 
97.266  92.939  54.473 
100.176  89.265  65.078 
100.040  87.606  68.627 
99.942  88.731  66.486 
97.698  91.800  66.291 
97.390  92.206  64.955 
96.412  93.574  64.376 
96.995  93.871  61.085 
93.483  97.067  64.349 
94.638  96.106  61.807 
92.030  97.733  48.508 
93.552  97.549  56.187 
90.991  99.146  64.194 
93.450  97.073  63.150 
94.957  96.015  59.712 
88.596  100.605  63.832 
91.280  99.474  58.267 
88.996  100.022  61.619 
90.729  99.924  57.861 
91.093  98.893  60.269 
88.795  100.170  62.409 
92.893  98.176  57.072 
82.982  103.803  61.699 
90.686  99.540  60.006 
87.810  101.865  59.615 
79.293  105.875  55.307 
84.799  103.903  60.032 
80.701  105.700  58.927 
81.960  104.332  62.769 
85.883  103.310  57.991 
81.229  104.576  60.303 
81.355  104.414  61.740 
76.566  106.803  60.863 
80.900  105.468  56.788 
76.513  106.948  62.613 
77.873  106.823  60.946 
75.999  107.350  54.878 
77.483  107.191  60.231 
74.521  107.269  55.610 
74.389  107.766  56.371 
71.329  108.529  58.673 
72.732  108.155  61.612 
75.942  107.432  55.609 
70.673  109.188  58.940 
69.585  108.257  54.943 
69.156  108.391  56.604 
74.735  107.634  53.869 
76.314  106.927  57.313 
68.249  109.029  56.447 
70.508  108.787  57.670 
66.470  109.282  56.379 
67.100  108.900  57.623 
65.857  109.520  58.542 
63.567  109.260  59.240 
63.747  110.011  59.411 
62.287  110.132  58.337 
63.723  109.931  58.099 
62.796  110.184  59.549 
61.694  109.626  60.680 
59.986  110.267  60.649 
54.147  110.658  61.375 
58.987  109.603  59.561 
59.343  110.268  59.200 
56.130  110.339  59.534 
57.961  110.086  57.238 
57.965  109.638  63.839 
55.075  110.304  57.849 
55.282  110.909  60.132 
55.359  109.852  65.271 
52.991  110.193  63.714 
46.908  108.643  62.010 
46.063  107.611  62.760 
51.525  108.912  54.827 
49.730  108.700  54.218 
45.860  108.069  62.147 
48.741  108.901  57.038 
44.404  107.519  60.653 
42.456  106.682  59.720 
41.411  106.033  59.033 
40.202  105.942  59.234 
40.006  105.602  60.901 
49.548  109.620  58.844 
40.398  105.883  60.007 
39.420  105.090  57.968 
37.937  104.945  59.429 
36.627  104.097  59.352 
37.512  104.567  60.026 
37.200  104.581  59.523 
36.403  104.284  58.236 
35.161  103.370  60.763 
34.588  103.220  59.095 
33.183  103.087  57.896 
32.680  102.302  60.706 
33.861  102.688  64.088 
28.509  99.481  59.517 
28.839  99.987  61.352 
34.764  102.572  64.423 
29.673  100.673  59.436 
33.969  103.010  62.179 
29.060  100.573  58.934 
21.064  91.335  60.802 
28.492  98.582  61.314 
26.712  96.957  61.781 
27.087  97.637  59.680 
23.031  93.911  64.029 
26.277  96.134  64.467 
24.157  94.622  62.322 
26.300  96.526  63.595 
25.251  95.838  60.947 
24.165  94.796  63.547 
25.651  96.585  56.424 
21.521  92.787  58.344 
21.772  92.987  62.280 
20.431  90.927  54.033 
24.028  95.350  56.357 
22.991  94.455  57.869 
21.899  93.826  58.367 
21.500  92.233  59.515 
19.340  88.495  58.059 
20.074  90.585  56.927 
18.650  85.985  57.648 
20.781  91.300  56.357 
18.485  88.400  62.388 
19.193  89.179  58.520 
19.482  88.227  56.932 
18.730  87.859  65.309 
16.918  84.484  60.594 
16.178  81.914  60.645 
16.016  82.760  60.719 
15.464  80.996  64.531 
15.319  81.697  60.780 
14.968  80.223  60.499 
15.748  82.976  62.887 
15.119  80.985  60.311 
14.893  78.964  60.533 
13.839  77.601  62.444 
13.542  77.475  61.126 
13.759  76.332  63.116 
12.830  74.290  64.942 
11.049  63.983  62.173 
12.401  71.841  63.153 
13.479  71.769  52.709 
13.383  74.609  58.717 
11.346  70.049  56.838 
12.179  72.106  63.641 
12.854  72.784  62.046 
11.397  65.226  68.314 
12.193  73.419  60.297 
10.202  64.536  57.833 
11.027  69.434  56.350 
12.652  73.932  61.518 
10.349  60.195  61.944 
11.253  68.339  60.438 
11.306  62.049  53.682 
11.327  67.202  64.518 
11.231  67.419  63.701 
11.107  67.688  65.148 
10.676  66.157  57.326 
12.018  71.818  59.847 
10.699  65.830  59.770 
10.371  60.165  59.595 
11.738  69.885  60.430 
10.128  56.095  60.953 
10.042  57.097  59.250 
11.077  56.939  65.388 
10.477  59.401  55.514 
10.871  53.550  61.637 
10.586  53.165  54.410 
10.978  53.353  53.612 
10.942  52.500  60.216 
10.568  57.474  58.395 
11.393  50.680  60.444 
11.648  48.767  57.887 
11.831  48.889  61.041 
12.686  46.481  58.885 
12.381  48.584  59.972 
11.941  47.375  58.190 
11.980  47.069  58.855 
11.561  48.922  55.545 
13.111  44.494  62.271 
13.479  42.645  59.626 
13.212  43.116  58.447 
13.901  41.115  59.198 
15.426  37.127  54.038 
13.434  41.878  57.227 
14.099  40.473  53.660 
12.965  44.678  57.644 
15.526  38.057  56.732 
15.873  36.038  61.000 
18.070  33.707  55.222 
15.138  39.850  66.620 
19.352  31.859  61.317 
17.764  33.658  60.819 
17.152  35.312  59.528 
18.732  32.663  54.492 
16.453  35.084  57.436 
19.081  31.325  56.569 
17.868  32.990  61.241 
18.619  33.771  50.310 
21.266  28.510  60.872 
17.373  33.982  63.994 
20.588  30.162  62.028 
17.554  34.157  59.438 
19.674  30.301  59.154 
26.250  24.039  52.280 
25.588  24.331  57.484 
27.390  22.919  56.222 
26.738  23.125  55.938 
28.090  22.869  50.587 
20.984  29.161  61.272 
29.657  21.142  58.667 
27.397  23.347  58.530 
27.576  23.740  54.271 
27.907  22.656  61.402 
29.113  21.204  59.019 
28.135  22.460  58.687 
29.498  21.166  59.700 
29.203  21.033  57.836 
28.718  22.629  62.336 
33.055  18.404  57.052 
32.559  19.354  57.936 
33.538  18.866  58.899 
32.994  18.747  60.873 
29.212  21.117  56.959 
36.603  16.758  54.798 
37.398  16.525  52.322 
40.871  15.507  52.404 
39.655  15.092  55.786 
37.555  16.404  59.452 
43.015  15.484  51.817 
36.311  17.182  56.397 
38.537  15.619  61.502 
40.529  14.647  58.947 
36.671  16.443  58.632 
38.054  15.606  56.501 
39.422  14.701  58.242 
38.513  15.959  56.039 
44.587  13.539  57.848 
43.340  13.906  56.560 
44.074  13.871  56.776 
44.617  13.567  57.356 
46.301  13.295  57.984 
46.514  13.711  57.339 
47.539  13.315  56.734 
47.482  13.158  57.621 
47.529  13.018  58.341 
49.820  12.688  58.519 
49.130  12.400  58.114 
52.205  11.492  58.451 
49.161  11.780  60.823 
52.160  11.803  59.442 
50.517  11.854  59.809 
52.556  10.772  61.150 
56.062  10.738  56.348 
65.294  10.904  53.085 
57.876  10.079  58.365 
65.013  11.971  47.699 
63.628  11.158  49.639 
62.219  10.859  57.541 
57.881  10.231  55.446 
59.992  10.483  56.227 
64.358  10.808  51.093 
57.381  10.689  57.501 
65.814  10.907  55.389 
64.453  10.968  56.347 
65.288  10.755  54.517 
67.300  11.174  56.381 
65.122  10.863  55.793 
66.208  11.255  54.314 
68.298  11.407  58.067 
68.443  11.241  52.554 
71.745  11.996  57.104 
70.886  12.323  57.356 
70.659  12.255  58.669 
76.970  14.626  53.364 
72.980  12.542  57.169 
77.886  14.874  51.584 
73.884  12.929  53.385 
72.409  12.363  56.349 
78.730  15.211  51.460 
75.557  13.433  52.375 
77.125  13.106  59.848 
76.789  13.439  55.820 
78.941  14.241  59.649 
80.452  15.381  56.533 
80.089  15.492  57.770 
80.774  15.925  56.329 
81.990  17.213  56.956 
82.113  16.743  57.581 
83.738  17.864  56.693 
83.047  18.094  56.500 
84.448  18.520  55.892 
84.902  18.605  56.762 
86.663  19.842  55.249 
87.639  21.325  54.272 
87.191  20.193  55.703 
87.978  21.160  55.833 
88.992  21.738  55.101 
89.577  22.758  54.594 
88.838  22.174  55.775 
88.597  21.826  56.155 
89.267  22.520  55.809 
90.086  23.457  56.679 
90.155  22.658  56.812 
92.986  24.952  55.856 
96.103  27.443  52.568 
92.887  24.030  64.972 
93.044  25.501  53.788 
95.108  25.281  66.587 
97.263  26.627  61.579 
95.942  25.614  59.040 
93.969  24.808  60.628 
96.844  28.768  51.282 
95.855  27.245  52.981 
97.764  27.863  55.075 
99.880  30.212  55.749 
99.364  30.832  52.137 
96.240  26.708  56.146 
96.549  27.212  59.985 
102.888  33.995  56.583 
97.789  27.714  60.182 
99.433  29.289  58.733 
100.325  30.435  57.131 
97.653  27.430  57.249 
103.005  34.911  56.936 
101.043  33.153  55.881 
102.039  33.432  56.113 
102.869  36.392  54.173 
102.723  33.848  59.642 
101.344  33.120  56.903 
104.950  40.091  56.975 
104.707  39.226  58.594 
104.625  41.036  61.976 
104.773  38.297  58.414 
105.868  42.861  59.562 
105.941  42.621  62.396 
105.842  42.119  56.075 
104.865  40.784  55.267 
104.617  41.090  53.397 
105.965  44.281  57.180 
105.794  45.021  56.876 
106.244  45.614  58.254 
106.245  45.776  57.000 
106.379  45.834  58.657 
106.103  47.793  58.643 
107.117  48.661  58.705 
107.245  49.425  58.755 
106.739  48.292  58.863 
107.744  50.773  59.320 
107.892  51.580  58.592 
108.142  52.154  59.130 
108.197  52.382  58.631 
108.213  52.909  59.429 
107.671  54.257  59.143 
108.087  54.999  58.550 
108.536  55.426  58.560 
108.775  57.112  61.180 
109.078  57.089  58.775 
109.213  57.088  60.911 
109.220  57.992  53.973 
109.569  56.756  63.446 
109.379  58.052  60.809 
108.627  63.996  56.828 
108.828  64.343  58.287 
108.412  62.877  56.626 
108.307  65.493  55.721 
108.192  65.834  56.634 
107.888  67.328  59.420 
107.919  66.924  58.518 
108.143  68.092  58.837 
108.105  68.582  58.745 
107.697  67.947  58.521 
107.659  69.945  57.930 
108.355  70.570  56.948 
108.141  71.152  57.635 
107.612  72.490  58.086 
107.611  73.600  58.176 
107.192  73.214  57.610 
107.537  73.191  58.516 
107.155  74.892  58.206 
107.516  74.449  58.606 
107.041  75.380  58.423 
106.794  76.615  58.859 
107.046  75.981  58.454 
106.415  79.198  56.930 
105.947  79.729  56.842 
105.695  80.965  56.976 
105.465  80.811  58.063 
104.103  83.593  58.016 
104.384  83.719  62.947 
105.316  81.484  58.497 
106.221  81.083  60.861 
104.037  83.974  58.597 
102.609  87.031  54.543 
101.396  89.521  57.955 
99.891  91.411  55.965 
103.948  84.567  58.185 
99.034  89.479  48.486 
96.404  94.418  58.550 
98.471  92.263  57.616 
98.114  93.285  58.411 
98.355  93.203  57.637 
98.823  91.953  63.476 
96.923  90.595  67.529 
101.122  89.877  60.246 
98.961  91.475  54.958 
100.711  90.161  63.026 
99.817  91.349  62.127 
94.946  95.495  65.333 
96.405  94.202  63.952 
96.417  94.379  53.400 
95.959  94.613  62.482 
91.243  99.237  54.326 
95.665  95.454  56.056 
94.114  96.715  56.640 
94.293  96.307  64.682 
94.987  95.148  62.225 
93.906  97.309  57.209 
91.564  97.217  67.498 
89.412  100.471  58.789 
85.302  103.348  58.890 
93.262  97.865  57.763 
89.395  100.161  53.137 
87.082  102.257  59.872 
91.826  98.841  57.954 
86.981  102.166  61.996 
82.390  104.961  58.311 
86.091  102.802  57.118 
83.888  103.811  58.608 
74.844  107.399  57.790 
79.930  105.816  56.379 
82.451  104.201  62.122 
83.015  103.673  62.476 
79.106  106.231  57.370 
77.569  106.499  61.740 
81.774  105.033  53.876 
81.507  105.182  59.151 
74.511  107.944  58.072 
78.607  106.736  57.952 
72.105  108.920  58.091 
76.046  107.471  57.927 
72.112  108.615  59.712 
75.238  106.952  53.110 
71.770  107.962  61.351 
72.773  108.099  60.619 
75.820  107.573  53.513 
70.053  107.910  53.945 
68.675  108.605  54.692 
72.575  108.833  57.196 
68.711  109.176  58.990 
68.903  108.039  55.203 
64.664  109.678  57.379 
65.273  109.478  58.307 
63.593  109.942  58.640 
63.125  110.051  58.704 
62.441  110.111  59.188 
64.830  109.301  58.113 
63.707  109.975  57.501 
61.735  109.799  58.842 
61.181  109.832  59.839 
59.799  110.081  58.569 
60.603  110.168  62.334 
54.586  110.122  59.114 
60.071  109.889  62.488 
55.502  110.621  61.537 
56.146  110.458  57.611 
51.010  108.909  53.559 
58.400  110.140  59.450 
56.602  110.221  55.473 
50.733  109.961  57.458 
53.213  108.962  54.904 
50.962  109.700  61.361 
50.368  108.072  53.448 
45.754  107.951  59.952 
46.329  108.219  61.502 
50.205  109.778  59.084 
45.010  107.206  59.729 
45.240  107.319  60.598 
44.276  106.385  59.083 
41.186  105.997  60.596 
41.345  106.288  59.964 
40.622  105.687  58.533 
39.863  105.559  58.555 
40.839  106.101  59.290 
41.907  105.800  58.545 
39.540  105.232  59.280 
38.467  105.023  58.703 
36.156  104.059  60.065 
36.407  104.155  58.719 
34.441  103.238  57.168 
34.729  103.502  61.484 
33.570  102.469  57.716 
33.634  101.903  62.903 
29.093  99.457  62.209 
31.643  102.085  58.589 
32.508  102.182  58.643 
33.105  102.716  60.712 
31.346  101.239  61.248 
33.076  102.186  62.138 
36.646  103.669  63.955 
29.997  100.413  55.242 
23.532  95.210  57.940 
25.450  96.750  58.819 
29.555  98.527  64.612 
27.518  97.826  62.704 
26.949  97.373  61.289 
28.462  97.806  64.572 
27.509  96.967  63.135 
23.887  93.604  68.563 
22.730  93.301  64.394 
23.200  94.808  54.936 
23.209  94.425  58.623 
24.450  95.978  60.266 
21.610  92.268  60.977 
19.569  90.212  55.273 
23.456  94.314  61.310 
22.092  93.188  57.258 
20.151  90.618  57.722 
20.647  91.922  54.574 
21.451  92.962  56.447 
19.874  90.068  57.223 
18.811  87.288  53.338 
21.793  93.147  55.988 
17.269  84.735  59.513 
18.028  86.533  59.546 
18.234  87.907  59.812 
16.786  83.556  62.728 
16.231  82.722  59.546 
15.416  82.204  61.069 
16.110  82.559  58.761 
15.824  82.114  59.288 
15.013  81.598  61.638 
14.854  80.390  59.654 
15.376  81.137  59.494 
14.407  78.926  60.593 
13.895  77.943  61.029 
14.056  77.468  60.304 
13.466  77.315  59.485 
13.770  78.213  62.688 
13.152  74.443  68.028 
12.265  73.214  61.492 
13.077  74.119  62.142 
13.369  74.760  57.690 
13.040  74.947  61.424 
10.752  66.391  64.402 
11.263  69.213  62.294 
11.597  68.810  59.777 
11.261  68.918  63.844 
11.006  68.382  62.011 
12.317  73.539  57.992 
10.711  61.423  59.066 
10.629  61.704  65.903 
12.447  72.030  62.295 
12.103  69.254  59.238 
10.463  61.520  65.182 
10.777  63.235  61.607 
10.734  58.645  67.617 
10.434  62.231  61.949 
10.499  66.387  58.146 
11.278  69.178  56.825 
10.788  56.925  58.954 
10.573  63.961  58.211 
10.318  61.767  61.277 
10.091  63.853  58.310 
10.476  52.585  56.464 
10.703  55.742  61.326 
10.909  59.831  66.247 
10.650  59.129  58.653 
10.797  52.981  60.853 
10.342  56.325  54.229 
10.994  51.897  58.958 
11.387  52.081  59.719 
11.651  50.054  60.073 
12.123  50.524  60.326 
12.035  49.323  59.800 
11.823  48.222  50.639 
12.495  49.154  59.999 
13.045  44.021  58.119 
11.295  48.955  56.468 
13.305  42.770  55.979 
14.141  40.142  57.044 
13.402  43.892  60.140 
14.144  39.592  58.068 
16.322  35.836  52.012 
15.322  37.105  58.013 
16.702  34.992  62.214 
14.657  39.739  58.728 
15.390  37.544  57.177 
14.215  41.280  62.841 
15.738  37.173  61.566 
17.102  34.834  58.055 
16.243  34.943  61.380 
16.706  35.710  58.047 
16.024  36.177  60.445 
17.995  32.411  61.805 
17.546  33.099  62.165 
16.909  34.948  60.752 
23.412  26.253  59.163 
22.260  27.585  57.663 
18.310  33.237  57.636 
21.794  28.017  61.618 
18.357  32.045  58.618 
22.933  26.878  56.785 
22.386  26.877  60.427 
22.950  27.044  55.906 
26.767  23.874  52.754 
28.596  22.317  55.872 
24.698  24.941  61.535 
26.543  26.140  44.892 
28.476  21.923  57.039 
22.791  27.563  52.371 
29.357  21.546  54.278 
23.668  26.494  56.278 
24.440  25.696  61.079 
22.289  28.234  59.080 
29.345  21.118  53.471 
30.430  20.274  57.390 
30.380  20.723  59.688 
28.234  21.974  55.200 
31.621  20.373  58.594 
37.352  15.884  57.030 
32.778  19.688  57.618 
32.572  18.995  60.612 
37.243  15.926  56.532 
37.523  17.085  50.909 
38.543  15.967  57.840 
36.694  16.389  54.458 
38.333  15.805  54.837 
41.347  15.602  51.583 
39.038  15.245  54.594 
36.969  16.205  59.895 
40.384  15.126  56.227 
41.090  15.133  56.052 
43.329  14.307  56.879 
40.480  15.199  54.235 
41.369  14.618  54.818 
43.103  14.236  54.723 
43.305  14.031  55.136 
44.654  14.055  56.135 
44.293  13.308  55.466 
45.237  13.557  57.083 
44.953  13.282  56.503 
46.415  13.049  56.465 
46.729  12.991  57.087 
47.972  12.684  57.478 
48.380  13.108  57.488 
48.674  12.567  58.026 
50.442  12.053  58.183 
50.711  11.816  59.136 
51.436  12.097  58.745 
53.396  11.390  58.187 
55.710  10.379  59.746 
54.157  10.783  60.351 
53.877  11.885  57.872 
56.362  11.408  50.094 
54.295  10.627  60.987 
58.905  10.638  51.515 
66.060  11.229  49.493 
63.693  11.923  45.725 
62.010  11.121  51.501 
64.009  10.968  52.451 
58.697  10.440  57.124 
63.087  11.264  57.241 
59.091  10.338  56.638 
66.612  10.953  55.792 
65.186  11.152  49.715 
63.759  10.863  51.819 
68.006  11.550  56.808 
65.728  11.142  56.924 
64.754  10.849  53.717 
66.363  10.929  56.245 
68.150  11.309  55.946 
76.579  13.227  61.941 
76.587  13.764  54.711 
70.353  11.633  57.536 
77.526  13.853  56.300 
73.166  12.269  61.642 
71.439  11.635  57.462 
75.392  12.362  61.231 
74.395  13.131  54.311 
73.021  12.321  53.674 
75.944  12.825  57.529 
77.538  15.224  53.067 
78.243  14.296  56.402 
79.437  16.152  53.402 
76.070  12.799  60.112 
81.089  16.184  54.958 
81.945  16.496  56.347 
81.347  16.232  55.749 
82.538  17.165  55.976 
82.232  17.318  55.559 
84.212  18.853  56.503 
85.880  19.631  55.571 
86.444  19.725  54.470 
85.173  18.980  55.002 
86.582  20.511  54.463 
87.433  20.592  53.985 
88.498  21.127  55.055 
87.964  21.088  55.063 
88.898  22.166  53.241 
90.189  23.566  54.175 
89.602  22.169  56.323 
91.731  24.012  56.016 
92.821  24.817  54.545 
92.071  24.179  55.127 
91.617  24.688  56.585 
97.119  27.467  54.657 
94.017  24.181  62.029 
96.909  27.209  57.841 
92.516  23.033  60.867 
92.576  24.807  53.997 
97.523  28.364  54.159 
93.136  23.974  61.733 
96.870  26.311  62.165 
95.642  25.734  58.136 
99.412  30.424  55.642 
95.767  27.966  51.285 
99.003  29.212  58.029 
98.721  30.675  63.455 
97.552  27.728  58.117 
101.520  32.651  58.508 
98.291  30.782  52.302 
98.259  28.281  58.979 
104.561  37.885  57.173 
101.029  32.474  54.301 
100.828  33.227  54.409 
102.762  35.672  54.813 
103.198  34.711  56.121 
103.937  37.901  57.372 
104.493  38.161  59.561 
103.747  36.762  59.653 
104.853  38.365  57.701 
104.999  40.691  56.113 
105.068  39.577  59.502 
105.123  40.020  56.098 
106.094  44.436  62.722 
105.191  41.093  61.164 
105.764  41.128  57.381 
105.091  43.898  54.864 
105.883  43.690  56.490 
105.809  44.861  55.650 
106.102  43.832  57.339 
106.042  46.423  56.959 
106.720  48.387  57.519 
106.473  46.436  57.809 
106.935  48.949  56.885 
106.772  49.480  58.426 
107.191  50.161  59.079 
107.465  51.353  57.745 
107.800  51.089  58.372 
107.793  51.874  57.944 
107.743  52.944  58.961 
107.735  53.453  58.311 
108.284  53.705  58.846 
108.056  54.692  57.936 
109.130  56.610  59.015 
108.785  55.634  61.409 
109.088  57.547  63.666 
108.842  63.848  59.552 
109.458  57.695  55.508 
108.906  61.669  58.330 
108.521  60.223  54.488 
108.991  62.902  57.409 
108.015  63.470  53.621 
108.269  64.645  56.431 
108.412  63.942  55.955 
108.127  64.728  55.913 
108.464  66.288  57.789 
108.457  67.007  58.226 
108.421  67.442  59.372 
108.228  67.780  58.436 
108.175  68.896  57.555 
107.548  69.284  58.190 
108.289  70.488  56.372 
107.325  71.692  57.718 
107.878  72.909  57.676 
107.379  72.719  56.404 
107.392  73.565  56.205 
107.284  73.437  58.862 
107.352  74.694  56.932 
107.295  74.838  57.635 
106.859  76.836  58.107 
106.952  76.383  56.303 
106.291  77.507  59.114 
106.552  78.454  58.135 
105.560  80.609  54.830 
105.474  79.428  55.448 
104.845  82.199  53.289 
103.527  86.067  58.642 
106.030  78.381  56.755 
103.402  85.756  58.043 
101.648  88.463  54.214 
102.729  86.567  55.364 
104.902  84.170  61.653 
100.347  89.607  55.260 
100.843  88.954  52.105 
103.401  84.648  53.806 
101.026  89.558  53.419 
100.557  89.474  53.238 
100.247  90.026  51.697 
98.565  92.846  59.703 
98.073  93.118  60.919 
97.249  94.140  57.556 
100.035  91.142  63.014 
100.201  90.479  54.496 
100.061  89.929  61.333 
94.600  95.068  65.996 
95.015  95.313  61.408 
97.378  93.576  62.394 
94.250  96.382  59.850 
96.308  94.125  51.102 
100.871  89.926  61.087 
90.959  99.470  59.049 
93.313  96.990  53.158 
97.243  93.987  62.960 
97.649  93.077  63.654 
91.445  96.777  67.224 
92.812  98.000  56.500 
90.203  99.598  60.665 
92.976  97.455  63.795 
91.820  98.553  61.976 
89.726  100.026  60.056 
92.021  98.633  55.148 
86.845  102.152  56.880 
85.044  103.163  55.028 
87.320  101.041  62.741 
91.711  98.017  64.290 
89.298  100.683  61.028 
84.445  103.342  53.030 
91.213  98.881  61.964 
84.138  104.263  58.086 
77.997  105.897  53.197 
88.299  101.462  59.910 
80.194  105.465  62.139 
78.529  106.491  60.739 
80.652  105.047  56.055 
77.721  106.752  60.248 
78.588  105.559  52.554 
74.551  107.689  54.653 
74.621  107.569  59.161 
79.241  106.219  56.132 
74.590  108.040  57.165 
74.687  107.651  61.553 
74.946  107.967  55.727 
72.274  108.295  54.202 
72.721  108.525  61.299 
68.252  107.968  53.495 
67.086  108.657  55.803 
70.245  108.530  56.406 
73.384  108.394  57.199 
65.545  109.358  57.524 
66.542  109.368  57.092 
66.172  108.969  57.871 
67.366  108.866  58.318 
64.404  109.432  58.460 
64.423  109.971  58.577 
61.226  110.333  57.047 
62.978  110.178  57.815 
61.836  110.248  57.595 
58.581  110.580  61.508 
60.917  110.180  59.137 
57.139  110.237  56.259 
59.136  110.327  64.521 
53.142  109.994  56.830 
58.168  110.441  60.713 
57.733  110.091  59.388 
52.788  109.398  58.363 
53.476  110.264  57.481 
51.614  109.644  55.989 
48.715  109.477  59.732 
52.560  108.736  54.372 
47.757  108.214  57.472 
55.402  110.181  56.883 
49.466  109.281  60.786 
44.165  107.475  59.728 
45.446  107.764  59.310 
49.779  109.006  55.423 
44.296  106.849  57.257 
48.379  109.055  59.116 
46.661  108.458  60.782 
41.805  106.292  60.206 
43.035  106.692  60.402 
41.008  105.817  57.751 
40.963  105.344  58.616 
39.589  105.160  60.105 
38.986  104.523  57.598 
37.876  104.824  58.279 
37.547  104.339  59.103 
36.884  104.608  58.197 
35.560  104.070  58.521 
35.221  104.103  60.156 
33.968  103.096  55.238 
32.925  101.814  58.218 
29.872  100.579  56.590 
28.486  99.505  57.897 
28.961  100.344  59.559 
32.625  101.712  59.916 
32.442  101.016  63.939 
34.396  102.862  59.494 
28.214  98.041  63.041 
32.242  102.222  59.318 
23.864  94.026  64.648 
28.812  98.544  64.364 
23.635  94.522  63.596 
24.832  95.360  63.071 
29.168  99.182  63.042 
22.511  93.297  62.781 
25.830  96.322  59.844 
25.714  95.453  63.403 
27.030  96.688  64.247 
24.548  94.950  65.172 
29.721  100.715  55.590 
20.921  91.428  59.583 
21.853  92.870  55.586 
25.092  96.644  54.854 
22.610  93.336  51.847 
24.215  95.938  59.254 
21.660  92.447  56.308 
25.469  97.023  57.246 
19.944  89.562  57.443 
21.757  93.512  58.780 
19.384  89.801  56.978 
19.007  87.556  56.084 
18.697  86.834  56.419 
20.287  91.400  58.759 
17.250  85.690  60.098 
18.531  87.037  59.224 
17.110  84.632  61.566 
15.958  81.776  58.520 
15.732  82.325  60.151 
15.197  81.372  59.923 
15.751  80.473  59.243 
15.148  80.186  58.874 
15.001  79.492  60.071 
14.622  79.549  59.265 
14.337  79.153  59.817 
13.718  77.614  59.793 
14.263  77.337  62.070 
13.676  77.037  60.870 
13.442  76.173  62.271 
12.723  74.362  58.589 
13.063  75.578  63.931 
13.365  75.122  60.788 
12.222  73.241  56.415 
12.002  70.660  59.597 
12.411  71.499  54.612 
11.259  65.596  64.570 
11.502  71.194  64.742 
11.329  68.986  64.762 
12.521  70.057  54.206 
11.438  69.672  63.240 
10.784  65.031  60.289 
10.615  62.093  64.453 
12.028  72.305  56.522 
11.120  68.859  57.589 
10.703  65.278  63.394 
10.559  65.865  56.539 
10.251  61.766  60.590 
10.076  56.322  62.661 
10.583  62.614  60.652 
10.628  58.547  53.886 
10.232  59.608  56.409 
10.781  60.901  65.693 
10.903  64.673  55.388 
10.252  56.000  58.853 
10.093  62.056  58.259 
10.773  55.215  59.867 
10.802  51.797  54.802 
11.327  52.316  50.161 
11.161  53.811  60.975 
10.050  54.510  55.691 
11.029  52.423  59.488 
11.919  49.525  59.286 
12.097  46.939  59.491 
11.441  48.498  57.227 
10.597  52.226  57.802 
12.107  48.927  58.521 
11.826  51.484  50.119 
12.686  46.950  58.500 
12.919  44.886  59.900 
12.962  44.431  60.381 
13.376  42.048  56.484 
14.963  38.467  60.857 
12.876  44.574  55.615 
12.934  43.676  60.405 
14.296  39.205  55.599 
14.852  37.917  54.190 
13.638  41.027  57.211 
13.950  41.064  61.426 
15.991  36.232  56.592 
17.326  34.166  64.776 
15.636  36.953  62.385 
14.281  40.041  61.088 
16.645  35.268  58.532 
20.547  30.607  53.752 
17.971  32.860  59.091 
15.844  36.461  63.964 
17.691  33.768  54.876 
17.250  34.018  58.822 
17.276  33.495  60.890 
20.154  30.829  57.968 
20.511  30.229  54.630 
22.681  27.626  60.722 
21.554  28.577  63.268 
19.661  32.817  48.668 
29.495  21.401  57.694 
25.670  25.511  49.680 
23.348  26.383  57.728 
21.512  28.025  61.078 
24.933  25.638  51.452 
27.705  24.846  45.214 
29.804  21.521  52.841 
28.136  22.475  56.618 
27.613  22.794  59.136 
31.445  19.896  53.144 
31.274  19.768  59.148 
31.193  20.445  52.372 
31.456  20.242  57.671 
27.494  23.127  53.524 
35.003  17.571  55.021 
31.092  20.308  55.810 
31.955  19.541  53.961 
36.002  17.509  56.663 
32.030  19.718  62.226 
30.589  20.291  56.416 
39.694  14.964  54.117 
36.160  16.540  58.026 
39.021  15.351  55.486 
35.363  17.475  54.727 
39.204  16.570  51.124 
37.748  16.382  60.281 
41.361  14.382  57.025 
38.802  15.026  60.111 
41.664  14.472  56.113 
41.079  16.432  50.502 
41.011  14.644  56.185 
43.132  14.020  56.004 
44.262  13.453  54.666 
43.738  14.023  54.039 
43.894  13.527  55.963 
45.220  13.252  55.670 
46.604  13.144  55.917 
47.033  12.892  56.207 
47.756  12.669  56.837 
48.613  12.541  56.242 
48.699  13.351  56.764 
49.346  12.482  57.334 
49.327  13.102  57.699 
50.803  12.858  57.754 
55.695  11.171  54.394 
52.617  11.803  58.598 
53.090  12.055  57.795 
53.067  11.263  59.588 
53.930  11.347  56.347 
52.240  11.428  62.274 
59.581  10.395  57.295 
59.063  9.977  57.849 
55.207  11.466  54.436 
69.322  12.380  50.107 
64.945  10.993  56.707 
62.759  10.687  55.402 
66.200  10.748  51.015 
65.662  10.743  53.618 
66.475  11.096  51.243 
61.764  11.226  55.889 
58.440  10.731  56.417 
63.299  11.135  52.400 
66.891  11.513  55.142 
67.391  11.072  50.852 
67.017  11.192  52.857 
71.695  11.968  58.075 
75.399  12.336  55.910 
68.805  11.423  56.698 
76.840  13.166  56.372 
75.789  14.007  51.124 
69.824  12.787  49.067 
70.912  12.064  55.329 
77.940  13.393  59.364 
79.508  14.801  61.964 
77.484  15.047  50.739 
78.636  15.430  49.867 
78.326  15.448  51.714 
79.114  15.670  50.550 
78.104  14.540  54.842 
79.510  15.402  56.628 
79.817  15.949  55.367 
80.317  16.002  54.030 
81.906  16.468  55.201 
81.158  16.521  54.360 
82.530  17.280  55.157 
83.184  17.782  54.860 
83.095  17.763  55.690 
83.701  18.111  56.158 
85.708  19.013  56.698 
86.262  20.182  55.223 
86.663  20.318  53.983 
87.348  20.931  55.167 
88.074  21.085  53.715 
89.068  21.634  53.890 
89.393  22.502  53.908 
90.495  22.940  55.537 
91.305  23.436  57.134 
90.560  22.842  57.573 
90.602  23.097  56.145 
93.884  25.499  55.566 
94.070  25.969  53.936 
93.552  25.318  55.109 
93.859  25.301  54.063 
93.542  25.462  56.319 
94.261  25.425  53.277 
93.234  24.022  60.395 
95.685  28.174  50.737 
99.526  29.488  57.291 
97.259  28.580  53.765 
99.918  32.393  52.211 
96.004  25.690  60.907 
98.722  30.590  51.532 
99.393  31.185  52.959 
98.185  28.628  53.997 
101.866  33.190  55.635 
99.561  30.672  53.854 
100.358  31.618  57.213 
99.561  31.122  53.599 
99.674  31.685  51.881 
101.448  33.333  53.342 
103.291  38.027  54.492 
102.632  34.193  55.847 
103.445  35.415  56.562 
103.624  35.664  57.556 
103.854  37.106  58.823 
102.906  36.243  56.537 
103.341  35.467  58.237 
105.206  40.189  58.303 
105.733  41.730  59.128 
104.325  40.067  55.155 
105.169  41.218  53.999 
105.028  44.558  54.918 
104.994  41.255  54.837 
105.141  45.227  54.349 
105.920  43.351  58.099 
105.991  44.589  57.695 
105.813  47.660  56.855 
106.065  45.753  57.470 
107.225  49.483  58.229 
106.637  47.950  57.995 
106.999  48.821  57.693 
106.657  49.956  57.027 
107.443  50.270  58.641 
106.788  50.628  57.556 
107.081  51.243  56.751 
107.806  52.458  57.389 
107.959  52.941  58.059 
108.085  53.772  57.548 
107.520  54.098  57.558 
107.761  55.544  57.944 
108.821  56.379  58.323 
108.803  55.491  59.596 
109.111  57.736  55.892 
109.181  57.900  59.740 
107.870  61.942  51.727 
108.528  60.705  54.781 
108.927  60.482  55.636 
108.545  63.057  57.385 
108.712  61.802  55.798 
108.224  65.184  61.145 
108.484  63.946  54.340 
107.544  66.077  55.302 
108.510  66.249  56.262 
108.481  67.041  57.344 
108.476  66.765  56.175 
108.136  67.633  57.626 
108.427  68.102  57.483 
108.158  69.359  57.558 
107.926  71.537  57.306 
107.361  72.417  57.303 
107.872  72.374  57.096 
108.105  71.540  55.951 
107.757  73.181  57.004 
106.968  73.623  57.638 
107.600  73.925  56.390 
107.273  75.366  57.051 
107.181  75.272  56.220 
106.921  76.155  57.685 
105.622  78.600  56.355 
105.671  79.800  56.178 
106.612  77.877  57.106 
106.217  79.203  55.743 
105.250  80.348  56.823 
104.897  81.543  55.316 
103.305  85.086  55.092 
105.437  79.612  52.104 
104.046  84.534  54.280 
104.797  81.618  50.607 
102.501  86.213  54.622 
101.861  86.332  52.423 
104.124  84.150  62.757 
102.461  86.678  52.950 
99.396  91.959  57.015 
103.480  85.767  54.639 
101.766  89.440  61.371 
97.552  92.177  53.093 
96.581  94.688  57.217 
97.360  93.402  60.191 
99.063  91.508  64.827 
98.707  91.956  55.808 
95.958  94.258  64.605 
93.629  97.979  56.633 
95.645  95.081  54.370 
95.770  95.177  64.221 
94.927  96.023  57.813 
95.660  94.926  59.125 
93.142  97.661  60.432 
91.030  97.778  48.579 
94.133  94.883  49.890 
88.234  101.103  61.643 
91.389  98.811  63.805 
92.763  98.237  55.659 
93.445  97.578  56.971 
90.582  98.831  63.339 
90.819  100.053  55.053 
90.439  99.353  59.217 
90.033  100.375  57.668 
88.699  100.939  51.009 
89.997  100.666  55.971 
82.749  104.244  56.067 
85.746  103.464  56.377 
80.426  105.352  57.221 
87.474  101.793  59.266 
87.809  101.486  56.636 
87.220  102.272  53.897 
84.792  104.101  58.531 
85.131  103.487  58.136 
78.232  106.883  60.130 
81.390  105.318  59.951 
79.943  105.548  60.569 
83.023  104.351  52.847 
73.413  108.456  58.395 
73.571  108.138  58.044 
75.663  107.256  52.226 
74.792  108.171  59.810 
74.216  107.637  60.248 
78.907  106.476  59.396 
75.829  107.194  56.271 
73.874  107.244  52.701 
68.069  108.519  55.274 
69.230  108.559  52.961 
67.625  108.241  53.914 
69.038  108.025  53.009 
67.812  108.630  56.184 
66.928  108.863  56.323 
67.670  109.232  57.031 
66.070  109.067  55.612 
65.983  108.973  56.476 
64.256  109.330  57.617 
65.013  109.378  56.472 
63.848  109.497  56.939 
63.419  109.172  57.049 
61.042  109.949  58.322 
60.565  110.162  57.656 
61.425  110.163  57.914 
59.081  109.818  58.036 
60.511  109.964  58.558 
57.674  110.437  59.942 
54.921  109.899  64.137 
52.686  109.610  55.462 
53.878  110.538  59.993 
56.926  110.019  59.884 
55.931  109.783  56.352 
47.050  107.759  60.202 
50.892  109.568  58.232 
49.653  108.713  54.973 
47.722  108.686  57.318 
49.062  109.078  57.722 
51.025  109.510  55.477 
52.301  109.956  57.898 
47.210  108.605  60.079 
44.141  107.186  59.207 
41.709  105.958  56.889 
44.577  106.468  54.638 
45.845  107.313  57.667 
42.655  105.984  58.506 
44.109  106.819  59.598 
40.928  105.721  57.262 
40.193  105.527  58.152 
40.007  105.016  57.781 
38.396  104.336  57.581 
37.490  104.613  57.799 
37.703  104.329  57.174 
36.647  103.580  57.489 
35.760  104.059  58.045 
35.559  103.392  57.564 
32.014  102.125  57.337 
32.864  102.408  56.894 
31.771  101.492  56.354 
32.967  102.426  59.736 
30.894  100.418  61.382 
32.918  102.653  58.938 
30.848  100.320  51.453 
28.606  99.094  60.191 
30.027  101.116  60.020 
26.523  97.790  60.705 
28.989  99.893  57.753 
25.106  95.838  62.777 
20.446  91.011  64.607 
22.886  93.681  61.000 
24.013  95.607  58.377 
27.867  98.015  61.568 
24.839  96.242  58.415 
26.997  97.877  61.491 
21.824  92.899  61.201 
28.725  99.724  54.608 
23.554  95.494  57.320 
27.516  98.782  57.392 
20.421  91.561  54.134 
26.290  96.851  58.226 
21.905  93.342  54.997 
20.624  91.674  52.959 
21.081  92.421  55.807 
19.733  88.620  55.222 
19.853  89.029  53.884 
19.458  86.881  53.902 
18.416  86.355  55.823 
17.587  85.525  58.012 
20.442  90.190  60.546 
17.471  84.848  58.219 
17.100  84.095  58.811 
17.429  85.308  58.870 
18.485  87.168  54.844 
16.895  83.524  58.413 
16.598  82.604  58.768 
15.579  81.000  58.723 
15.532  80.047  58.389 
15.190  79.416  58.732 
14.443  78.855  59.032 
14.247  78.380  58.133 
14.407  77.955  59.487 
13.909  77.783  58.585 
13.078  76.774  60.498 
13.856  76.705  60.120 
13.616  77.664  60.282 
13.218  75.926  60.346 
12.717  73.402  60.908 
12.168  73.429  59.415 
11.702  69.879  57.142 
12.055  72.235  61.124 
12.706  71.843  53.431 
12.311  69.007  54.596 
12.061  72.540  57.071 
11.216  65.680  61.745 
11.505  70.715  62.078 
11.605  70.602  61.233 
13.605  72.006  51.461 
10.736  65.643  62.490 
10.416  63.141  58.694 
10.826  66.093  61.127 
10.702  67.334  61.700 
10.623  66.658  63.411 
10.301  62.788  56.523 
10.507  62.619  64.187 
11.247  69.759  64.135 
10.280  61.259  62.530 
11.707  65.729  54.529 
10.737  62.840  59.875 
10.821  64.635  54.795 
9.920  56.294  56.569 
10.211  58.208  57.842 
9.971  57.095  63.019 
10.039  61.871  58.756 
10.472  54.942  53.036 
10.800  51.448  58.345 
11.554  50.224  59.640 
10.463  52.110  56.588 
10.502  52.987  57.990 
11.984  48.172  60.495 
11.983  53.600  48.943 
11.886  48.633  59.317 
13.021  44.237  53.505 
12.262  46.383  57.700 
11.635  48.433  55.758 
13.233  43.657  58.845 
13.944  41.648  57.766 
10.917  50.779  56.878 
13.589  42.432  57.782 
13.956  41.909  58.583 
14.915  37.990  56.500 
14.834  40.242  56.286 
13.317  42.691  61.260 
17.165  34.623  64.730 
13.836  40.475  54.572 
17.424  33.478  65.059 
13.552  41.913  59.945 
15.921  36.776  63.198 
16.883  34.825  56.469 
19.320  31.381  63.985 
17.523  33.544  63.215 
17.323  33.705  57.239 
16.994  34.843  58.937 
16.709  34.750  53.708 
21.992  28.010  59.852 
17.789  33.412  55.920 
23.944  26.066  52.945 
16.832  34.934  59.873 
25.350  25.571  52.518 
25.354  24.800  56.219 
27.547  22.950  51.452 
25.939  24.151  55.847 
26.121  23.509  56.415 
28.471  23.998  47.187 
22.983  29.145  47.578 
26.603  23.950  57.195 
26.522  25.864  47.734 
23.940  27.131  51.366 
28.824  22.573  60.942 
27.826  22.997  52.802 
31.602  19.626  58.472 
30.241  20.802  52.252 
29.434  22.098  53.352 
31.817  19.729  59.151 
33.276  18.555  59.367 
30.265  20.816  58.785 
34.418  18.535  54.841 
36.826  16.767  59.185 
36.441  16.678  59.516 
33.750  18.991  59.991 
38.030  15.701  55.568 
34.835  17.295  52.482 
41.547  15.912  50.725 
41.806  15.425  51.670 
42.034  15.106  53.701 
40.542  15.993  51.809 
41.708  15.277  52.901 
39.965  14.780  58.101 
37.238  17.259  51.720 
42.550  14.450  56.487 
42.488  14.716  53.102 
42.685  14.076  57.334 
43.788  13.598  54.610 
42.246  14.325  55.803 
44.832  13.941  55.182 
45.774  13.387  55.899 
45.872  13.569  54.091 
46.012  13.250  55.215 
47.568  13.169  55.642 
47.963  12.678  55.972 
49.253  12.401  55.587 
49.104  12.918  56.363 
49.544  12.683  56.817 
50.691  12.282  56.070 
50.915  12.005  57.519 
51.570  11.758  57.814 
52.187  11.799  57.814 
52.627  11.772  57.225 
53.094  12.203  56.624 
54.034  11.078  58.408 
59.919  10.134  55.437 
62.521  10.471  53.747 
53.550  11.418  59.904 
56.384  10.772  57.039 
59.072  10.683  60.730 
59.156  10.282  54.265 
69.114  11.954  49.787 
66.619  10.718  52.303 
65.865  12.145  47.579 
60.437  10.382  54.718 
68.227  11.205  53.126 
66.210  11.358  54.850 
67.841  11.047  54.508 
67.514  11.374  54.703 
70.616  11.704  52.698 
69.640  12.343  57.568 
69.140  11.244  52.073 
70.726  11.325  54.802 
71.984  11.693  55.698 
70.602  11.479  56.555 
75.191  12.407  57.052 
76.395  13.041  58.112 
72.037  13.974  47.070 
76.876  13.535  57.510 
76.286  13.889  51.847 
75.355  13.400  53.244 
77.573  14.482  51.731 
73.136  14.721  44.715 
78.389  15.431  52.222 
78.307  14.831  53.761 
74.892  13.082  53.567 
78.699  15.549  53.899 
79.617  15.371  53.929 
80.077  15.695  54.496 
81.221  16.187  53.589 
82.192  17.041  54.110 
81.781  16.944  54.860 
82.998  18.059  55.290 
84.424  19.242  55.171 
85.083  19.754  54.541 
85.720  19.232  53.467 
85.464  18.874  55.837 
87.054  21.017  53.101 
87.891  21.136  52.897 
88.261  21.520  53.565 
89.438  22.020  54.318 
90.138  23.429  55.240 
90.083  22.612  53.087 
91.500  23.748  54.987 
91.191  23.811  55.556 
89.840  22.517  55.059 
91.893  23.787  54.237 
92.272  24.749  56.099 
96.890  28.541  52.922 
93.949  25.630  52.085 
95.833  26.943  54.198 
94.568  25.951  57.133 
95.220  28.619  47.822 
94.989  27.095  50.329 
94.113  25.773  54.615 
96.101  27.596  51.653 
100.169  31.256  56.176 
94.892  26.561  50.836 
100.006  31.059  54.495 
96.292  27.772  54.429 
98.136  32.007  47.106 
100.027  30.297  56.356 
98.182  28.961  55.358 
102.873  36.833  53.883 
100.798  33.008  53.651 
101.891  36.044  53.273 
101.179  34.484  51.723 
101.642  35.790  51.184 
101.996  36.229  53.917 
103.676  37.368  55.834 
104.441  38.916  56.308 
103.049  38.424  53.843 
102.006  36.807  52.115 
103.653  38.062  54.911 
105.343  40.899  57.889 
105.801  42.230  55.520 
105.015  42.863  53.211 
104.211  42.762  52.869 
105.773  44.127  56.063 
105.249  46.115  53.393 
105.704  45.699  55.347 
106.149  46.843  56.418 
105.884  46.442  55.952 
106.236  47.185  57.466 
106.552  48.351  56.073 
106.640  49.182  56.077 
106.297  48.765  56.162 
107.422  50.118  57.480 
107.027  50.047  58.137 
106.787  50.465  57.107 
107.426  50.883  56.868 
107.397  51.812  57.202 
107.987  53.342  57.296 
107.697  53.477  56.838 
108.014  54.238  56.797 
108.149  55.564  57.243 
108.421  55.857  57.552 
108.535  57.094  59.286 
107.879  60.975  53.972 
108.505  59.471  51.734 
108.217  60.965  53.080 
