29.648  73.936  23.626 
28.287  71.987  23.668 
27.488  72.808  24.935 
26.857  71.344  24.721 
27.402  70.541  24.470 
26.884  69.765  24.584 
26.225  67.800  24.017 
25.671  67.747  25.548 
24.640  64.721  25.133 
25.369  64.861  24.640 
25.172  65.446  25.138 
24.349  65.177  25.273 
25.740  65.524  24.283 
28.812  63.821  22.536 
26.172  63.365  23.813 
26.377  62.567  23.329 
25.428  60.828  24.402 
26.707  60.191  23.871 
26.938  59.809  23.542 
26.559  59.358  23.312 
26.856  58.250  23.789 
26.015  57.512  23.770 
26.234  56.442  24.049 
26.333  57.148  24.457 
25.866  56.058  25.190 
26.723  54.206  23.857 
27.156  53.959  23.988 
27.682  53.124  23.902 
26.956  52.552  24.527 
28.119  52.619  23.247 
35.507  47.894  18.366 
27.667  51.668  23.276 
27.977  45.439  23.948 
25.191  43.997  27.727 
31.123  50.562  20.088 
27.375  46.742  24.764 
27.364  49.199  23.738 
31.166  45.090  21.691 
29.091  46.449  23.774 
27.985  41.645  25.665 
31.311  43.107  22.503 
37.792  42.432  18.413 
30.875  40.229  24.167 
35.470  42.233  20.869 
31.545  39.711  24.380 
34.598  38.424  22.130 
37.620  40.082  19.559 
36.985  41.804  18.866 
28.203  43.692  25.126 
38.633  39.462  18.964 
39.742  38.176  18.947 
35.839  41.449  19.618 
42.981  44.218  15.250 
36.123  39.282  21.168 
38.785  36.100  20.597 
43.038  37.396  19.033 
41.523  33.793  21.903 
40.157  35.964  19.963 
39.480  37.608  19.573 
43.951  34.560  19.415 
43.651  29.406  23.946 
47.606  29.359  23.155 
43.876  35.027  19.500 
50.254  29.240  22.395 
42.011  37.234  19.050 
46.037  27.738  25.090 
47.885  28.924  23.493 
47.930  28.963  23.005 
44.579  31.249  21.780 
46.863  29.609  22.625 
50.775  29.625  21.570 
52.164  29.589  20.701 
54.386  31.068  20.088 
55.700  31.381  19.713 
52.704  32.318  18.479 
55.689  29.483  20.350 
53.683  28.888  21.362 
55.189  30.024  20.440 
57.477  28.560  21.161 
59.401  28.636  20.899 
58.470  28.440  21.166 
59.744  27.863  21.293 
59.121  27.781  21.776 
59.939  28.562  20.978 
60.230  26.917  22.610 
62.491  25.977  23.850 
62.124  27.285  22.238 
63.137  25.559  23.483 
63.094  32.404  18.382 
64.650  26.362  22.879 
65.983  34.422  17.314 
72.544  28.299  23.291 
63.574  28.940  20.733 
68.240  29.495  21.300 
64.428  24.932  24.116 
75.908  29.400  23.941 
72.801  27.287  24.184 
76.407  27.279  26.151 
75.339  25.292  28.010 
78.643  26.739  27.860 
75.552  28.711  24.554 
66.686  30.734  19.557 
77.458  33.561  21.367 
78.966  31.665  23.837 
77.921  29.466  25.975 
78.481  32.332  22.847 
78.863  32.629  22.368 
77.595  34.412  20.886 
79.245  36.970  19.818 
74.569  31.988  21.159 
80.009  31.720  23.469 
78.000  38.823  19.402 
78.441  36.823  20.017 
81.700  37.647  22.399 
80.318  37.140  20.427 
81.084  37.651  21.261 
81.478  38.364  20.911 
81.925  39.642  20.590 
82.583  40.168  20.854 
83.398  41.203  21.426 
83.390  41.952  21.099 
84.018  42.775  20.789 
83.456  43.156  20.138 
84.653  43.629  20.769 
85.362  44.020  21.206 
85.500  45.546  20.581 
86.443  45.498  21.489 
86.194  45.966  20.948 
86.634  46.350  20.959 
87.494  46.580  21.349 
87.785  47.918  21.110 
88.503  48.449  21.648 
88.770  50.428  20.512 
93.854  52.605  24.313 
92.827  55.647  22.691 
92.459  55.230  21.851 
94.293  53.301  24.108 
91.947  56.969  21.632 
90.786  55.961  20.805 
91.361  52.401  21.872 
85.305  54.696  17.344 
91.308  50.834  22.978 
86.589  55.806  17.751 
89.799  56.642  19.919 
93.286  55.457  22.543 
95.549  58.960  25.458 
93.575  65.234  24.606 
89.839  57.492  19.784 
90.689  64.589  21.226 
87.052  66.250  17.870 
87.944  64.347  18.024 
83.736  65.259  16.233 
89.369  66.083  19.514 
88.145  66.261  18.742 
92.684  65.949  24.077 
83.421  73.775  17.423 
92.104  60.241  21.112 
84.595  70.417  17.454 
87.915  61.471  18.003 
86.754  72.627  19.463 
87.176  76.454  21.557 
89.908  71.096  21.960 
89.342  71.423  21.410 
87.156  71.257  19.647 
85.665  75.657  20.276 
89.281  72.292  22.213 
88.710  77.098  22.265 
82.308  81.329  20.553 
92.069  74.445  25.133 
85.873  80.857  22.394 
83.255  80.600  20.103 
78.887  82.396  19.682 
84.280  78.464  20.471 
88.993  75.494  23.077 
84.551  77.214  19.460 
80.576  84.213  21.870 
80.446  84.726  22.435 
90.515  77.928  24.246 
86.911  85.939  27.178 
88.473  79.870  24.077 
82.198  84.670  22.955 
79.883  83.660  21.443 
77.438  86.946  23.174 
79.477  84.438  21.072 
79.823  85.400  22.852 
79.015  88.131  24.161 
73.262  90.057  22.926 
76.670  88.890  23.608 
74.616  88.770  21.964 
73.313  89.326  22.135 
74.137  88.959  22.018 
75.821  91.159  24.723 
70.876  91.479  22.552 
69.919  90.633  21.754 
70.989  99.588  31.297 
70.716  90.844  22.147 
68.505  93.322  23.663 
66.029  94.252  23.403 
63.468  97.784  26.642 
69.574  92.051  23.416 
62.512  91.903  21.160 
72.979  94.935  26.934 
67.223  93.445  23.472 
65.814  93.202  22.383 
58.559  94.222  22.847 
62.577  96.972  25.840 
61.391  89.193  19.847 
62.521  87.822  18.362 
62.819  92.488  21.781 
58.975  89.119  18.910 
59.965  84.466  16.757 
56.584  96.178  24.450 
50.908  97.796  28.526 
65.263  91.188  21.410 
57.257  91.719  19.916 
52.539  95.550  25.167 
46.164  94.964  27.891 
46.657  93.871  24.668 
55.151  87.812  18.740 
46.492  94.884  25.714 
43.541  90.079  21.883 
56.618  92.133  20.321 
57.295  94.799  23.201 
46.190  89.156  20.803 
51.459  89.177  19.625 
52.383  95.701  24.311 
48.358  92.029  21.637 
47.210  96.699  28.185 
44.510  92.661  23.960 
40.827  89.941  23.131 
47.012  94.052  24.228 
45.392  89.002  20.207 
46.174  92.327  23.485 
40.946  90.651  23.276 
48.905  91.003  20.722 
44.976  90.943  21.776 
40.169  85.942  21.322 
40.331  91.246  25.292 
36.645  86.326  23.126 
36.912  84.004  21.937 
38.034  83.519  21.414 
37.954  85.247  22.225 
33.025  83.165  23.046 
40.566  88.773  22.501 
31.518  83.570  25.688 
36.437  83.856  21.752 
35.322  82.403  21.273 
35.111  79.440  20.602 
30.170  80.417  25.294 
33.885  71.051  17.877 
33.757  80.849  21.969 
33.970  79.343  20.339 
31.049  79.613  22.742 
34.945  75.754  18.455 
31.515  78.345  21.954 
29.900  78.283  25.303 
29.509  76.959  24.943 
36.478  80.701  20.832 
30.003  74.386  22.635 
32.649  76.255  20.807 
28.227  72.809  23.775 
29.309  73.848  23.989 
27.845  72.642  24.136 
27.943  70.678  23.667 
27.332  70.143  23.781 
27.143  68.799  23.399 
28.203  68.928  23.095 
26.162  68.171  24.739 
25.934  67.247  24.875 
26.865  69.262  24.075 
26.650  66.849  24.196 
26.669  65.249  24.331 
28.103  64.602  22.529 
28.752  63.745  21.900 
28.257  63.219  22.230 
26.991  61.797  23.030 
26.146  61.148  23.876 
26.148  60.687  23.934 
27.003  60.154  23.034 
26.331  59.945  23.626 
26.755  57.544  23.380 
26.728  57.034  23.338 
26.754  56.767  23.871 
27.545  54.306  23.488 
25.661  55.842  24.355 
26.088  55.603  24.332 
27.711  53.553  23.691 
29.443  51.763  21.802 
29.396  54.716  21.388 
27.905  49.484  23.111 
27.117  53.085  23.806 
32.001  49.236  20.078 
29.984  47.543  21.977 
29.499  47.164  22.726 
35.155  46.008  18.559 
27.854  48.747  23.743 
28.918  48.134  23.016 
36.241  42.337  19.688 
27.852  46.795  24.208 
33.842  45.552  19.842 
32.520  47.848  20.247 
39.371  35.536  20.444 
35.680  45.243  18.349 
30.442  44.885  22.186 
38.229  42.222  18.296 
37.620  43.954  18.276 
34.400  44.478  19.986 
28.478  41.829  25.775 
27.360  42.148  25.938 
36.749  40.925  19.063 
37.395  36.550  21.275 
39.599  35.947  20.758 
37.645  35.634  21.776 
42.725  34.418  20.371 
36.827  36.452  22.639 
39.954  37.349  19.438 
39.491  38.442  19.987 
41.438  35.890  19.811 
49.109  31.533  20.126 
50.492  38.569  15.742 
41.418  36.737  19.316 
43.232  36.331  19.566 
45.267  32.755  20.399 
50.262  29.016  21.693 
44.951  31.573  21.114 
41.728  34.355  20.775 
45.485  27.552  24.800 
43.640  31.128  21.871 
44.656  33.276  20.353 
46.140  30.227  23.009 
49.648  25.786  25.221 
52.802  31.449  19.021 
50.758  27.762  23.295 
53.638  32.284  18.765 
52.006  28.790  22.337 
57.262  29.488  19.701 
57.022  29.105  20.451 
58.796  28.526  21.491 
56.181  28.918  20.825 
58.506  29.245  20.549 
61.355  27.765  21.747 
58.353  27.450  21.791 
58.174  29.721  20.031 
62.937  28.315  22.221 
61.713  28.357  21.059 
61.637  29.759  20.511 
63.154  29.424  20.125 
62.937  30.265  20.158 
64.450  34.614  16.926 
60.664  30.282  20.161 
65.865  30.640  19.925 
65.187  30.659  20.181 
76.343  26.334  26.518 
69.535  30.217  20.574 
71.745  36.317  17.533 
72.347  37.370  17.703 
70.768  31.663  20.207 
78.603  28.392  26.524 
75.004  30.303  23.162 
65.019  31.770  18.980 
68.710  30.002  20.263 
79.102  33.135  22.057 
74.049  30.576  21.975 
74.573  33.977  20.213 
79.730  33.529  22.451 
80.090  31.924  24.214 
76.845  33.492  21.235 
76.829  32.976  21.305 
77.313  35.281  20.935 
80.397  38.058  20.147 
77.399  32.989  21.833 
81.337  36.161  22.025 
83.145  37.867  21.773 
81.150  37.813  20.720 
82.278  39.383  21.020 
81.636  40.167  21.071 
81.426  41.066  19.983 
83.380  41.215  20.865 
82.578  42.841  20.573 
83.931  41.981  20.878 
83.833  44.543  19.911 
83.993  43.912  20.509 
85.219  44.429  20.943 
84.675  45.086  21.029 
85.498  45.460  21.109 
86.200  46.644  21.161 
86.926  47.098  20.983 
86.875  47.770  20.495 
87.108  48.097  21.410 
88.297  47.554  21.697 
88.500  53.168  19.625 
89.772  48.716  21.856 
88.441  49.346  21.199 
85.178  53.769  16.994 
91.299  54.780  21.192 
89.684  51.288  20.844 
92.884  54.256  22.896 
93.717  56.292  22.998 
92.497  60.181  21.896 
93.549  53.778  23.579 
89.763  62.242  19.751 
94.290  56.515  23.699 
89.990  67.915  21.164 
89.518  58.261  18.868 
96.597  51.242  27.763 
91.121  61.613  20.560 
89.961  66.710  21.774 
90.531  64.673  20.439 
89.925  67.067  21.047 
87.168  70.239  18.922 
87.728  63.630  17.618 
90.227  63.116  20.047 
88.424  70.184  20.641 
89.959  67.177  20.240 
85.621  63.338  16.293 
87.206  64.332  17.644 
85.314  69.827  17.624 
82.531  71.221  16.127 
86.626  69.619  18.874 
87.709  62.836  17.533 
88.750  69.908  20.222 
89.924  76.836  23.500 
89.242  78.640  24.279 
90.272  74.165  23.899 
92.127  77.463  26.626 
84.578  74.327  19.106 
89.215  73.677  21.704 
83.977  75.753  19.137 
85.188  76.245  19.656 
77.586  79.461  17.095 
75.453  79.139  16.080 
79.145  77.040  16.251 
83.086  82.531  22.172 
86.388  78.772  21.982 
92.349  81.980  27.931 
87.487  80.817  23.869 
86.779  80.342  23.147 
87.426  86.572  28.060 
79.370  85.651  22.322 
78.391  86.373  22.614 
77.720  86.982  22.382 
77.316  86.329  21.892 
76.910  87.892  22.675 
76.450  88.102  22.815 
75.873  88.385  22.243 
75.159  88.904  22.537 
74.306  88.323  21.473 
73.095  90.521  22.507 
72.111  90.432  22.592 
70.491  90.260  22.360 
70.452  91.323  22.182 
68.795  92.748  23.599 
66.281  90.360  21.700 
70.102  92.860  23.863 
63.162  88.195  17.780 
66.115  89.601  20.524 
66.911  96.246  26.865 
65.321  87.600  18.906 
67.692  94.566  24.625 
63.473  91.904  21.289 
63.537  90.372  19.857 
55.541  87.478  18.031 
60.544  90.375  19.647 
55.437  94.446  23.168 
58.028  95.066  23.345 
60.943  90.805  20.013 
57.793  87.471  17.774 
64.709  86.401  17.484 
56.068  92.969  22.103 
52.252  94.669  24.163 
53.111  95.466  24.592 
57.391  86.380  17.470 
49.534  87.006  18.471 
55.750  90.995  20.428 
49.534  92.051  21.593 
54.183  93.845  22.566 
52.817  92.307  21.893 
54.345  90.427  20.422 
50.516  90.303  19.997 
44.567  87.168  19.964 
43.665  88.888  21.374 
49.755  90.383  20.180 
42.533  95.190  28.400 
45.845  91.051  22.401 
47.756  90.607  21.275 
55.723  96.443  24.563 
46.049  94.176  25.775 
44.516  87.958  20.177 
45.102  92.041  23.831 
48.621  93.104  23.935 
38.961  88.880  24.127 
43.760  91.922  24.016 
42.065  90.388  23.485 
47.445  91.712  22.572 
41.550  91.129  23.761 
39.371  89.470  23.815 
35.677  86.967  24.136 
37.242  84.757  22.473 
33.673  84.133  23.380 
37.939  84.464  21.820 
36.061  82.105  20.731 
36.730  80.632  20.298 
37.546  86.403  23.085 
33.249  75.926  19.491 
32.553  80.575  21.908 
33.785  81.040  21.310 
31.151  78.221  23.741 
32.020  74.163  19.926 
34.448  80.833  20.910 
35.766  78.163  19.082 
31.690  80.303  22.948 
33.899  75.156  18.623 
31.449  76.363  21.543 
29.645  75.018  23.546 
34.258  78.938  20.451 
31.979  67.794  19.156 
30.719  69.277  20.120 
30.627  75.320  23.708 
28.460  73.440  23.942 
27.588  71.474  23.970 
27.683  70.355  23.374 
27.115  69.670  23.513 
25.792  66.650  24.923 
25.540  66.170  24.250 
27.680  68.700  22.635 
27.556  69.433  23.659 
28.448  69.118  22.142 
28.629  62.892  22.084 
26.522  64.007  23.678 
28.887  62.404  21.311 
27.799  65.401  22.359 
27.189  64.329  22.904 
26.646  63.332  23.180 
27.487  61.262  23.231 
26.992  60.967  23.553 
27.111  58.894  23.358 
27.179  59.056  22.890 
27.983  58.151  22.376 
26.704  56.077  23.343 
27.219  55.772  23.044 
26.701  55.346  23.680 
27.725  55.343  23.714 
28.284  55.352  22.477 
28.853  52.500  22.224 
27.752  55.928  23.053 
27.648  50.899  23.516 
31.166  51.638  20.035 
25.391  48.297  26.040 
29.381  48.122  22.418 
28.733  54.000  22.173 
29.467  43.342  23.710 
29.388  41.100  25.244 
33.748  42.297  20.907 
30.950  46.735  22.032 
32.707  45.207  21.001 
34.579  48.724  18.626 
30.383  37.901  25.813 
29.682  42.794  23.737 
30.923  46.047  22.604 
33.492  45.080  20.586 
32.589  44.239  20.855 
30.349  41.400  23.763 
37.468  39.075  20.540 
39.643  41.282  18.191 
35.221  42.973  19.918 
36.838  36.846  22.352 
38.741  44.408  16.821 
40.432  37.658  19.336 
35.379  37.432  22.478 
33.922  44.768  20.008 
44.701  34.319  19.819 
41.012  34.881  20.688 
40.074  39.454  18.522 
54.646  38.039  15.366 
44.662  39.095  16.974 
49.399  35.454  18.157 
45.404  35.613  18.966 
43.250  40.475  17.541 
48.865  35.109  17.649 
46.157  33.280  19.609 
44.042  33.930  19.807 
42.724  36.537  19.515 
46.335  32.244  20.510 
46.697  29.808  22.179 
43.777  32.520  20.870 
52.599  30.347  20.386 
51.983  29.977  19.669 
52.522  33.499  18.082 
54.301  30.360  20.708 
56.096  30.246  20.078 
56.290  29.273  20.219 
57.107  30.163  19.707 
60.163  30.787  19.580 
57.568  29.274  20.579 
57.507  33.067  17.800 
59.608  29.570  20.229 
60.153  28.459  21.700 
61.161  32.109  18.686 
59.892  27.401  22.045 
61.688  30.943  18.863 
59.603  27.473  22.947 
64.248  32.391  19.321 
67.323  27.819  22.462 
63.077  31.843  19.315 
62.525  32.889  17.662 
65.730  29.848  20.267 
70.529  32.703  19.532 
68.344  27.145  22.761 
71.916  34.432  18.702 
75.313  35.695  19.574 
67.627  30.620  20.462 
66.937  34.402  17.512 
71.773  24.475  27.179 
72.800  27.075  24.695 
69.428  30.944  20.212 
69.928  29.903  20.444 
77.195  30.968  23.017 
79.596  32.723  22.699 
75.978  32.413  21.221 
71.588  33.828  19.231 
78.310  35.215  20.804 
72.478  33.110  19.736 
74.535  33.323  20.009 
78.354  36.422  19.758 
78.260  33.245  21.462 
79.243  35.518  20.859 
79.885  37.704  19.856 
80.656  38.485  20.228 
80.701  36.879  20.981 
80.736  38.670  20.654 
81.513  39.207  20.475 
81.835  40.618  20.506 
82.187  41.544  20.024 
82.817  43.558  19.563 
83.424  43.750  19.861 
82.593  44.720  19.107 
83.834  45.371  19.682 
84.523  44.440  20.598 
84.747  45.536  20.107 
85.097  46.485  20.520 
86.317  46.918  20.486 
86.030  47.861  20.530 
87.443  48.393  20.561 
86.778  48.615  20.609 
88.713  48.842  21.156 
87.553  48.684  21.170 
87.224  49.145  20.461 
88.103  51.980  20.253 
89.320  48.842  21.605 
92.479  53.324  22.281 
93.013  61.810  22.718 
90.579  55.412  21.070 
91.750  58.455  21.448 
95.148  58.477  24.722 
97.390  53.509  28.592 
93.855  55.476  22.931 
90.697  59.376  20.411 
89.494  63.601  19.562 
93.958  55.741  23.686 
89.833  63.283  19.080 
91.647  60.304  21.384 
95.426  61.123  25.556 
90.093  68.860  21.653 
90.941  62.571  20.168 
91.182  65.266  22.390 
88.327  64.102  18.341 
87.340  60.317  17.900 
87.501  61.973  17.434 
86.164  61.308  16.848 
86.585  74.415  20.895 
88.882  71.827  21.555 
84.553  73.301  18.441 
87.773  78.682  22.471 
87.786  70.732  19.815 
86.899  74.159  20.240 
87.417  69.682  19.761 
85.278  77.371  20.676 
86.950  78.992  22.641 
88.102  68.683  19.193 
90.642  74.508  23.502 
85.191  72.646  18.586 
89.298  73.269  22.079 
82.156  76.502  18.004 
80.178  79.004  18.231 
81.719  77.083  18.429 
89.506  77.190  23.661 
88.698  78.681  23.251 
79.783  81.968  20.615 
79.361  78.739  17.728 
81.015  82.488  21.054 
85.231  81.678  23.359 
81.840  83.449  23.171 
86.562  83.883  24.499 
76.968  87.041  22.193 
82.575  84.362  23.023 
77.043  85.718  21.677 
76.195  87.423  22.278 
75.693  87.598  21.756 
73.751  88.737  21.631 
75.168  88.465  21.809 
73.406  89.994  22.203 
71.453  89.795  22.428 
71.444  89.570  21.458 
69.982  89.615  21.128 
69.200  90.288  21.323 
68.611  91.437  21.970 
67.103  90.585  21.387 
68.866  91.093  21.670 
66.673  91.283  21.605 
66.550  92.882  22.408 
63.362  89.542  19.081 
66.033  90.336  20.888 
62.142  91.101  20.679 
64.487  85.314  16.582 
59.551  90.393  19.523 
51.994  91.003  20.575 
58.401  93.494  21.911 
55.835  90.247  19.489 
57.425  89.424  19.056 
59.294  90.937  20.470 
59.586  85.061  17.456 
62.498  89.206  18.867 
56.630  92.392  21.418 
54.766  92.052  20.931 
54.576  96.059  24.837 
58.037  91.611  20.457 
59.086  85.850  17.707 
53.589  92.653  21.859 
49.998  89.533  19.730 
51.732  91.878  21.266 
56.231  87.209  18.488 
54.445  96.887  26.547 
47.682  96.747  28.380 
47.449  94.775  24.757 
55.594  93.515  22.275 
50.384  93.408  23.761 
48.405  90.161  20.876 
46.391  85.671  18.960 
47.397  89.842  20.022 
46.856  89.448  20.087 
47.942  91.916  22.490 
44.547  91.232  22.368 
43.438  93.787  26.551 
39.138  86.953  22.557 
40.949  86.646  21.690 
42.638  87.325  21.441 
41.602  86.352  21.404 
39.547  85.468  21.252 
38.216  87.185  23.525 
35.824  84.297  22.275 
32.910  86.520  25.153 
30.745  82.685  25.962 
36.764  85.306  22.906 
39.182  87.932  23.176 
35.341  83.245  21.825 
31.575  79.359  22.195 
32.865  72.348  19.792 
35.255  79.074  19.812 
31.076  76.958  22.881 
38.904  73.771  16.542 
32.774  76.380  20.026 
29.680  80.382  25.555 
29.881  76.423  23.656 
32.062  73.482  20.299 
29.870  70.872  21.441 
29.134  74.653  24.167 
31.113  74.200  21.135 
29.970  72.585  22.236 
29.090  72.751  23.642 
28.815  73.344  23.451 
29.369  72.972  22.850 
28.789  71.598  22.689 
28.238  70.198  22.899 
26.995  68.413  23.695 
28.838  70.790  23.155 
33.279  68.489  18.261 
25.232  66.217  24.815 
27.095  67.759  23.426 
26.192  65.171  24.199 
29.592  65.300  20.647 
27.655  63.749  22.929 
26.532  64.169  23.174 
27.938  64.036  22.425 
27.539  61.879  22.629 
26.997  62.455  23.543 
27.529  61.066  22.756 
27.601  60.417  22.363 
27.717  59.796  22.890 
27.845  58.342  23.158 
27.061  58.293  23.217 
27.250  57.746  23.210 
27.702  56.737  22.665 
27.253  56.276  23.777 
28.273  57.022  22.190 
30.114  54.363  21.015 
28.128  52.610  22.737 
25.432  50.100  26.777 
26.101  50.614  26.178 
31.370  47.299  20.792 
31.259  48.991  20.992 
26.501  44.942  25.907 
32.120  48.690  20.421 
25.463  51.761  26.032 
30.739  47.417  21.626 
27.370  41.405  27.065 
33.773  46.416  19.709 
35.949  38.273  21.299 
33.031  49.901  19.057 
28.749  45.158  23.697 
34.961  39.886  21.022 
33.638  40.557  22.138 
36.067  45.949  18.517 
31.347  44.176  21.638 
39.014  41.405  18.863 
46.038  41.980  15.589 
35.338  38.802  21.260 
35.985  41.101  20.178 
40.662  40.541  17.865 
42.828  33.598  20.706 
50.106  39.436  15.923 
39.062  39.212  19.070 
46.206  40.526  15.904 
40.426  34.968  21.077 
42.303  40.581  17.616 
49.558  30.764  19.894 
50.825  38.914  15.536 
48.577  36.330  17.304 
47.889  39.262  16.386 
42.611  37.732  19.028 
44.463  36.286  19.008 
48.309  37.535  17.176 
47.990  32.174  19.942 
53.063  37.900  15.807 
46.358  31.338  21.405 
50.145  30.425  20.253 
48.404  30.279  21.941 
50.006  34.616  17.865 
53.890  30.197  19.995 
47.247  30.970  21.783 
54.006  29.706  20.698 
56.709  31.003  19.626 
57.225  30.802  20.023 
56.406  31.483  18.876 
57.058  30.863  19.128 
57.806  30.220  20.322 
58.053  29.399  20.776 
59.030  30.844  19.316 
61.345  34.886  16.439 
59.507  30.141  20.080 
60.538  29.738  19.986 
63.385  30.936  19.402 
61.384  28.703  21.102 
65.980  28.997  20.791 
62.259  29.203  20.148 
67.172  37.510  15.144 
72.829  31.340  21.143 
74.014  37.273  18.064 
69.798  32.330  19.270 
68.912  31.748  19.426 
68.815  28.943  21.110 
69.278  28.729  21.524 
67.835  33.760  18.229 
72.420  30.686  20.696 
71.601  32.477  19.718 
75.790  31.468  21.416 
68.717  31.142  19.808 
67.777  31.951  19.617 
75.783  35.476  19.582 
73.189  32.255  20.334 
73.935  32.328  20.203 
76.532  34.506  20.339 
75.718  31.245  21.847 
73.802  33.572  19.756 
72.062  29.922  21.945 
77.738  37.994  18.867 
77.901  39.467  18.401 
77.946  38.817  18.701 
79.968  39.502  19.697 
80.091  37.879  20.803 
81.055  40.151  20.482 
80.618  41.035  20.347 
81.176  41.749  20.385 
81.009  42.023  19.539 
81.964  41.505  20.613 
83.539  45.694  19.355 
83.256  44.732  19.447 
84.118  46.300  19.635 
84.205  44.780  20.346 
84.306  46.266  20.048 
85.283  47.415  20.369 
86.089  47.156  20.041 
86.433  48.627  20.216 
86.387  48.129  19.964 
86.896  49.120  20.016 
87.768  49.677  20.552 
88.936  51.443  20.517 
87.566  51.002  19.470 
91.026  58.678  21.010 
89.783  52.135  20.545 
90.619  49.230  22.043 
86.405  53.293  18.752 
86.100  56.354  17.118 
92.271  64.150  22.917 
91.740  61.162  21.008 
89.761  62.618  19.449 
90.300  59.492  19.982 
88.935  59.066  18.512 
89.772  60.532  19.178 
81.358  62.462  13.720 
81.420  59.630  14.431 
86.094  60.587  17.018 
85.750  59.410  16.678 
90.717  60.729  20.269 
86.494  67.236  17.489 
83.589  62.220  15.120 
86.769  57.286  17.649 
82.121  63.242  13.842 
87.470  69.455  19.141 
84.814  62.157  16.072 
88.037  68.230  18.577 
88.136  67.172  18.682 
82.737  73.512  17.371 
90.908  65.823  21.697 
81.441  77.114  17.979 
86.156  72.398  19.522 
86.666  76.989  21.394 
84.901  70.905  17.635 
89.168  76.537  22.935 
84.445  76.537  19.425 
90.795  76.348  24.175 
81.499  81.214  20.685 
79.898  71.499  15.708 
83.220  80.497  20.693 
85.250  77.882  20.497 
84.575  83.449  23.312 
89.374  81.832  25.433 
85.396  82.442  23.335 
84.405  77.770  19.839 
76.206  78.752  16.174 
80.259  81.462  19.877 
82.506  80.571  19.553 
78.111  85.942  22.358 
81.864  85.849  24.004 
77.910  85.542  21.563 
75.487  87.198  21.929 
77.859  86.374  21.705 
75.160  88.144  22.150 
74.044  87.944  21.373 
72.643  88.990  21.001 
71.978  89.504  21.763 
71.897  88.961  21.726 
69.875  89.292  20.667 
69.332  89.345  20.610 
69.165  89.299  21.340 
67.787  90.230  21.112 
67.151  89.086  19.826 
69.548  91.170  22.226 
68.648  89.779  20.693 
66.278  88.506  19.428 
60.414  88.884  19.432 
61.794  88.677  18.983 
64.993  92.051  21.065 
63.954  98.125  27.181 
59.587  91.801  20.853 
58.984  92.287  21.035 
58.705  88.653  19.033 
59.415  92.818  21.619 
55.150  96.756  25.534 
56.049  91.787  20.888 
60.125  91.000  20.039 
51.333  93.220  23.134 
52.770  94.546  23.378 
54.624  99.083  28.457 
54.895  97.259  26.347 
54.377  88.071  18.665 
54.307  92.307  21.517 
47.193  87.814  18.950 
56.167  88.543  18.675 
51.497  94.595  24.056 
56.466  91.370  19.817 
43.309  89.468  21.516 
52.015  94.145  23.473 
46.176  87.119  19.010 
45.855  88.339  19.946 
51.382  90.454  20.762 
48.911  88.035  18.615 
45.310  93.125  24.340 
43.792  86.699  20.354 
42.141  87.990  21.475 
44.143  89.845  21.592 
46.208  88.903  19.770 
44.216  90.590  22.137 
41.760  87.170  21.507 
42.337  86.170  21.540 
40.619  85.983  21.509 
40.757  85.536  20.825 
33.857  86.392  24.528 
38.543  85.429  22.052 
39.492  85.469  22.017 
34.050  84.917  23.385 
34.700  81.241  21.014 
37.247  77.232  18.176 
35.379  75.999  18.950 
32.695  83.645  23.771 
35.086  85.791  23.599 
34.127  76.363  19.621 
35.867  74.862  17.790 
33.606  79.246  21.397 
33.734  82.745  22.645 
31.215  77.378  22.185 
32.871  77.192  20.464 
30.564  73.853  22.088 
32.517  71.339  18.870 
29.190  69.597  21.550 
30.962  72.530  21.027 
30.028  68.166  21.502 
28.208  66.099  22.242 
28.923  70.794  22.507 
28.423  71.085  22.942 
28.577  71.532  23.664 
30.620  67.354  20.089 
30.416  70.419  20.937 
27.711  69.669  22.928 
26.742  67.867  24.275 
27.621  65.448  23.455 
26.498  64.922  23.403 
27.460  63.729  22.462 
28.114  62.257  22.234 
29.159  62.368  22.060 
30.793  60.849  20.208 
28.413  62.401  21.858 
26.962  62.459  22.814 
28.252  61.505  22.782 
28.011  60.629  22.242 
27.703  59.364  22.399 
28.421  57.953  22.084 
28.206  59.013  22.606 
28.983  57.440  22.535 
29.783  56.301  21.369 
28.131  56.265  22.116 
32.510  53.927  19.312 
28.387  54.094  23.855 
29.399  55.305  21.685 
26.471  52.435  24.717 
30.478  49.240  22.057 
29.590  55.543  21.215 
27.401  52.222  23.670 
31.610  47.629  21.381 
27.859  48.304  23.516 
32.222  46.689  20.548 
30.136  46.492  22.412 
33.749  47.770  19.812 
37.105  45.668  17.830 
29.492  49.631  21.786 
27.448  41.308  26.183 
29.260  44.521  24.263 
35.398  47.514  18.741 
33.686  46.339  20.199 
32.309  43.273  21.354 
33.108  44.279  20.676 
40.547  38.185  18.581 
35.044  40.523  21.057 
41.848  39.660  17.891 
36.806  37.972  20.815 
36.617  41.109  19.488 
41.604  41.390  17.792 
42.347  43.288  16.220 
40.138  38.635  18.401 
47.000  38.689  16.299 
47.822  36.360  17.794 
50.928  34.268  17.687 
47.855  37.597  16.963 
46.405  24.676  27.648 
46.549  35.937  17.966 
45.712  36.049  18.158 
49.460  34.492  18.586 
53.136  39.725  14.674 
48.691  28.059  23.395 
43.084  30.488  23.530 
42.739  34.987  20.575 
45.526  36.945  17.876 
50.393  31.469  19.141 
44.818  37.635  17.527 
54.041  32.028  19.403 
56.476  30.362  20.354 
56.027  32.047  18.397 
53.541  31.403  19.503 
55.200  34.717  16.883 
56.539  33.930  16.852 
57.300  35.187  16.240 
58.943  31.980  18.948 
56.801  33.497  17.862 
57.952  31.721  19.262 
59.485  31.072  19.173 
58.830  32.632  18.080 
61.101  31.246  18.925 
60.251  30.122  19.807 
60.753  27.533  22.351 
61.996  28.970  20.561 
69.081  28.169  22.978 
64.767  29.161  20.999 
67.745  34.851  18.158 
70.502  33.529  18.930 
60.122  34.456  17.002 
68.759  34.532  18.135 
74.677  36.737  18.153 
69.605  33.929  18.533 
67.941  35.069  17.608 
70.762  35.353  18.919 
65.982  32.625  18.514 
70.327  36.335  17.439 
76.137  32.750  20.862 
70.867  34.177  18.767 
72.674  33.428  19.216 
71.500  31.647  19.885 
72.372  34.531  18.272 
74.371  31.515  21.094 
75.633  33.169  20.628 
76.911  34.300  20.656 
79.481  38.155  19.357 
77.262  38.152  18.815 
76.434  39.061  17.898 
79.037  39.406  19.753 
79.698  38.608  19.732 
80.346  40.302  19.591 
80.333  41.571  18.800 
80.449  41.042  19.407 
81.216  42.017  19.048 
81.862  42.786  19.272 
81.965  42.215  19.872 
83.412  46.435  19.179 
85.041  46.493  20.009 
84.232  45.443  20.201 
84.707  47.177  19.178 
85.601  46.583  20.066 
85.655  47.594  19.670 
85.721  48.431  19.581 
85.921  48.821  19.462 
87.248  50.284  20.656 
89.427  53.870  20.579 
90.195  50.732  21.424 
92.032  51.896  22.355 
89.025  49.744  20.895 
85.192  58.090  16.198 
90.471  59.044  19.331 
93.863  54.156  23.716 
92.625  52.094  23.500 
84.839  56.750  16.766 
93.740  57.543  23.804 
94.170  60.802  24.256 
90.059  59.324  19.562 
82.156  64.455  14.692 
90.871  60.972  21.190 
91.494  63.217  21.687 
85.307  58.714  16.998 
85.805  61.400  16.464 
91.380  66.302  22.636 
83.540  60.391  15.310 
84.372  63.069  15.844 
88.740  59.539  19.349 
86.085  71.618  18.906 
76.810  64.912  13.092 
85.383  60.203  16.442 
82.837  64.129  14.525 
87.823  71.355  20.304 
87.255  71.063  20.135 
87.572  73.089  20.334 
86.568  74.526  20.052 
88.976  75.487  22.208 
87.215  72.019  20.238 
75.594  77.022  15.516 
85.738  76.645  20.394 
87.451  78.177  22.031 
81.110  74.414  16.945 
82.664  74.043  17.967 
82.343  70.278  16.546 
79.269  78.676  18.234 
85.430  79.554  20.903 
76.431  81.331  18.700 
81.391  81.441  20.243 
78.683  75.474  15.819 
81.284  85.001  22.876 
80.499  80.658  18.893 
81.019  81.888  20.373 
79.778  81.309  19.261 
76.516  84.246  20.764 
77.843  85.142  21.090 
76.632  86.333  21.754 
76.213  86.724  22.411 
76.112  86.977  21.602 
76.273  86.094  21.343 
72.902  88.801  21.491 
73.034  88.753  21.935 
72.111  89.192  20.928 
71.521  88.710  20.785 
71.011  89.227  21.326 
70.155  88.717  20.990 
69.273  88.547  20.796 
68.921  88.807  20.211 
68.516  90.351  21.316 
68.146  89.258  20.227 
67.258  86.268  18.268 
66.574  87.797  18.960 
64.345  87.063  18.020 
65.584  86.450  17.567 
65.892  87.958  19.489 
61.565  93.513  22.546 
57.708  90.297  19.154 
63.794  88.638  18.351 
56.687  90.615  19.357 
61.178  89.652  19.919 
60.380  91.460  20.526 
66.513  93.770  23.828 
53.657  87.123  17.811 
59.062  93.751  21.968 
48.037  89.414  20.221 
44.482  89.099  20.820 
51.922  96.078  25.647 
59.003  86.829  18.100 
56.820  86.614  17.789 
45.204  87.656  19.648 
54.763  93.666  21.960 
48.780  86.777  18.400 
50.111  92.258  22.133 
44.480  89.764  21.158 
52.861  92.693  22.327 
50.685  94.116  23.809 
54.896  92.561  22.126 
48.293  94.228  24.403 
49.701  91.118  21.501 
43.838  89.472  21.348 
45.438  85.594  18.716 
48.458  88.749  19.353 
45.499  87.069  19.768 
42.156  86.731  20.940 
41.084  87.103  21.764 
42.663  85.781  20.706 
41.744  85.966  21.056 
41.487  85.438  20.458 
40.049  84.774  20.812 
39.201  84.512  21.273 
39.235  84.628  21.769 
38.399  84.799  21.603 
34.550  81.933  21.298 
33.949  80.162  21.695 
35.451  86.487  23.695 
33.439  72.906  19.366 
31.837  81.702  23.415 
31.781  77.118  21.150 
35.980  73.935  17.671 
33.044  78.182  20.974 
30.659  77.977  24.430 
31.319  73.477  20.761 
30.682  70.214  20.117 
30.692  78.379  23.604 
30.441  76.400  23.167 
31.623  72.690  20.502 
32.005  77.939  21.337 
29.657  72.494  23.388 
29.686  69.585  21.754 
29.743  65.404  21.129 
27.990  69.367  22.511 
29.201  71.425  22.417 
28.849  70.477  22.099 
28.824  69.623  22.016 
27.225  67.982  22.918 
30.135  71.425  22.026 
26.676  67.490  23.588 
26.626  65.645  23.555 
32.461  66.268  18.718 
27.243  66.239  23.307 
29.286  63.661  21.162 
34.389  56.846  16.760 
30.085  61.243  20.396 
29.148  61.504  21.549 
28.307  61.447  21.946 
28.321  59.435  21.770 
28.399  59.950  21.837 
28.918  58.378  22.390 
28.835  57.485  21.596 
28.056  57.498  22.788 
28.559  55.794  22.296 
27.311  56.735  23.191 
29.085  56.714  21.555 
32.313  54.520  19.212 
27.936  55.154  23.264 
30.591  48.700  21.390 
32.629  56.456  18.669 
30.856  43.444  23.387 
27.791  42.533  25.958 
30.559  48.239  21.288 
29.501  46.532  22.996 
28.508  48.957  23.235 
33.081  46.708  20.017 
29.607  43.941  23.320 
32.044  50.059  19.861 
29.906  45.247  22.604 
34.291  47.112  19.013 
35.966  40.212  20.069 
31.688  46.014  20.743 
50.461  39.589  15.491 
33.927  44.887  20.481 
31.360  44.838  22.087 
42.360  42.853  16.481 
39.678  36.849  19.756 
35.375  42.496  19.786 
38.936  35.455  21.132 
41.803  34.676  20.416 
40.026  42.062  17.232 
38.835  41.571  17.982 
39.213  41.966  17.351 
44.650  44.390  14.985 
44.152  39.767  17.127 
40.799  36.190  19.636 
42.058  36.616  19.139 
49.309  38.989  15.991 
52.163  33.053  18.813 
51.003  37.526  15.829 
48.965  38.558  16.592 
47.984  33.465  19.516 
44.311  30.339  22.695 
46.553  32.774  19.894 
45.533  34.226  19.643 
45.112  30.757  21.662 
50.429  30.462  21.071 
52.313  31.041  20.263 
53.828  30.682  19.859 
56.091  31.857  18.943 
56.238  35.066  16.211 
56.667  32.617  17.949 
54.326  31.758  18.951 
57.468  32.771  18.513 
57.318  33.672  17.374 
58.109  30.866  19.208 
58.669  30.105  20.208 
57.684  31.942  18.445 
62.753  31.931  18.494 
62.715  34.383  16.985 
61.706  31.397  19.135 
61.266  30.454  19.717 
65.084  31.083  19.420 
65.612  29.420  20.570 
69.103  27.117  22.916 
62.384  32.354  18.427 
61.909  33.109  18.003 
75.324  36.442  18.717 
65.746  32.051  19.707 
71.240  36.446  17.681 
72.661  30.009  21.479 
68.755  39.141  15.539 
68.458  33.792  18.907 
75.432  33.023  21.119 
67.516  33.098  18.686 
67.330  31.298  20.059 
72.359  34.163  18.946 
72.723  35.062  18.257 
71.183  30.917  20.329 
78.849  33.846  21.393 
74.949  34.281  19.370 
72.320  35.878  17.944 
77.238  39.086  18.839 
74.870  33.269  20.553 
76.446  38.592  18.596 
77.481  40.482  18.398 
78.285  38.276  19.458 
79.475  40.649  19.086 
80.670  39.675  19.950 
79.451  41.156  19.080 
80.467  42.561  18.724 
81.424  42.138  19.978 
82.365  43.698  19.798 
82.904  42.964  19.827 
82.309  44.507  19.709 
84.074  46.423  19.147 
84.213  47.234  19.766 
83.393  47.572  18.562 
85.146  47.383  19.766 
84.963  48.802  19.553 
85.859  50.222  18.711 
89.656  58.448  19.426 
87.956  57.521  18.299 
86.857  51.721  19.654 
88.302  49.749  20.498 
91.208  56.707  21.327 
89.060  54.200  19.809 
85.219  50.687  18.246 
83.964  57.267  15.877 
84.820  54.219  17.021 
90.259  55.813  21.239 
89.256  54.757  20.644 
90.256  54.189  20.913 
88.634  62.847  18.443 
90.658  57.694  20.801 
92.755  62.537  22.566 
93.892  60.275  24.273 
85.527  62.413  16.356 
93.233  59.058  22.566 
84.619  59.532  16.180 
83.042  62.825  15.020 
80.718  61.274  13.983 
79.098  67.944  14.493 
86.899  62.047  17.694 
87.510  65.647  18.357 
84.591  65.634  16.624 
81.698  65.825  14.750 
82.319  67.798  16.186 
87.881  72.050  20.701 
89.758  72.898  22.827 
83.975  74.964  18.715 
84.521  69.660  17.106 
87.337  73.995  20.584 
82.499  80.624  20.122 
86.417  70.134  18.402 
85.247  80.334  22.166 
80.496  72.925  15.727 
83.256  78.032  18.519 
83.414  81.114  20.940 
74.954  77.450  14.833 
87.196  81.170  24.093 
83.032  78.963  18.666 
88.913  80.601  24.705 
82.645  78.177  18.757 
87.866  79.250  22.777 
79.803  81.269  20.058 
78.352  80.089  17.608 
78.735  83.983  20.969 
79.326  84.852  21.730 
77.297  85.793  22.152 
75.263  86.955  21.185 
74.446  86.994  20.922 
74.210  87.903  20.816 
75.029  87.442  20.918 
72.868  88.032  20.414 
72.414  87.826  20.078 
70.747  88.367  20.430 
70.691  89.350  20.962 
70.459  87.950  20.593 
70.144  88.894  20.421 
69.442  88.343  19.817 
68.374  88.339  20.483 
68.049  89.631  20.872 
67.541  88.753  20.080 
68.401  86.353  18.711 
67.167  87.563  18.859 
65.402  90.672  20.931 
65.918  93.964  24.568 
65.394  88.428  19.707 
66.319  93.611  22.942 
65.473  92.727  22.235 
63.941  86.500  17.779 
55.179  91.781  21.575 
54.581  85.691  17.289 
57.591  92.797  21.739 
51.800  83.565  15.984 
55.253  94.335  22.520 
51.247  91.232  20.819 
56.509  87.292  17.827 
55.148  83.452  15.734 
53.321  88.819  18.942 
52.069  92.565  22.391 
51.011  83.589  15.939 
51.711  88.677  19.098 
51.047  92.463  21.431 
50.011  93.287  22.740 
49.535  87.860  18.815 
48.030  88.433  19.182 
55.147  92.656  21.414 
45.365  94.266  25.742 
49.839  86.369  17.476 
45.047  86.817  19.505 
43.674  86.212  19.998 
45.377  86.103  19.494 
45.120  85.878  19.128 
43.447  86.256  20.473 
43.040  86.593  20.765 
42.796  85.423  19.946 
42.223  85.430  20.801 
41.649  84.544  20.608 
40.536  84.792  21.386 
39.440  84.188  20.911 
39.081  85.273  21.450 
37.667  84.003  21.701 
38.247  83.858  22.125 
33.612  83.659  22.619 
37.196  78.843  18.776 
33.214  81.396  21.941 
34.537  78.651  19.661 
29.826  81.303  25.749 
33.666  75.965  19.140 
38.441  75.290  17.489 
34.971  83.269  22.475 
35.339  80.680  20.508 
30.553  74.345  22.229 
30.992  75.140  22.128 
31.404  71.333  20.101 
31.168  75.956  22.145 
31.052  75.768  22.905 
30.048  73.058  22.213 
28.581  66.978  22.447 
31.850  71.319  19.365 
29.497  70.824  21.790 
27.837  67.670  22.706 
29.160  72.179  22.853 
28.048  68.322  22.428 
26.359  66.056  23.794 
27.893  66.066  23.067 
29.693  62.653  20.291 
27.177  62.992  22.989 
32.789  63.127  18.223 
34.106  64.824  17.103 
27.809  63.144  22.544 
30.656  58.360  19.544 
30.228  58.869  20.354 
28.688  61.696  21.683 
28.485  60.923  22.170 
29.014  58.956  21.224 
29.791  58.673  21.069 
31.153  56.697  20.460 
30.699  58.321  20.082 
29.647  57.193  21.299 
31.568  58.516  19.223 
29.056  55.171  22.561 
29.213  54.672  22.408 
31.432  55.744  19.417 
29.424  45.712  23.247 
31.910  54.704  19.634 
24.536  45.696  27.261 
28.832  51.537  22.816 
24.190  50.193  27.251 
34.278  38.468  22.812 
30.660  49.521  21.357 
29.408  51.212  21.789 
32.909  48.902  19.557 
33.594  49.516  18.979 
41.168  48.660  15.516 
37.486  45.033  18.285 
33.038  51.632  18.558 
36.558  45.003  18.855 
35.389  45.271  18.926 
35.762  44.968  19.248 
36.699  46.303  18.334 
33.303  38.762  23.779 
38.300  37.078  20.074 
39.307  48.425  16.771 
36.508  39.519  19.769 
45.842  37.838  16.796 
43.981  41.842  17.233 
40.936  42.206  17.257 
45.305  41.535  15.925 
41.655  42.329  16.889 
42.897  38.822  18.608 
43.501  38.129  19.088 
50.310  38.686  16.360 
49.221  38.050  16.131 
50.610  31.150  19.992 
53.278  41.237  14.221 
48.486  35.704  17.913 
56.646  37.332  14.831 
45.527  31.934  20.562 
49.713  36.331  16.900 
47.772  35.092  18.209 
52.359  28.665  21.766 
52.822  31.048  19.779 
44.529  38.160  17.443 
50.779  30.240  19.664 
53.057  33.080  18.143 
55.361  32.656  17.831 
57.792  35.401  15.560 
55.083  37.435  15.547 
51.393  33.089  18.355 
55.906  33.475  16.954 
58.221  33.511  17.038 
55.863  32.673  17.769 
61.601  32.885  17.646 
58.173  33.255  17.493 
60.444  32.800  18.705 
61.127  36.471  15.821 
63.836  31.652  19.178 
62.689  35.024  16.373 
65.020  36.010  16.082 
69.933  34.350  18.580 
70.505  35.031  18.354 
74.950  31.040  21.719 
66.243  33.707  18.386 
70.776  39.651  14.762 
67.878  38.345  15.455 
77.806  30.860  23.518 
71.512  27.965  23.025 
67.060  28.787  21.026 
73.102  34.066  19.632 
71.295  32.937  18.982 
71.717  30.792  20.197 
72.290  35.073  17.985 
78.119  36.231  20.532 
73.095  31.714  20.380 
71.901  31.963  20.372 
73.284  35.826  18.346 
73.399  35.568  19.054 
77.284  37.210  19.301 
78.364  40.431  18.643 
80.340  38.781  19.801 
80.026  39.912  19.432 
78.301  41.886  17.712 
79.468  40.372  19.681 
79.814  42.191  18.323 
80.291  42.891  18.324 
81.060  42.702  18.886 
81.385  43.503  19.508 
82.961  44.329  19.836 
82.272  45.183  18.512 
83.038  47.182  19.003 
82.838  48.074  18.665 
83.794  48.081  18.802 
84.943  48.051  19.636 
86.231  49.199  19.571 
86.458  49.575  20.338 
84.841  49.257  18.861 
88.802  60.791  19.272 
88.197  55.426  19.124 
90.932  62.798  20.660 
86.792  52.463  18.562 
91.867  56.612  21.328 
86.425  54.372  17.693 
86.565  50.835  19.720 
90.026  64.666  19.729 
92.546  59.648  22.534 
89.448  61.230  19.589 
85.752  52.358  18.636 
90.771  66.119  22.025 
88.690  64.455  18.501 
91.411  64.403  21.892 
90.900  63.810  20.424 
83.684  58.199  15.584 
87.110  58.748  17.272 
80.179  56.122  13.413 
86.670  63.578  17.261 
84.721  66.337  17.183 
88.362  68.975  19.852 
77.483  67.190  13.681 
81.944  66.827  15.262 
84.112  72.579  17.655 
83.587  63.161  15.408 
89.577  66.788  20.129 
85.429  69.592  17.174 
85.522  73.492  18.883 
89.508  80.818  24.972 
86.180  73.301  19.348 
85.061  75.648  19.256 
78.264  81.975  19.361 
85.284  80.588  21.735 
81.390  78.097  18.515 
88.466  75.354  22.124 
80.751  76.810  17.330 
78.947  74.565  16.012 
77.507  74.142  15.418 
86.118  80.548  22.774 
80.519  80.785  19.741 
82.350  81.558  21.354 
80.636  83.558  21.836 
74.830  80.056  16.994 
78.951  83.230  20.418 
76.787  84.168  19.919 
75.815  85.433  20.803 
76.410  85.326  21.126 
75.790  86.771  21.253 
74.962  86.522  20.523 
74.132  86.051  19.874 
73.439  88.359  20.980 
73.358  87.399  20.178 
72.372  88.179  20.740 
72.014  88.554  20.467 
70.214  88.217  19.933 
70.773  87.244  19.961 
70.145  87.869  19.565 
68.747  87.286  19.227 
68.312  87.914  19.488 
66.409  86.066  17.881 
67.185  87.634  19.694 
66.094  87.708  18.969 
66.326  88.701  20.149 
57.317  87.236  17.747 
61.648  86.262  17.188 
59.889  89.704  19.171 
60.679  94.764  22.898 
66.057  87.245  18.384 
64.992  88.920  19.175 
61.434  87.760  18.082 
58.354  87.550  17.804 
55.751  88.631  18.952 
60.322  95.701  24.157 
55.942  97.122  25.500 
51.658  96.937  26.735 
55.063  89.056  19.057 
54.847  91.186  20.618 
47.236  86.134  18.089 
54.363  82.759  15.934 
50.357  87.922  18.944 
49.637  88.541  18.766 
53.262  93.830  22.684 
53.640  96.114  25.257 
50.825  87.290  18.340 
44.334  86.065  19.403 
43.908  87.621  20.838 
44.368  91.227  23.058 
48.676  86.300  17.873 
47.205  84.108  17.141 
44.345  85.100  19.394 
44.306  85.512  19.731 
43.574  85.541  19.637 
42.974  84.803  20.276 
42.118  84.769  20.084 
42.452  84.000  20.012 
41.201  85.084  20.636 
40.182  83.899  20.699 
39.396  83.413  20.370 
38.370  84.238  21.326 
38.810  83.718  20.901 
37.405  81.202  20.134 
36.478  81.390  20.385 
38.161  76.173  17.574 
35.587  73.564  17.931 
34.676  73.222  18.404 
33.475  74.191  19.432 
31.673  74.926  21.337 
37.511  73.843  16.482 
38.743  72.245  16.001 
33.577  78.341  20.224 
36.109  72.055  16.691 
31.652  73.956  20.719 
32.338  79.392  21.223 
36.784  75.933  17.351 
32.827  70.210  18.401 
29.652  72.023  22.036 
29.820  70.020  21.126 
29.294  70.216  22.303 
30.307  67.854  20.571 
27.221  67.136  22.887 
27.798  66.746  22.860 
29.147  64.848  21.563 
28.882  67.445  21.905 
26.418  66.899  23.595 
32.640  59.893  17.820 
31.322  61.725  18.942 
29.656  63.257  21.546 
33.172  58.204  17.357 
33.238  59.078  17.646 
30.411  62.365  19.827 
29.244  59.405  21.292 
29.383  60.455  21.820 
29.057  59.755  21.625 
29.615  57.818  20.813 
29.718  59.076  21.790 
28.943  53.404  22.095 
28.585  56.574  22.208 
30.044  57.036  20.576 
27.836  53.793  23.270 
30.195  55.746  20.649 
29.992  47.006  22.269 
34.420  49.598  18.478 
28.614  49.749  23.399 
32.852  53.121  19.265 
27.146  51.384  23.953 
34.613  48.017  18.815 
35.118  50.897  17.781 
30.949  47.890  21.084 
30.107  41.937  23.371 
43.720  48.409  14.063 
36.680  48.783  17.556 
38.281  45.751  16.816 
36.112  50.565  17.788 
33.558  50.293  18.613 
38.643  37.789  20.432 
42.484  40.120  17.766 
39.518  40.397  18.533 
39.570  45.350  16.661 
37.907  44.078  17.533 
32.234  43.959  21.249 
35.603  43.694  19.194 
34.563  45.254  19.459 
40.560  44.899  16.319 
41.884  44.027  15.802 
50.252  37.941  15.905 
45.510  39.023  17.444 
44.550  42.277  16.543 
47.572  39.787  15.810 
47.108  44.039  14.492 
50.412  32.702  19.034 
47.387  32.456  20.548 
43.123  39.107  18.207 
41.081  47.415  15.443 
55.556  29.910  20.055 
47.285  34.703  18.813 
49.924  29.665  21.431 
43.365  38.449  18.076 
42.921  32.146  22.473 
49.877  31.748  19.812 
53.493  32.814  18.296 
55.032  30.447  20.221 
53.928  34.513  17.059 
52.394  32.290  19.013 
53.352  35.032  16.615 
56.982  32.466  18.344 
58.720  36.764  16.000 
58.253  34.789  16.554 
59.371  30.392  19.636 
56.076  34.354  16.463 
62.290  33.651  17.235 
60.967  33.619  17.494 
65.665  33.426  18.228 
60.064  31.363  18.620 
71.273  34.679  18.641 
63.719  27.845  22.185 
70.777  27.589  23.181 
61.528  30.429  19.227 
67.411  36.674  16.835 
63.382  32.876  17.932 
64.190  33.167  17.845 
66.552  32.191  19.073 
68.021  39.862  14.753 
73.057  35.805  17.894 
75.871  37.481  18.235 
68.349  32.743  18.726 
73.627  37.701  17.324 
70.719  37.349  16.763 
68.930  32.265  19.286 
74.924  33.954  19.755 
75.802  34.660  19.845 
77.101  39.683  18.209 
76.091  39.568  17.279 
75.633  34.199  20.064 
77.471  36.569  19.922 
78.175  39.621  18.879 
75.888  40.305  16.964 
77.206  40.404  17.701 
78.764  39.841  18.937 
77.106  41.527  17.366 
79.725  41.424  18.413 
79.810  42.816  18.695 
80.706  43.598  18.402 
80.950  43.816  18.794 
81.961  43.729  19.098 
82.072  44.444  18.849 
82.963  45.448  19.094 
82.528  45.593  18.867 
82.648  47.424  18.078 
83.982  47.227  18.900 
84.572  47.826  19.240 
85.591  49.504  18.988 
84.439  50.591  18.232 
89.014  50.705  20.895 
87.000  53.608  18.188 
83.101  56.428  15.515 
85.200  51.521  18.477 
82.834  58.056  15.628 
94.872  56.088  24.490 
87.628  52.711  19.066 
87.559  57.099  17.733 
87.770  56.276  17.987 
85.706  54.399  17.497 
90.224  65.241  20.967 
89.755  63.758  20.070 
84.336  63.939  16.086 
81.506  64.019  14.153 
86.718  57.926  17.132 
80.231  58.128  13.850 
82.702  65.809  15.609 
83.348  64.172  16.147 
78.448  64.829  13.357 
85.648  66.710  17.707 
82.412  65.681  15.219 
77.233  67.960  13.306 
88.387  65.350  18.734 
85.774  63.349  17.108 
85.370  72.048  19.077 
82.230  75.651  17.952 
85.234  76.885  19.876 
83.507  81.785  21.037 
85.589  75.462  19.532 
84.794  82.345  22.269 
78.217  75.880  16.373 
82.399  75.261  17.273 
75.201  75.331  14.720 
75.919  81.514  18.345 
83.797  77.179  19.013 
78.948  78.072  17.260 
79.818  79.908  18.260 
84.084  78.525  19.453 
80.621  77.478  17.728 
83.178  79.822  19.953 
77.363  76.655  15.635 
80.418  85.744  23.188 
83.753  80.008  20.653 
76.480  82.338  19.648 
76.114  84.803  20.177 
77.994  84.720  21.745 
75.278  85.695  20.682 
74.695  84.842  19.610 
74.745  85.064  20.500 
74.325  87.286  20.461 
72.941  87.178  20.295 
72.520  87.120  19.680 
72.065  87.335  19.939 
71.531  87.788  20.170 
70.439  87.521  19.324 
69.397  87.585  19.674 
68.743  88.142  19.671 
67.406  89.818  20.378 
67.444  87.185  18.680 
65.962  84.974  16.616 
65.390  85.344  16.761 
63.393  85.356  16.684 
63.336  86.562  17.283 
66.847  90.202  21.046 
64.781  87.438  18.979 
67.172  85.338  16.931 
63.247  87.306  17.930 
64.733  80.372  14.351 
55.263  86.415  17.381 
55.145  90.555  20.011 
53.367  91.572  20.926 
60.828  87.445  17.812 
56.598  85.725  17.053 
54.025  95.056  23.069 
52.877  88.120  18.582 
52.943  82.985  15.689 
54.454  88.843  19.070 
55.114  89.117  19.535 
48.260  87.989  19.294 
52.157  93.222  23.191 
51.226  86.752  17.688 
48.388  91.429  21.767 
51.794  86.078  17.029 
55.387  88.152  18.341 
49.329  90.330  20.513 
45.807  84.494  18.137 
47.022  87.053  18.490 
46.319  86.606  18.707 
45.042  84.672  18.210 
44.517  84.628  19.017 
42.986  84.718  19.396 
42.197  83.559  19.334 
41.451  83.299  19.647 
40.867  84.323  20.671 
40.901  83.885  20.161 
40.157  83.354  20.096 
38.984  83.330  21.123 
37.458  83.126  21.285 
36.513  82.112  20.532 
37.165  81.880  20.369 
34.483  82.280  21.767 
35.394  84.323  22.537 
35.426  81.630  21.015 
32.171  75.682  21.099 
33.939  77.232  20.485 
32.974  73.507  19.908 
34.600  71.637  17.625 
35.631  70.413  16.736 
31.112  76.246  22.530 
31.519  74.212  20.260 
30.975  66.639  20.509 
31.947  79.039  22.103 
31.848  70.475  20.542 
35.193  66.555  16.732 
30.759  63.591  20.020 
29.121  68.826  21.640 
29.854  64.598  20.380 
28.395  68.163  21.998 
27.232  64.911  23.030 
28.626  67.749  22.569 
28.262  64.125  21.894 
32.248  64.353  18.865 
31.077  63.866  19.105 
30.445  60.576  19.923 
29.957  60.448  20.456 
31.186  54.285  20.023 
34.095  58.954  16.770 
31.828  61.515  18.261 
31.595  57.782  18.693 
30.773  60.066  20.796 
29.033  58.223  21.475 
31.049  55.840  20.509 
32.189  55.305  18.876 
31.625  54.001  19.416 
34.259  50.545  18.247 
32.963  46.576  20.979 
30.842  56.248  19.882 
31.417  48.301  20.929 
32.344  50.744  19.607 
30.988  49.974  20.651 
30.027  49.878  21.808 
30.983  53.095  21.154 
28.225  51.607  23.444 
36.301  45.260  18.460 
28.524  49.999  22.874 
31.560  46.512  21.199 
33.847  48.533  19.068 
32.326  49.778  19.447 
33.733  43.389  20.666 
34.616  43.603  19.968 
27.863  46.148  24.201 
