98.537  47.840  87.125 
98.868  48.830  86.494 
99.616  51.020  87.034 
99.320  50.360  86.551 
99.625  51.752  86.586 
99.743  52.740  87.668 
99.642  52.060  88.077 
99.263  53.904  88.325 
100.060  54.980  88.204 
100.057  54.503  88.177 
99.008  55.186  89.665 
100.360  56.492  88.912 
100.855  56.657  87.439 
101.703  56.992  86.373 
100.854  58.544  87.573 
100.076  58.626  88.493 
100.374  60.592  88.337 
101.475  59.601  86.637 
101.221  60.084  87.108 
102.220  62.132  84.593 
100.153  62.302  87.668 
101.149  63.418  86.762 
100.689  63.388  88.657 
103.075  64.434  83.821 
101.195  72.570  85.232 
102.930  64.911  82.997 
102.117  68.807  85.852 
99.945  60.711  89.277 
102.141  67.116  86.142 
98.986  62.436  90.687 
99.726  67.903  89.166 
104.863  62.782  79.681 
99.966  74.639  84.406 
96.092  74.201  91.107 
99.597  68.700  89.723 
98.366  71.555  89.743 
96.890  77.601  87.089 
98.672  72.763  88.665 
92.976  75.849  93.802 
98.301  72.867  89.150 
96.555  79.107  84.903 
97.024  78.510  85.181 
94.704  79.938  88.861 
96.793  78.087  84.994 
97.137  75.985  87.855 
91.475  81.843  90.220 
92.660  83.525  88.227 
92.134  81.588  90.046 
94.189  83.919  85.060 
95.846  79.799  86.609 
90.339  86.732  85.662 
87.941  86.611  88.467 
92.278  84.769  85.295 
91.441  86.476  83.980 
89.587  89.160  84.497 
91.002  87.279  84.868 
89.667  89.342  83.980 
86.617  87.812  89.081 
85.801  87.583  90.267 
86.525  90.867  86.409 
88.833  89.455  84.300 
86.788  91.842  84.473 
87.356  87.704  88.867 
84.421  92.018  87.809 
87.000  88.897  87.797 
83.647  92.514  87.347 
79.472  93.260  90.185 
82.627  89.822  91.971 
80.828  94.725  87.076 
85.250  90.610  87.408 
78.058  96.502  85.646 
81.972  96.658  85.274 
80.974  95.413  86.608 
78.623  92.557  90.687 
80.829  98.685  83.092 
78.454  97.833  84.971 
77.396  93.807  90.348 
74.520  94.197  90.889 
79.126  97.416  85.028 
76.043  96.235  86.738 
72.462  96.598  88.051 
75.758  95.224  88.209 
74.345  97.196  86.512 
71.862  99.018  86.507 
70.198  98.022  87.575 
71.097  98.902  86.720 
69.527  98.522  87.148 
69.910  99.182  87.251 
68.913  99.591  86.929 
67.918  98.974  87.226 
67.693  98.630  87.533 
67.411  99.458  87.735 
66.341  99.347  87.696 
64.542  99.018  87.484 
64.577  99.150  88.097 
64.317  101.159  85.382 
56.963  102.373  84.427 
60.150  100.420  86.743 
58.822  101.175  86.165 
61.360  102.467  84.839 
58.871  99.727  86.761 
57.569  100.623  86.794 
56.100  100.749  86.100 
55.642  98.813  89.528 
59.531  99.076  88.644 
53.902  101.109  85.731 
50.053  100.766  86.406 
52.116  100.313  86.905 
55.580  97.905  89.693 
51.934  98.947  89.653 
55.566  96.267  93.052 
47.208  97.862  89.007 
48.546  103.432  81.489 
50.645  96.712  90.764 
48.534  98.750  89.119 
48.435  100.152  86.997 
45.643  101.633  82.736 
49.822  98.172  90.052 
43.245  101.225  81.677 
44.508  97.844  88.048 
44.576  97.102  88.877 
44.255  96.485  88.451 
45.416  97.724  87.757 
44.522  96.789  88.099 
41.961  94.898  89.047 
43.276  96.855  87.060 
43.497  96.681  87.923 
41.535  94.037  89.438 
34.229  93.789  86.352 
39.152  94.636  88.577 
39.853  95.710  87.076 
38.139  96.547  85.614 
33.546  90.541  89.136 
36.443  93.580  88.201 
34.830  93.448  87.043 
34.396  92.899  88.214 
33.866  92.298  87.931 
35.466  87.749  93.628 
35.716  94.677  86.614 
32.018  88.224  89.217 
30.856  88.423  87.915 
27.776  85.484  86.855 
29.797  85.859  89.148 
31.350  89.479  88.301 
29.004  86.401  87.942 
30.518  83.106  90.645 
29.204  83.163  89.608 
26.669  81.252  89.539 
26.257  81.344  88.827 
29.716  82.161  91.220 
28.210  79.155  91.406 
26.956  79.565  89.845 
21.962  75.586  87.044 
25.492  79.143  88.932 
25.901  80.610  87.934 
23.576  76.457  88.881 
24.314  75.524  89.489 
24.614  76.179  90.178 
21.174  74.159  86.993 
24.568  74.713  90.056 
23.356  73.879  90.085 
23.168  74.297  89.533 
22.894  73.165  89.778 
23.212  72.388  89.502 
21.914  72.875  88.537 
23.048  71.458  90.367 
22.313  70.881  89.327 
22.246  69.144  90.525 
22.585  69.483  90.738 
20.496  66.491  88.949 
22.007  67.782  90.410 
21.757  69.213  89.701 
17.310  65.131  86.513 
20.588  64.748  89.632 
21.337  64.461  89.480 
16.621  62.370  84.753 
20.538  61.462  90.048 
19.608  61.068  89.203 
18.879  61.382  87.958 
18.972  59.876  88.031 
22.039  62.025  91.112 
18.170  60.230  86.441 
21.734  59.998  91.354 
19.053  60.280  88.365 
20.721  55.951  90.306 
21.014  56.479  90.504 
19.588  56.642  88.906 
20.144  55.368  89.335 
20.721  55.112  89.854 
20.361  54.525  89.278 
21.039  53.078  88.953 
20.636  53.516  88.099 
20.233  52.200  88.881 
21.454  49.490  89.741 
22.005  50.282  90.025 
22.878  49.500  90.380 
23.703  41.693  89.432 
19.431  42.988  85.354 
20.614  45.500  87.127 
20.233  49.963  87.679 
25.455  49.348  93.093 
24.019  42.931  90.346 
22.251  42.834  88.518 
25.067  44.620  92.158 
22.772  45.119  89.899 
25.282  47.716  93.111 
26.334  42.071  91.635 
25.597  40.068  89.953 
24.073  38.603  86.932 
26.733  40.615  90.969 
25.362  39.390  88.917 
27.615  38.351  89.528 
28.513  38.267  89.985 
27.951  37.454  89.730 
28.949  36.165  88.911 
30.279  36.028  89.356 
29.971  34.716  89.547 
31.537  33.699  89.431 
31.550  33.180  89.644 
31.743  32.973  88.938 
32.247  32.481  89.730 
31.176  31.666  87.829 
32.563  31.672  88.681 
33.824  29.560  88.974 
32.898  31.098  88.939 
33.661  30.343  89.590 
34.489  29.261  88.452 
34.100  30.091  89.068 
33.248  30.116  89.021 
35.828  28.582  89.694 
35.904  30.180  90.471 
34.359  25.163  85.990 
37.600  21.859  82.681 
39.823  19.895  83.009 
40.391  27.718  92.236 
35.580  25.108  87.327 
33.748  23.187  82.141 
37.366  23.132  85.366 
40.653  24.732  90.387 
37.903  23.520  87.597 
39.355  20.626  84.198 
37.214  23.600  86.957 
40.295  20.469  84.549 
41.445  20.518  85.725 
40.929  19.919  83.990 
43.859  20.659  85.534 
43.125  21.323  87.383 
46.799  20.374  87.765 
46.783  20.482  88.294 
47.839  20.230  87.083 
48.330  19.624  86.780 
57.586  19.097  88.091 
52.748  23.097  92.893 
54.737  20.564  89.238 
50.531  18.732  85.679 
53.248  23.692  93.529 
56.604  19.955  89.253 
54.276  19.084  87.837 
58.373  19.971  89.869 
55.136  18.992  88.385 
60.296  15.326  82.809 
58.278  17.395  86.054 
58.277  21.578  91.036 
61.103  14.115  80.861 
58.648  17.161  85.049 
64.330  18.332  87.736 
66.312  16.841  84.184 
61.260  16.176  84.113 
70.755  19.725  87.785 
66.062  20.073  89.229 
69.162  19.988  87.804 
66.755  19.812  88.597 
65.258  22.265  91.471 
61.780  19.274  89.175 
66.140  15.770  81.760 
65.672  17.909  87.029 
73.774  20.200  86.369 
68.123  15.576  80.568 
60.718  20.353  89.545 
72.102  17.714  84.989 
67.709  15.814  81.396 
62.471  18.051  87.046 
73.530  21.995  88.642 
75.548  21.736  87.956 
74.207  18.801  84.648 
76.948  22.347  88.346 
74.412  19.871  86.733 
74.189  20.941  87.829 
77.245  20.653  86.342 
76.878  24.510  89.855 
85.703  25.215  84.111 
79.310  20.805  83.431 
81.287  24.752  88.511 
82.401  25.745  88.519 
83.576  22.527  82.629 
78.311  23.600  88.726 
84.304  28.120  88.479 
84.963  25.408  85.390 
83.536  26.581  87.265 
85.215  27.599  86.815 
85.568  26.732  86.015 
86.023  27.886  86.332 
87.491  28.234  85.494 
87.489  28.579  85.956 
87.508  29.742  87.201 
88.011  29.642  86.648 
89.816  30.694  85.646 
88.552  30.448  86.731 
88.714  31.815  88.179 
89.266  30.243  85.339 
92.198  34.264  86.837 
92.740  39.047  90.664 
90.381  32.048  86.073 
94.824  32.840  82.751 
91.048  41.260  93.128 
92.895  34.993  87.532 
95.548  40.219  88.204 
89.682  34.956  90.236 
94.226  39.118  89.304 
95.458  37.982  87.513 
94.157  38.495  87.706 
92.407  40.757  91.726 
95.325  44.386  90.002 
95.609  41.430  88.229 
96.011  44.796  88.999 
96.287  42.684  88.660 
95.490  43.892  90.097 
97.077  42.169  86.641 
97.874  46.213  86.940 
97.763  47.681  88.491 
98.815  47.057  86.326 
98.575  47.361  85.833 
98.363  48.437  87.153 
99.663  49.534  87.084 
97.891  49.422  89.211 
99.509  51.024  87.919 
99.669  51.061  86.207 
99.747  54.557  88.567 
99.238  53.478  87.876 
100.096  53.726  87.773 
100.706  54.357  87.701 
100.804  54.715  87.259 
100.992  55.144  87.205 
100.801  55.782  87.683 
102.170  57.391  85.863 
101.730  57.697  85.990 
101.172  57.473  87.688 
102.114  58.328  86.068 
100.546  59.191  88.075 
101.105  58.170  86.259 
101.228  62.274  86.692 
101.720  60.159  85.789 
102.096  63.836  85.473 
105.154  69.307  76.784 
101.174  64.838  86.457 
101.659  61.300  86.179 
102.295  67.405  85.103 
103.153  69.389  83.528 
102.604  63.911  83.804 
100.447  66.782  88.649 
101.900  69.694  86.752 
100.022  72.521  86.823 
102.101  68.184  86.647 
104.861  68.548  80.422 
103.183  70.115  83.214 
101.245  67.571  86.703 
101.002  65.711  86.547 
95.090  76.648  91.819 
97.926  74.977  87.631 
96.781  73.983  90.785 
97.240  70.708  91.404 
99.424  73.633  87.530 
95.795  81.650  84.391 
95.024  76.836  90.572 
97.739  77.005  85.767 
95.896  76.728  89.528 
98.466  74.847  87.619 
96.421  79.060  86.420 
93.169  84.037  85.842 
96.041  77.457  87.674 
94.815  83.461  84.647 
93.159  84.898  85.212 
95.073  81.284  86.661 
92.007  83.882  87.805 
92.258  84.228  85.937 
92.314  85.453  85.106 
88.532  86.536  87.536 
88.918  88.326  85.837 
85.967  90.571  87.612 
85.892  88.762  88.517 
89.564  90.216  83.263 
89.654  85.557  88.044 
86.064  94.130  83.357 
85.718  89.839  88.325 
87.478  90.713  85.498 
85.102  91.702  86.849 
89.790  86.834  86.374 
88.418  88.375  86.926 
83.121  93.631  87.094 
85.063  92.271  86.355 
85.036  91.525  87.665 
79.003  94.482  88.506 
83.112  92.467  89.178 
85.169  93.130  85.414 
81.754  93.507  88.101 
79.204  98.052  84.671 
77.438  94.740  88.718 
81.821  96.188  85.869 
79.867  96.073  86.131 
74.846  95.062  89.109 
76.923  96.154  86.927 
73.682  95.667  89.378 
74.834  97.037  86.977 
76.512  96.843  86.714 
75.661  97.073  86.857 
73.252  97.571  87.666 
73.170  97.985  87.011 
71.709  97.758  86.849 
70.869  97.587  86.956 
69.738  99.327  86.354 
69.392  99.342  86.885 
68.091  99.368  86.928 
68.660  99.053  87.641 
67.859  99.796  87.093 
66.995  99.981  87.307 
65.963  99.461  87.165 
63.289  99.169  86.894 
64.950  100.217  86.786 
65.254  99.642  86.831 
62.211  102.468  84.848 
60.064  99.930  87.560 
56.821  100.767  86.560 
59.097  96.106  92.434 
59.418  100.246  86.839 
59.391  97.809  90.037 
60.158  101.727  85.463 
57.879  99.817  87.769 
59.104  101.679  84.931 
50.278  98.075  90.121 
52.010  96.765  91.241 
54.950  100.341  87.625 
55.952  100.530  86.802 
48.895  100.663  86.562 
54.891  100.062  88.416 
50.277  97.672  89.625 
48.308  102.403  82.435 
48.184  100.806  85.946 
45.353  99.549  85.388 
47.524  100.214  86.603 
48.112  98.524  88.395 
44.681  97.897  87.403 
47.800  99.153  87.680 
46.631  98.566  87.983 
47.909  98.127  88.935 
45.418  98.027  88.205 
44.021  97.411  87.509 
45.852  98.371  88.053 
44.453  98.568  86.803 
41.929  96.381  87.090 
41.105  96.952  86.870 
41.970  95.655  88.892 
39.937  95.059  88.783 
41.076  96.041  87.900 
39.629  92.826  90.799 
38.352  96.074  86.555 
39.016  96.579  86.322 
38.485  94.410  88.176 
38.443  94.640  87.381 
34.214  89.997  90.339 
35.787  89.000  92.460 
36.665  92.165  89.628 
35.446  89.723  90.527 
35.019  92.032  89.023 
30.538  91.492  86.001 
33.878  89.129  89.994 
30.609  88.880  88.195 
29.703  87.189  88.361 
29.820  85.928  88.270 
27.190  80.215  90.301 
32.936  84.601  92.966 
25.885  79.877  88.990 
24.173  83.222  85.849 
26.261  80.763  88.783 
26.214  80.630  89.349 
25.124  77.870  89.268 
26.674  78.318  90.820 
26.170  78.321  89.534 
26.120  79.296  89.662 
25.181  81.292  87.116 
23.566  78.949  87.287 
23.680  75.159  89.228 
24.068  74.480  90.401 
18.553  74.508  83.638 
24.772  73.975  90.592 
23.658  73.430  90.356 
22.721  74.158  89.375 
21.676  71.320  88.847 
21.718  74.337  88.033 
21.931  69.641  90.114 
23.291  72.503  90.325 
21.898  69.921  88.808 
20.867  65.436  90.203 
22.621  67.740  91.442 
19.923  67.753  87.675 
20.817  67.378  89.039 
21.251  67.166  90.359 
22.557  66.111  91.640 
20.508  60.746  89.506 
20.769  65.185  89.353 
20.432  62.669  89.451 
19.010  64.344  87.680 
19.886  61.826  89.230 
18.590  62.141  87.363 
20.407  57.815  89.793 
21.225  59.629  90.549 
21.154  57.840  90.451 
20.999  58.556  90.773 
20.129  58.425  89.435 
19.110  56.394  88.280 
18.194  57.101  87.048 
20.261  56.201  89.169 
19.299  58.907  87.355 
20.616  53.843  88.672 
19.531  55.124  87.921 
20.965  52.530  89.522 
19.512  51.346  87.817 
19.788  53.668  88.302 
20.710  50.314  88.995 
18.998  42.279  82.333 
23.756  45.693  91.649 
19.708  41.157  82.699 
21.979  48.179  90.285 
24.335  44.570  90.751 
20.805  47.117  88.915 
26.642  45.880  94.286 
18.694  47.834  86.630 
18.395  46.426  84.190 
24.678  41.461  89.236 
21.292  47.317  89.859 
22.782  40.968  88.125 
24.715  47.174  92.522 
25.561  33.724  84.718 
26.574  38.943  89.669 
23.973  37.196  86.169 
25.455  36.652  86.666 
27.880  38.081  90.087 
25.190  36.321  85.921 
28.278  36.757  89.265 
27.777  36.979  88.984 
29.006  36.273  89.529 
29.641  35.599  89.738 
29.697  33.724  88.354 
31.138  33.601  88.531 
31.271  32.168  88.620 
32.413  31.895  89.198 
34.758  28.156  88.784 
32.028  31.324  87.958 
31.763  29.057  86.257 
33.030  29.943  88.526 
35.535  29.186  88.796 
33.651  29.151  88.200 
33.789  30.067  88.650 
33.934  27.649  87.356 
36.739  20.319  81.138 
34.375  27.790  88.038 
35.789  24.885  86.018 
39.245  25.738  90.022 
34.397  26.548  86.943 
31.192  25.679  83.040 
38.638  23.237  88.125 
36.938  20.812  79.922 
33.874  22.575  80.582 
38.582  19.182  81.224 
38.060  20.948  83.169 
39.753  20.873  84.102 
39.000  26.913  89.975 
38.344  20.710  82.746 
43.095  20.048  84.732 
42.601  21.348  86.813 
41.908  19.876  84.293 
44.312  20.642  86.229 
46.564  20.621  86.929 
46.110  20.378  87.364 
47.382  20.100  87.084 
48.119  19.110  85.074 
49.003  20.208  87.863 
50.317  19.141  86.514 
49.553  19.350  85.423 
50.264  18.240  84.415 
57.081  20.292  89.390 
49.782  14.418  78.196 
54.629  17.399  85.790 
57.683  15.204  82.399 
57.962  23.897  94.097 
53.408  17.508  85.047 
58.770  20.883  90.303 
54.209  18.565  86.453 
53.718  14.333  80.366 
56.928  16.120  84.340 
65.232  22.416  92.058 
57.534  17.656  86.578 
61.706  15.345  82.740 
66.078  19.330  87.869 
68.184  18.047  86.320 
66.937  19.200  88.286 
68.994  21.830  89.584 
65.880  19.251  88.760 
69.084  20.788  88.816 
70.302  18.435  86.332 
70.856  17.800  84.788 
71.440  17.057  82.838 
72.373  21.543  88.751 
69.499  17.598  85.533 
64.734  16.206  83.953 
64.857  13.974  79.464 
63.167  14.288  78.888 
64.448  16.003  82.016 
80.112  21.511  83.990 
73.716  17.478  83.208 
76.933  23.490  89.431 
81.567  23.885  87.268 
74.809  19.138  84.433 
82.511  21.056  82.989 
78.177  21.040  85.494 
82.012  22.317  83.967 
78.492  22.385  87.370 
84.380  27.610  87.517 
77.916  22.352  87.722 
83.817  24.366  85.126 
82.047  23.036  84.412 
81.163  25.171  89.239 
81.975  23.649  86.760 
84.269  26.423  86.907 
85.905  26.663  85.190 
85.936  27.202  85.764 
86.078  27.810  85.065 
86.812  27.783  85.544 
87.799  28.657  85.193 
87.995  29.133  85.688 
88.546  29.936  85.821 
89.399  31.292  85.889 
89.649  32.835  87.584 
89.846  31.375  86.303 
92.424  31.550  84.246 
91.839  33.996  87.507 
91.715  38.304  90.638 
91.661  33.750  86.646 
92.252  32.042  85.260 
91.599  32.004  86.286 
91.033  35.334  89.446 
94.873  35.218  85.465 
94.153  33.735  85.089 
95.312  35.932  85.705 
94.951  41.072  89.230 
93.827  35.793  87.016 
95.425  42.915  90.249 
94.282  39.921  89.815 
95.999  44.447  88.532 
94.538  40.095  89.114 
93.640  41.476  91.170 
97.839  44.919  86.477 
93.604  40.114  90.338 
96.944  44.217  86.946 
98.539  46.040  86.060 
98.311  46.480  86.271 
99.416  46.355  84.979 
99.020  46.572  85.305 
99.105  48.022  86.328 
99.353  49.423  86.335 
99.882  49.621  86.185 
100.168  50.510  86.463 
100.297  51.580  86.619 
100.286  53.023  86.982 
100.222  53.883  86.843 
100.844  53.757  87.274 
101.096  54.172  86.707 
101.189  55.018  86.759 
100.530  55.828  87.197 
100.540  55.195  88.019 
100.921  55.896  86.742 
101.256  57.042  86.928 
101.269  57.931  87.065 
102.182  57.996  85.236 
101.865  58.041  86.575 
101.319  61.550  86.777 
101.949  60.625  85.911 
101.166  60.901  87.395 
103.501  66.362  81.691 
101.578  62.428  85.262 
101.504  61.968  86.112 
104.048  71.285  80.523 
101.762  64.615  85.316 
102.681  63.897  82.744 
103.124  64.161  83.077 
104.999  68.682  79.497 
106.229  71.283  75.874 
101.796  72.684  83.463 
103.336  69.212  82.817 
103.841  68.563  82.432 
101.720  70.956  85.507 
95.599  75.301  91.746 
94.998  73.196  92.716 
99.741  72.425  87.574 
96.508  70.926  91.898 
97.723  74.463  89.024 
100.775  71.696  86.793 
96.005  74.779  90.602 
94.364  77.332  91.922 
98.202  76.862  84.841 
97.682  74.029  88.183 
100.364  75.224  82.690 
97.878  73.756  89.649 
97.291  77.888  85.022 
95.744  82.158  84.115 
94.370  77.388  90.559 
95.461  81.996  85.005 
92.145  85.126  84.331 
90.283  85.402  88.237 
92.944  83.197  87.480 
91.958  86.214  84.950 
93.007  85.411  84.490 
88.621  86.191  88.439 
89.700  88.270  85.513 
88.148  89.211  84.987 
88.291  87.420  87.436 
88.620  91.728  82.429 
89.523  87.770  85.546 
87.397  91.667  83.717 
88.546  89.118  85.715 
87.934  89.417  86.179 
87.675  92.093  82.758 
84.736  91.313  88.511 
86.125  92.325  84.312 
87.518  89.854  85.511 
82.959  91.869  89.863 
81.576  90.561  92.313 
78.771  95.142  87.766 
80.062  95.127  87.291 
81.976  95.365  85.942 
79.535  98.410  84.025 
80.489  93.336  89.130 
77.523  96.590  86.282 
76.478  95.717  87.811 
76.782  92.694  91.930 
79.229  95.691  87.080 
76.142  94.077  90.848 
76.683  94.428  89.788 
76.702  97.968  85.213 
76.018  97.623  85.571 
72.527  98.042  87.354 
73.872  97.542  87.161 
74.439  98.617  85.763 
73.118  98.503  86.407 
70.899  100.018  85.829 
70.654  99.221  86.700 
69.533  99.918  86.242 
69.596  100.361  85.475 
69.248  99.808  85.853 
67.865  100.437  86.463 
67.386  99.988  86.961 
65.900  100.115  87.190 
65.682  100.719  86.438 
64.629  99.701  87.380 
64.918  101.784  85.351 
61.984  103.304  83.045 
60.512  101.075  86.152 
60.814  99.439  87.569 
60.059  103.876  81.298 
59.604  98.975  87.520 
60.299  100.254  87.216 
62.448  103.190  84.107 
52.918  104.320  81.735 
52.038  101.381  85.772 
52.944  100.926  85.922 
52.009  100.005  88.185 
54.127  105.132  80.495 
50.569  98.415  89.477 
50.902  100.525  88.212 
50.797  99.651  88.253 
54.411  98.264  89.517 
51.099  102.837  84.064 
53.516  97.596  90.787 
49.729  100.470  87.251 
49.523  102.772  81.693 
46.615  102.804  80.408 
47.985  99.715  87.128 
46.586  98.705  87.375 
47.214  98.433  88.517 
46.408  97.421  88.647 
47.262  105.031  78.256 
46.138  99.089  86.183 
44.146  100.695  83.795 
43.990  99.727  84.646 
45.294  98.557  87.375 
42.610  96.915  87.612 
41.453  95.951  88.236 
42.580  96.445  88.313 
41.165  95.333  88.534 
41.490  93.237  90.951 
39.668  94.427  89.147 
39.323  93.455  90.277 
37.935  91.409  91.064 
40.316  95.865  87.973 
32.846  95.474  83.635 
37.199  93.569  88.876 
37.106  94.915  87.104 
34.366  94.132  85.655 
30.814  89.607  87.654 
31.072  90.027  86.709 
31.397  91.203  86.038 
32.164  92.091  86.135 
27.921  90.573  83.642 
30.191  84.311  89.518 
27.373  83.072  87.808 
27.631  82.276  89.288 
26.757  81.899  88.878 
29.128  81.618  90.956 
28.654  82.119  90.390 
22.342  79.493  85.679 
28.093  80.515  90.375 
21.983  79.490  85.224 
26.732  78.909  90.250 
22.937  78.646  85.861 
25.335  78.886  89.314 
27.363  78.989  90.420 
25.601  76.675  89.798 
23.794  75.912  88.742 
25.695  78.144  89.866 
24.021  76.493  89.580 
19.740  76.904  83.716 
23.489  77.559  87.587 
22.394  72.718  88.670 
21.146  71.638  87.696 
22.725  72.535  89.200 
21.239  69.877  88.448 
20.075  72.153  86.284 
21.383  68.854  88.729 
20.227  68.723  87.796 
20.730  68.194  88.410 
21.371  66.382  90.688 
19.373  69.674  86.645 
21.497  68.140  89.292 
21.001  61.217  90.595 
21.772  66.869  90.905 
19.867  62.595  89.471 
18.664  65.768  87.069 
20.509  64.109  89.909 
20.639  57.302  90.415 
20.528  59.324  89.745 
21.347  59.515  91.055 
19.210  62.804  87.371 
20.819  57.332  89.899 
18.117  62.485  86.874 
19.412  57.416  88.386 
20.022  59.334  89.479 
19.713  58.914  89.034 
20.453  57.133  89.483 
19.816  56.526  88.318 
19.979  53.207  87.520 
20.066  52.952  88.291 
18.640  57.026  87.692 
20.125  50.485  88.414 
22.327  49.429  90.498 
19.911  46.717  86.827 
23.672  43.487  89.378 
21.370  44.482  88.376 
20.751  48.039  89.248 
24.042  45.042  91.143 
16.172  50.673  83.105 
25.687  45.361  92.463 
21.725  44.002  88.825 
24.118  43.618  90.357 
20.658  44.344  87.459 
24.135  39.828  88.236 
19.544  44.757  85.489 
20.196  42.116  85.347 
21.568  34.986  81.005 
26.016  30.983  81.329 
25.029  41.101  90.035 
27.143  38.624  90.068 
26.063  38.183  88.080 
21.714  35.907  82.301 
26.871  38.016  89.483 
27.001  37.397  89.266 
26.731  37.473  88.473 
29.606  35.912  88.852 
29.438  35.191  88.820 
29.435  34.969  89.282 
30.383  34.190  88.885 
30.357  33.684  88.779 
31.774  30.456  86.750 
32.603  30.155  87.969 
31.135  30.490  87.137 
32.574  29.643  87.810 
34.030  23.032  82.803 
31.501  28.108  85.348 
33.658  25.334  85.745 
31.724  24.304  82.167 
33.184  27.690  87.051 
34.366  28.496  88.370 
33.635  26.963  86.907 
36.603  28.827  90.249 
35.855  23.982  86.039 
37.566  25.412  88.246 
31.516  23.731  79.917 
33.816  24.214  84.017 
32.927  29.174  87.440 
37.217  21.234  82.671 
38.946  18.217  77.372 
38.161  20.101  81.069 
37.317  22.668  83.754 
40.460  24.150  89.602 
36.888  23.410  85.536 
39.927  21.121  84.939 
40.992  19.928  83.141 
42.728  20.772  85.022 
43.968  19.880  85.885 
45.077  20.564  86.441 
46.984  19.810  86.247 
47.644  20.260  87.875 
47.302  19.416  86.145 
47.679  19.232  85.830 
49.512  18.771  85.483 
49.888  21.729  89.454 
49.524  19.433  86.362 
51.144  19.115  87.048 
51.459  18.187  85.158 
53.950  19.937  89.330 
57.055  15.893  83.931 
55.033  15.648  83.259 
58.256  15.673  82.624 
54.328  13.808  79.750 
56.944  18.670  87.487 
63.398  16.191  85.184 
55.851  17.756  86.572 
59.382  20.291  89.987 
68.343  19.138  87.478 
59.274  17.143  86.459 
61.504  14.781  81.546 
61.948  17.538  86.410 
61.256  16.719  85.194 
60.416  15.193  81.309 
68.668  16.868  84.544 
60.216  20.943  89.915 
66.228  13.826  78.235 
64.922  21.204  90.412 
73.089  18.273  85.381 
72.944  18.790  86.097 
73.097  18.657  84.686 
62.292  14.008  78.968 
64.920  15.339  81.783 
73.566  16.714  81.352 
68.545  17.443  85.296 
67.325  15.205  80.841 
69.048  16.095  82.465 
72.301  17.138  82.939 
71.191  16.165  81.817 
74.293  19.286  85.442 
75.000  20.722  87.461 
83.296  21.461  81.235 
80.891  19.907  80.922 
80.780  21.958  85.359 
76.125  23.376  89.388 
83.576  24.628  85.811 
80.703  21.346  83.531 
74.143  20.400  87.351 
84.063  26.818  87.772 
84.795  22.794  81.910 
80.537  19.737  80.656 
86.320  24.514  83.315 
84.477  26.124  86.433 
85.372  25.956  85.124 
86.468  27.117  85.166 
87.027  27.261  84.565 
87.140  28.242  84.749 
88.551  28.974  85.021 
88.136  30.271  86.292 
88.630  29.543  84.254 
90.350  31.286  85.325 
91.689  31.654  84.810 
91.033  29.302  83.406 
92.001  32.596  85.749 
90.156  32.379  87.093 
91.112  33.299  88.002 
90.239  31.245  85.827 
94.152  36.644  86.914 
93.595  34.916  86.511 
94.924  31.426  78.651 
94.390  34.720  86.033 
94.053  30.973  81.540 
91.778  36.312  89.660 
94.733  34.450  85.208 
98.160  42.894  84.107 
95.452  37.360  86.946 
95.210  34.395  83.739 
96.736  43.066  88.081 
97.328  43.820  87.409 
98.015  43.202  85.193 
98.275  45.160  85.386 
97.995  45.613  86.723 
98.779  45.026  85.190 
99.235  45.225  84.450 
98.826  45.802  85.403 
99.419  47.383  85.694 
99.512  48.129  85.777 
99.463  48.230  85.239 
100.116  49.160  85.223 
99.720  50.469  85.397 
100.085  50.568  85.935 
99.959  52.151  87.260 
99.948  51.920  85.657 
100.428  53.119  86.215 
100.859  53.282  86.551 
101.173  53.633  86.291 
101.647  55.383  86.304 
101.424  55.873  86.979 
101.103  56.106  86.333 
102.155  56.490  85.665 
101.898  56.074  86.136 
101.777  57.191  85.557 
102.130  58.469  85.021 
102.465  57.635  84.997 
101.771  59.998  85.328 
99.600  60.973  89.997 
103.071  59.140  83.431 
102.810  61.058  84.553 
103.100  62.683  83.359 
102.787  66.597  83.739 
101.362  62.871  85.792 
101.740  68.741  86.722 
102.377  65.418  83.280 
102.078  70.183  85.709 
102.649  66.215  84.183 
100.080  68.735  88.865 
102.325  68.702  85.099 
97.421  76.093  86.316 
102.283  70.776  83.941 
99.476  70.333  88.564 
101.703  67.068  84.604 
98.815  76.499  83.766 
98.370  70.665  89.891 
97.632  67.682  91.551 
93.704  79.919  89.759 
97.033  72.136  90.702 
98.118  76.157  85.743 
96.001  75.822  90.830 
98.872  71.481  88.925 
102.333  72.248  83.177 
98.709  76.284  84.346 
95.527  80.964  84.863 
97.201  79.726  83.725 
94.312  81.581  86.244 
95.780  79.790  85.871 
95.507  80.856  84.064 
94.753  82.509  84.995 
94.277  83.128  83.965 
93.296  85.093  84.341 
91.179  86.576  85.900 
92.035  84.966  86.628 
90.308  88.491  84.760 
89.643  87.065  85.794 
90.306  90.393  82.577 
90.717  87.610  84.316 
89.637  90.148  82.135 
90.140  88.714  83.962 
89.353  86.300  87.474 
86.454  93.043  83.862 
88.509  90.219  84.616 
87.372  88.898  87.445 
86.181  89.740  87.289 
88.800  87.569  86.769 
87.036  88.388  88.618 
85.649  91.827  85.724 
83.822  92.554  87.869 
79.223  96.453  86.515 
80.706  91.168  91.157 
82.729  94.312  86.703 
88.613  90.742  83.747 
77.497  97.688  84.639 
82.396  98.084  83.028 
77.206  95.730  87.486 
77.893  94.838  87.782 
78.149  95.260  87.702 
76.368  93.854  90.441 
74.655  95.568  88.086 
75.719  96.671  87.296 
81.293  93.143  89.093 
73.928  96.393  88.224 
74.448  97.963  86.497 
75.066  97.839  85.974 
73.963  98.064  86.564 
70.925  99.905  84.896 
70.581  98.396  86.999 
70.945  99.660  86.254 
72.031  100.310  84.687 
69.446  100.959  85.330 
68.760  99.979  85.772 
68.477  100.112  86.125 
66.839  99.819  86.871 
66.480  100.468  86.394 
66.662  101.486  85.188 
66.139  100.208  86.775 
65.387  101.266  84.790 
63.144  100.868  86.277 
60.878  101.618  85.774 
60.054  102.088  85.049 
61.569  102.942  84.220 
55.983  95.767  93.002 
59.604  100.066  86.155 
58.478  100.752  86.749 
58.858  103.240  83.133 
55.096  102.271  83.557 
58.557  102.708  83.028 
51.152  97.436  90.762 
50.012  98.649  89.143 
46.884  100.610  85.707 
52.533  101.829  84.990 
52.670  103.156  83.700 
54.602  99.434  89.161 
47.697  100.978  85.636 
49.414  99.724  87.774 
51.279  100.149  88.091 
51.185  103.798  82.618 
44.014  103.052  79.919 
45.724  101.058  83.270 
47.887  101.278  84.271 
48.305  97.667  89.696 
47.509  102.246  81.937 
46.086  99.599  86.708 
44.387  99.382  85.342 
45.005  99.305  86.482 
43.571  98.822  85.728 
44.002  98.015  87.296 
42.535  96.882  86.663 
41.489  97.106  86.540 
40.876  95.964  87.108 
39.698  95.932  87.486 
41.055  94.085  89.970 
39.253  94.001  88.545 
30.529  94.769  80.865 
38.244  95.089  87.110 
39.481  93.617  89.588 
37.208  95.883  86.152 
37.084  93.062  89.304 
38.492  92.506  89.867 
28.652  90.313  84.912 
33.774  92.041  87.162 
32.605  90.400  88.928 
32.081  87.791  88.547 
27.833  83.850  88.188 
26.390  81.813  87.930 
26.502  83.208  87.529 
28.017  81.620  89.815 
25.411  80.921  87.866 
29.478  79.985  92.353 
26.699  82.657  88.326 
29.077  83.797  88.991 
26.990  83.341  87.903 
21.346  79.080  84.696 
24.171  79.529  87.267 
21.599  79.542  84.466 
27.392  80.911  89.974 
24.159  81.212  86.774 
22.371  80.446  84.722 
24.875  78.242  88.976 
25.382  82.710  86.894 
24.391  77.368  89.358 
25.235  79.654  88.499 
23.169  79.433  85.977 
22.457  74.284  88.910 
23.655  74.746  89.630 
23.254  73.463  89.485 
23.090  75.764  88.809 
22.322  69.945  90.181 
22.072  72.036  89.101 
20.813  72.410  87.168 
21.976  71.347  89.452 
20.002  69.296  88.029 
21.060  67.055  88.377 
20.698  70.143  88.199 
21.018  66.701  89.632 
21.115  63.943  90.205 
20.883  67.815  89.725 
21.133  66.215  90.280 
19.199  63.889  88.533 
18.859  65.573  87.832 
19.741  61.278  88.464 
15.160  60.214  82.832 
19.497  59.765  88.853 
19.660  58.093  87.764 
19.913  60.476  88.706 
16.764  62.945  85.332 
19.349  60.722  88.967 
20.295  56.973  88.979 
14.627  58.817  81.972 
19.375  61.631  88.535 
17.668  59.505  85.431 
18.872  58.427  87.801 
19.782  51.639  88.187 
21.360  54.202  88.912 
20.714  51.592  88.409 
18.997  48.689  86.891 
20.789  52.016  89.001 
21.949  45.904  89.151 
22.787  45.707  89.735 
21.604  39.759  85.240 
21.935  43.423  88.078 
23.452  37.577  85.969 
21.055  49.551  88.698 
22.319  42.523  88.139 
22.601  46.937  90.208 
17.930  43.017  81.539 
23.745  40.660  87.900 
23.291  44.063  89.563 
23.852  42.473  89.496 
24.418  34.810  83.941 
26.711  38.654  89.156 
22.611  41.191  87.663 
25.236  40.688  88.992 
25.788  39.325  89.454 
24.070  34.392  83.607 
25.597  38.173  88.476 
27.681  37.646  89.118 
27.190  35.686  87.078 
27.158  36.739  88.359 
27.456  34.853  86.662 
30.696  34.588  89.632 
27.683  35.261  87.737 
29.288  34.489  88.167 
28.838  32.646  86.704 
31.946  29.443  87.272 
27.045  32.570  85.290 
31.729  30.545  87.685 
36.032  24.757  86.873 
32.246  23.937  80.500 
32.516  28.112  85.594 
33.762  28.082  87.818 
34.238  27.235  87.532 
33.306  24.800  84.225 
37.375  22.454  85.120 
34.215  25.710  86.147 
34.148  22.639  82.013 
36.200  23.897  85.216 
34.873  26.231  86.900 
34.125  24.818  85.415 
32.230  26.593  85.112 
37.535  23.967  87.030 
40.212  19.795  83.286 
36.779  22.537  84.504 
40.845  19.409  82.306 
38.992  20.086  82.574 
40.710  21.703  85.969 
40.503  19.064  82.342 
40.420  18.551  81.185 
41.077  20.848  85.877 
40.519  21.263  84.654 
43.653  19.504  85.110 
44.561  19.933  85.858 
45.467  19.658  85.285 
46.141  19.925  86.439 
46.064  19.700  84.943 
46.665  19.099  85.215 
49.046  19.225  86.357 
53.949  20.786  89.886 
50.558  19.963  86.867 
49.607  19.814  86.685 
49.544  18.251  84.762 
53.568  19.282  88.367 
54.689  21.383  90.645 
52.730  17.120  84.333 
53.105  20.358  89.484 
52.419  20.496  90.034 
53.968  16.808  84.216 
59.647  16.549  85.865 
54.930  18.015  86.629 
58.234  18.685  88.141 
55.618  21.858  91.346 
59.171  18.031  87.662 
66.902  23.900  92.352 
63.025  13.583  77.666 
67.383  17.852  86.596 
57.191  13.796  80.100 
58.123  18.788  87.257 
67.098  19.090  87.416 
61.104  17.434  86.395 
68.672  18.221  86.386 
69.071  17.946  86.331 
63.242  16.092  84.352 
63.982  17.880  87.181 
67.887  18.364  86.088 
66.966  16.452  84.610 
71.032  16.740  83.655 
73.806  21.609  87.879 
63.247  17.190  85.707 
71.166  19.923  87.159 
67.883  17.351  86.156 
68.330  16.109  82.842 
75.511  20.776  86.416 
83.503  21.100  80.100 
78.529  20.646  84.769 
77.035  21.828  87.623 
82.806  20.790  81.303 
77.103  21.313  86.919 
80.040  20.254  82.967 
78.137  22.917  88.162 
86.045  22.151  79.808 
80.652  21.319  84.525 
82.261  24.479  87.357 
82.086  21.188  82.705 
87.085  25.589  83.041 
83.745  25.863  87.043 
86.899  26.428  84.308 
86.774  25.770  83.836 
86.485  26.945  84.061 
87.815  27.787  84.120 
87.800  27.832  84.698 
88.823  28.711  84.490 
90.248  29.444  83.530 
88.943  29.879  85.107 
90.849  30.898  84.333 
90.108  31.014  84.906 
90.824  29.996  84.116 
91.089  32.121  85.461 
93.387  32.772  84.728 
90.981  31.299  85.191 
94.390  32.268  82.598 
93.576  33.534  84.227 
94.709  35.576  86.112 
96.380  39.106  87.036 
94.733  32.645  81.894 
98.442  38.515  82.733 
94.766  33.717  83.745 
96.061  39.954  87.291 
95.390  37.254  86.279 
93.550  36.412  88.168 
96.502  39.794  86.597 
95.232  42.018  88.992 
98.320  44.637  85.930 
97.542  41.256  85.810 
97.400  42.367  86.252 
98.193  43.492  86.248 
99.066  44.531  84.365 
98.738  45.855  84.052 
99.746  47.139  84.800 
99.807  47.914  85.240 
99.419  47.319  85.169 
99.973  48.654  85.033 
99.453  49.088  85.660 
99.669  49.113  84.899 
100.987  49.456  84.312 
100.397  50.577  84.598 
100.412  50.921  85.095 
100.082  51.348  85.306 
101.140  52.877  85.711 
100.925  53.679  85.723 
101.439  54.412  85.878 
101.581  55.061  85.396 
101.551  55.721  85.938 
102.878  57.337  84.302 
102.178  57.800  84.381 
102.533  57.100  85.161 
102.439  59.770  85.272 
102.093  59.556  85.950 
103.614  60.118  82.945 
102.363  60.787  85.398 
102.406  65.897  85.114 
102.718  61.859  84.311 
103.341  61.639  83.250 
102.045  62.966  85.329 
104.030  64.767  81.308 
104.795  70.295  77.898 
101.162  67.094  87.360 
107.358  67.995  73.692 
102.827  63.945  84.285 
101.488  71.821  85.311 
101.271  69.300  86.215 
103.962  65.489  81.829 
101.704  71.327  84.555 
100.466  71.340  86.282 
103.421  67.840  82.756 
100.394  72.509  86.530 
97.687  73.472  88.883 
100.418  75.599  81.129 
96.949  73.047  90.561 
96.892  75.799  89.093 
100.133  70.968  88.069 
95.862  80.586  85.448 
97.523  73.176  90.220 
97.411  77.012  86.587 
97.490  79.011  84.090 
97.626  78.247  84.186 
96.866  79.483  84.082 
98.039  75.595  87.535 
95.173  81.235  85.725 
96.529  80.417  83.692 
94.001  84.562  84.260 
93.978  83.085  85.187 
91.587  84.747  87.246 
95.113  83.195  83.859 
94.583  82.541  85.955 
92.243  86.353  83.968 
88.396  87.740  87.916 
88.663  86.845  87.929 
89.447  88.504  84.962 
90.484  87.538  84.771 
89.277  91.865  81.741 
88.121  88.218  86.553 
87.670  90.104  85.077 
84.404  94.458  85.479 
86.723  93.640  82.891 
87.778  91.636  82.168 
87.521  90.080  86.057 
86.599  92.142  83.595 
83.263  96.903  83.490 
87.296  90.710  84.371 
85.834  92.925  85.007 
85.976  91.806  84.865 
84.159  93.037  86.959 
81.386  92.039  90.455 
79.167  95.045  87.223 
78.408  99.384  83.471 
79.728  97.502  85.674 
77.777  99.777  83.038 
77.892  97.935  84.957 
79.812  99.018  83.550 
82.465  96.008  85.345 
77.804  96.062  86.890 
75.037  96.649  86.742 
75.346  97.497  85.194 
73.647  98.258  86.140 
73.650  99.348  84.941 
73.603  98.947  85.746 
72.352  99.060  86.393 
70.223  100.108  85.993 
70.172  99.685  85.260 
72.327  99.184  85.856 
70.260  100.930  84.973 
68.919  100.701  85.006 
69.200  101.117  84.814 
68.694  100.828  85.442 
68.120  100.605  85.589 
66.835  101.160  86.052 
66.038  100.420  86.213 
66.877  102.237  84.776 
64.046  100.719  86.054 
61.909  102.578  84.119 
62.519  104.160  82.079 
62.230  101.757  85.385 
59.131  103.152  82.592 
59.434  98.676  89.465 
61.738  102.054  84.793 
60.280  102.230  83.860 
59.168  104.469  81.450 
59.027  102.741  83.895 
53.183  98.395  89.537 
52.721  102.581  84.276 
51.606  99.639  88.973 
54.657  102.542  84.130 
57.238  99.821  87.199 
54.778  102.279  84.592 
47.448  98.669  87.886 
61.475  106.266  79.006 
52.163  104.012  82.410 
50.974  100.757  87.556 
46.689  101.230  83.192 
45.723  100.537  84.589 
55.367  105.896  79.070 
47.282  106.324  74.350 
49.266  102.121  83.974 
43.250  101.001  82.752 
47.293  103.399  81.507 
46.348  100.290  84.683 
45.845  98.724  86.976 
44.059  98.641  85.781 
42.269  98.136  85.808 
41.003  96.799  85.735 
40.458  97.036  86.348 
38.380  96.806  85.945 
39.534  95.330  88.054 
28.553  92.123  82.461 
40.295  95.272  88.078 
34.554  96.040  83.041 
34.404  94.939  84.513 
37.149  91.964  90.540 
37.698  94.119  87.877 
40.730  96.341  86.711 
38.524  92.053  90.693 
36.299  93.877  87.399 
33.884  94.505  85.069 
27.393  88.673  84.339 
28.033  89.234  83.334 
31.404  90.171  87.676 
31.923  91.582  86.777 
27.636  88.713  85.456 
31.063  85.454  90.547 
30.873  84.674  89.868 
29.389  91.451  84.605 
29.438  84.170  89.699 
23.282  83.690  84.438 
27.120  84.807  86.906 
31.139  81.494  92.611 
30.469  83.805  91.078 
26.428  80.269  89.569 
23.804  81.027  86.132 
27.683  79.957  90.377 
25.841  81.197  87.510 
24.885  79.666  87.540 
25.755  77.486  89.494 
24.641  76.793  89.703 
20.995  73.055  86.780 
24.673  77.619  88.610 
22.979  75.110  89.255 
23.643  77.103  88.243 
21.753  71.134  88.361 
22.598  75.176  88.694 
22.552  73.385  89.085 
22.715  71.661  89.618 
18.874  71.924  85.431 
21.413  70.544  88.635 
21.881  71.958  87.530 
21.581  72.891  87.505 
20.556  68.093  88.926 
21.252  65.375  90.578 
19.769  63.675  88.897 
18.598  64.771  86.843 
20.763  65.745  89.812 
20.165  67.083  88.026 
19.810  63.211  88.305 
20.361  61.795  89.400 
19.037  62.286  88.067 
18.719  60.259  87.570 
16.906  63.477  85.613 
18.739  63.098  87.117 
16.729  67.445  83.654 
17.150  62.435  85.935 
21.114  59.188  90.276 
18.489  61.516  87.709 
19.875  57.615  89.094 
18.342  55.369  86.427 
19.541  53.559  86.845 
18.354  57.557  86.533 
19.243  55.794  87.840 
18.465  54.561  86.785 
19.008  50.103  86.557 
19.164  53.795  87.533 
20.491  46.481  88.371 
22.369  43.992  89.418 
19.193  42.710  84.980 
19.583  48.681  87.508 
24.691  43.452  90.383 
18.027  42.399  81.244 
18.735  40.177  80.794 
20.734  43.581  86.930 
22.426  38.070  85.207 
22.257  46.330  89.711 
20.796  37.478  82.146 
23.988  46.638  91.716 
21.297  43.729  87.715 
25.090  38.493  87.815 
25.950  40.098  89.123 
24.927  39.969  88.817 
25.346  37.296  87.295 
25.000  38.038  86.181 
21.815  37.708  84.163 
26.062  36.259  86.958 
23.657  36.201  84.753 
27.404  32.919  86.032 
29.069  34.374  87.100 
29.527  34.162  89.040 
30.407  30.921  86.852 
29.355  32.336  86.019 
30.809  32.601  88.199 
31.500  32.473  87.784 
30.166  33.091  88.033 
31.653  29.855  86.984 
28.458  30.851  85.277 
33.276  29.837  87.612 
29.685  27.571  83.827 
33.685  28.874  87.374 
34.447  21.741  79.990 
32.478  28.431  87.087 
29.349  29.884  85.093 
32.906  28.417  87.346 
35.542  21.144  79.201 
36.395  21.272  81.620 
34.147  25.521  85.164 
38.776  25.364  88.504 
34.731  23.529  83.329 
36.057  20.798  80.888 
33.201  22.362  80.234 
39.526  19.756  82.204 
33.257  24.157  82.125 
38.711  20.305  83.423 
38.496  21.736  85.336 
38.186  19.908  81.528 
40.455  20.456  83.923 
42.026  20.149  84.767 
40.536  20.733  85.376 
41.184  20.380  84.599 
44.062  19.150  84.288 
44.559  19.417  85.531 
44.692  19.548  84.879 
45.269  19.205  84.991 
47.276  18.873  84.951 
46.791  18.596  83.827 
48.116  18.556  84.721 
47.723  18.958  84.143 
48.478  19.091  85.581 
48.740  19.659  87.169 
50.679  17.323  83.790 
49.956  17.503  83.303 
50.382  20.594  87.289 
49.754  18.969  86.431 
51.050  18.795  86.331 
51.037  20.654  88.511 
53.814  20.890  90.446 
56.721  17.456  86.242 
54.651  17.897  85.916 
57.434  15.638  83.575 
58.628  19.619  89.120 
68.592  21.319  89.744 
60.015  17.475  87.441 
57.816  20.070  89.069 
66.277  20.225  89.797 
60.347  14.403  80.939 
65.682  22.752  92.054 
68.490  20.203  88.250 
62.773  14.371  80.610 
63.745  19.474  89.054 
66.177  14.195  79.245 
69.949  18.643  87.117 
71.071  21.158  88.784 
65.210  20.148  89.601 
60.254  16.256  84.498 
68.905  16.958  84.168 
65.881  15.192  81.690 
75.077  18.328  83.410 
64.632  17.590  86.751 
65.277  15.187  80.165 
76.182  21.149  87.559 
72.412  20.896  88.081 
64.763  14.459  80.444 
80.122  19.272  81.119 
82.511  22.869  84.974 
77.578  19.761  84.303 
76.403  20.220  85.863 
72.176  15.674  78.560 
77.782  20.250  85.036 
79.742  20.848  84.513 
80.092  21.751  85.779 
82.707  27.246  90.109 
83.023  24.737  86.318 
86.289  25.748  84.157 
81.352  21.036  83.673 
87.511  26.085  83.578 
88.585  27.304  83.571 
87.370  26.561  83.375 
89.379  27.498  83.368 
88.333  27.927  84.134 
88.220  28.628  84.377 
89.492  28.972  83.818 
90.753  31.586  86.001 
89.848  30.177  84.817 
90.619  28.692  83.046 
92.293  30.023  82.724 
92.063  32.289  84.858 
91.497  31.866  85.614 
90.677  29.856  83.667 
92.702  32.618  85.061 
96.374  34.923  82.947 
93.667  32.564  83.904 
94.283  33.081  83.650 
94.913  32.218  81.573 
95.174  33.427  83.399 
93.333  34.581  87.225 
97.389  38.643  84.649 
93.923  43.600  91.432 
94.850  38.146  87.835 
96.738  41.525  86.479 
94.459  40.495  89.953 
96.605  38.065  84.430 
95.620  43.136  89.047 
94.625  42.771  90.702 
98.253  43.056  85.592 
98.960  43.155  83.775 
98.400  43.828  85.517 
99.613  45.608  83.708 
99.543  45.891  84.150 
100.402  47.102  83.816 
100.766  48.509  83.935 
100.422  48.023  84.627 
100.427  49.397  84.869 
100.043  49.788  85.688 
101.097  50.378  84.377 
100.647  51.665  85.492 
101.486  52.387  84.954 
100.406  52.377  86.327 
101.484  53.052  84.987 
101.456  53.377  85.395 
101.862  54.889  84.761 
102.116  55.246  85.441 
101.961  56.365  85.161 
102.443  56.582  84.419 
102.405  58.748  84.259 
101.885  58.922  85.061 
103.093  60.108  83.636 
101.966  61.153  84.701 
103.768  59.897  82.130 
103.052  61.116  83.794 
102.982  60.283  84.112 
102.524  61.675  85.113 
103.144  65.155  82.127 
102.319  60.400  84.597 
104.097  65.439  80.494 
102.674  64.812  84.208 
102.749  63.325  82.946 
103.887  64.971  81.708 
105.391  63.343  79.041 
103.940  67.744  82.068 
100.550  73.776  84.725 
100.263  65.820  88.255 
101.073  73.400  84.232 
103.031  66.034  83.260 
103.414  69.908  82.164 
98.767  74.200  87.129 
101.312  70.607  84.841 
99.241  71.282  88.503 
94.060  79.611  88.997 
99.633  73.158  87.227 
95.524  77.488  89.369 
98.346  73.641  88.179 
99.197  76.412  83.004 
96.712  78.179  85.835 
97.874  78.685  83.274 
98.613  77.106  83.396 
96.286  79.759  84.207 
96.994  79.450  84.731 
95.920  78.964  86.194 
95.357  83.226  83.017 
93.757  83.811  85.374 
93.452  84.472  85.100 
92.929  84.451  84.563 
92.572  84.854  85.917 
91.092  86.405  84.901 
89.629  89.571  83.485 
90.953  87.064  85.299 
91.518  87.880  83.594 
89.616  88.205  84.643 
90.456  88.176  84.142 
90.602  89.030  82.517 
89.891  90.500  83.381 
88.788  91.556  83.197 
84.978  96.628  81.850 
87.153  90.171  86.367 
86.098  92.274  85.168 
88.080  90.771  84.698 
87.589  88.902  86.754 
86.928  93.025  83.301 
84.601  94.733  84.808 
79.412  92.791  90.046 
84.663  91.123  87.762 
87.634  91.057  84.268 
80.264  93.360  89.946 
81.271  97.277  85.019 
77.656  95.631  87.102 
78.634  98.288  84.364 
78.863  97.379  85.704 
80.633  97.376  84.897 
74.770  96.134  87.938 
78.061  98.659  83.904 
81.576  98.236  83.758 
80.698  95.849  85.932 
75.964  97.202  85.969 
73.837  98.469  85.133 
74.024  99.825  83.892 
72.793  99.195  84.888 
73.246  99.898  84.476 
71.639  99.382  85.919 
71.467  100.254  84.536 
71.186  100.609  85.004 
71.512  101.053  84.202 
70.328  100.546  85.320 
69.667  100.971  84.440 
68.581  101.861  84.525 
67.101  101.761  85.112 
67.515  101.287  85.490 
65.918  101.810  84.860 
65.070  102.802  84.471 
64.362  100.178  86.930 
63.442  100.973  85.492 
64.936  100.650  86.452 
65.441  104.874  80.118 
58.323  101.695  85.686 
61.573  100.761  86.737 
61.186  102.973  82.973 
59.575  101.702  84.956 
60.491  102.351  84.943 
58.460  100.928  85.884 
53.294  101.550  85.253 
58.696  102.295  84.507 
50.808  101.979  85.371 
51.742  101.121  86.544 
54.541  103.109  81.938 
53.089  103.957  82.652 
48.300  99.154  88.451 
54.102  99.628  89.246 
46.501  99.340  86.870 
48.440  101.187  84.972 
51.423  100.774  86.696 
49.871  102.462  83.954 
48.276  105.265  78.753 
50.598  102.956  82.752 
41.899  99.872  82.913 
46.122  102.330  82.282 
46.535  106.379  73.954 
44.801  99.144  85.699 
44.740  100.063  84.102 
43.446  99.388  84.166 
42.762  98.038  85.608 
43.077  97.598  87.198 
44.113  97.666  86.607 
41.731  97.237  86.142 
40.332  97.421  85.628 
39.657  96.485  86.842 
38.275  97.117  85.147 
37.237  92.396  89.829 
32.415  94.103  84.223 
36.119  95.330  85.526 
38.250  93.831  87.812 
36.224  89.141  92.160 
32.156  90.838  88.447 
34.696  92.076  88.140 
36.536  94.525  86.451 
33.733  93.843  85.839 
34.805  91.042  89.986 
35.828  92.296  88.706 
26.287  91.205  80.362 
28.233  82.657  88.671 
30.593  86.937  88.794 
28.635  81.086  90.391 
29.257  84.793  88.754 
22.478  82.641  83.775 
25.829  84.991  85.922 
25.042  82.247  86.647 
28.286  86.569  87.407 
27.075  83.442  87.143 
25.188  85.698  83.977 
22.219  83.246  82.474 
24.467  80.673  86.480 
25.624  80.346  88.226 
25.552  83.467  86.676 
24.950  80.177  87.666 
24.818  80.529  87.010 
18.958  73.416  84.862 
21.858  76.346  86.809 
23.343  76.235  88.086 
21.597  73.502  87.969 
24.150  77.079  88.882 
23.768  76.962  87.321 
21.377  72.518  87.890 
21.490  71.815  88.158 
21.176  70.917  88.226 
19.471  68.868  86.410 
19.762  69.972  87.299 
20.285  73.703  85.082 
20.897  68.788  88.997 
20.510  70.050  87.423 
17.266  74.901  81.162 
18.481  66.414  87.348 
17.397  69.689  84.589 
17.498  64.802  85.755 
19.196  66.206  88.035 
18.700  71.000  85.585 
19.837  64.300  89.086 
20.430  63.312  89.719 
17.819  64.529  86.534 
15.907  63.334  83.287 
16.397  58.701  84.049 
16.302  65.862  84.583 
19.114  59.792  87.419 
19.274  60.640  88.133 
18.398  57.776  87.513 
15.775  60.807  83.471 
18.447  60.725  87.600 
18.038  53.499  86.028 
20.034  59.103  88.214 
18.656  52.635  86.921 
18.789  56.102  87.213 
21.472  48.216  89.637 
18.470  46.471  84.782 
21.734  49.020  89.651 
18.964  53.002  87.216 
23.531  43.987  90.139 
16.122  51.573  83.153 
20.421  49.086  88.099 
20.857  41.227  85.302 
17.619  49.704  84.809 
18.978  43.423  84.376 
15.760  46.008  79.780 
20.109  42.708  85.725 
22.703  40.451  87.345 
23.752  38.506  86.096 
23.103  44.055  88.978 
25.632  32.248  82.727 
23.987  41.157  88.593 
26.041  32.907  84.031 
20.357  37.865  81.039 
21.135  41.238  85.753 
23.625  36.370  83.915 
19.625  38.578  81.036 
23.191  39.657  86.640 
26.347  36.971  87.991 
27.308  36.107  87.925 
31.917  31.038  87.456 
29.059  33.580  86.931 
28.857  34.613  88.656 
29.564  33.826  87.709 
30.006  32.688  87.211 
30.456  32.298  87.578 
30.917  31.727  87.220 
32.298  29.233  86.954 
31.087  29.041  85.891 
24.024  31.263  80.485 
27.923  29.441  83.338 
26.925  30.206  82.546 
28.604  29.226  84.077 
32.878  27.115  85.535 
32.111  30.155  86.961 
32.246  26.404  84.195 
32.649  23.172  80.277 
39.001  21.463  84.174 
33.215  24.341  83.554 
38.129  27.521  89.792 
32.528  24.326  82.589 
38.919  19.394  81.926 
36.166  19.943  77.780 
35.188  23.631  84.092 
40.967  19.466  83.173 
41.741  20.966  84.949 
40.106  18.988  81.929 
40.280  19.002  82.880 
40.906  18.735  81.661 
41.676  19.817  83.636 
44.203  19.412  84.750 
43.516  18.802  83.638 
44.896  18.990  84.327 
44.592  18.857  83.616 
45.199  18.638  84.262 
45.684  18.660  84.396 
47.365  18.433  84.192 
46.646  18.598  84.601 
48.509  18.641  83.851 
49.340  18.663  84.157 
49.592  17.835  84.106 
51.028  17.743  84.473 
50.687  18.630  85.142 
54.904  19.633  88.977 
55.166  13.495  79.265 
51.357  20.459  89.389 
59.333  14.349  79.987 
50.976  21.182  90.331 
52.452  19.243  87.637 
52.944  18.982  87.561 
56.301  16.735  84.602 
56.422  18.288  85.861 
57.593  20.268  89.951 
57.438  17.830  87.265 
55.443  17.798  86.123 
60.249  14.220  80.128 
58.882  15.458  82.074 
61.145  15.644  83.733 
61.233  15.045  82.547 
68.696  17.401  85.849 
67.764  21.012  89.899 
59.962  21.737  91.664 
62.500  18.418  87.880 
65.588  17.135  85.574 
59.342  17.091  86.942 
69.683  15.301  78.938 
62.189  13.316  77.325 
61.569  13.906  79.240 
66.808  15.609  82.008 
76.122  19.796  85.574 
69.080  16.639  83.191 
73.895  19.962  86.827 
77.282  20.444  85.361 
