91.405  96.481  67.271 
91.814  96.963  66.481 
94.021  94.496  69.364 
92.569  95.356  69.299 
91.035  96.686  69.144 
91.207  97.116  69.318 
93.347  95.561  66.569 
92.514  96.652  64.424 
87.365  100.600  69.767 
90.532  97.658  69.359 
89.412  99.982  66.407 
84.910  102.290  66.461 
88.478  98.509  70.569 
86.043  101.069  68.824 
86.317  101.162  69.801 
84.780  100.449  75.254 
81.523  102.351  75.368 
86.379  100.383  69.850 
86.050  102.282  64.123 
86.550  100.144  71.950 
79.856  104.907  68.534 
83.720  103.257  64.289 
82.812  103.691  68.319 
79.245  104.473  68.666 
79.105  105.039  68.922 
81.104  104.623  68.304 
80.176  104.201  69.559 
78.053  105.555  67.772 
77.463  105.552  68.796 
77.261  105.230  67.528 
76.267  105.702  67.627 
75.718  106.398  67.790 
73.304  107.090  67.146 
73.191  106.443  67.608 
72.561  106.980  65.939 
72.808  107.592  65.376 
73.669  107.225  66.476 
68.565  108.216  66.045 
71.091  108.615  60.658 
69.761  108.609  62.442 
69.200  108.922  61.723 
67.508  108.913  66.826 
63.742  109.430  69.778 
64.266  109.370  67.253 
63.041  110.087  66.079 
67.814  108.966  67.852 
68.430  109.085  65.769 
57.580  110.042  64.166 
62.736  106.687  78.993 
67.023  108.385  70.693 
62.230  109.684  65.984 
63.170  105.629  79.629 
61.980  109.666  61.796 
60.979  109.692  61.006 
59.968  110.204  67.415 
59.690  109.184  64.978 
61.159  109.746  67.317 
52.884  109.515  65.374 
50.695  107.843  70.336 
62.019  109.616  67.510 
55.868  109.114  71.327 
53.575  109.664  59.509 
57.148  109.821  62.216 
51.138  108.754  65.181 
47.130  108.116  62.269 
52.796  110.056  57.154 
43.778  107.106  64.558 
47.979  108.633  60.640 
46.142  107.423  63.824 
45.733  107.872  63.737 
49.098  108.240  65.451 
43.884  106.864  69.309 
50.021  109.518  61.801 
46.793  108.318  66.283 
41.442  105.575  66.316 
37.342  104.016  65.715 
39.058  104.701  66.908 
40.658  104.139  71.534 
36.658  103.502  67.155 
36.775  101.730  74.856 
39.083  103.223  72.574 
43.499  106.112  69.725 
40.321  105.396  67.469 
38.453  104.318  68.766 
35.273  101.699  72.487 
34.769  102.600  67.248 
40.170  103.033  75.781 
37.606  102.150  75.185 
33.932  101.645  69.130 
35.165  101.866  70.552 
36.319  102.585  70.294 
34.107  101.230  71.352 
32.360  100.032  71.713 
31.419  99.258  71.006 
31.101  99.936  69.510 
29.726  98.723  70.336 
29.482  97.373  72.217 
27.131  96.812  69.879 
26.689  96.836  69.012 
27.731  97.120  69.137 
27.479  95.729  73.618 
24.138  93.260  72.517 
21.044  92.179  65.954 
21.007  91.148  67.988 
22.210  91.744  70.958 
21.767  93.830  64.297 
26.451  92.855  77.737 
23.994  93.884  70.885 
20.663  90.364  68.505 
21.618  91.280  69.545 
23.588  93.533  69.529 
16.442  85.311  64.019 
16.930  84.791  65.833 
20.153  85.716  76.475 
19.544  90.892  63.811 
17.098  83.291  74.156 
18.285  88.357  59.809 
22.021  91.708  69.198 
20.065  87.251  74.637 
17.847  85.516  71.914 
16.040  84.530  64.845 
15.747  82.818  65.998 
15.303  82.809  65.723 
16.314  81.847  69.301 
15.711  81.187  69.574 
15.402  80.576  70.167 
15.608  80.594  70.915 
14.378  77.734  70.426 
14.561  78.189  71.220 
14.470  78.604  67.169 
12.372  72.536  71.461 
14.037  76.515  69.114 
10.680  70.492  64.483 
13.867  75.624  71.968 
12.350  72.604  70.145 
12.183  70.103  73.834 
11.392  71.568  66.736 
12.368  73.473  68.523 
11.787  67.380  72.893 
11.604  68.752  74.127 
10.581  67.661  66.250 
12.147  72.721  67.041 
10.036  62.199  65.561 
12.714  64.212  75.052 
9.745  62.683  63.333 
11.730  64.603  74.247 
10.844  66.998  70.083 
11.365  62.132  72.583 
11.369  57.527  70.140 
14.502  48.702  76.351 
11.185  57.997  67.298 
12.096  65.230  74.780 
11.696  62.611  72.494 
12.515  61.137  75.189 
10.875  58.354  68.510 
11.632  54.686  69.919 
11.633  54.907  71.049 
11.245  59.200  72.384 
12.126  54.212  68.778 
11.460  54.405  67.827 
12.419  52.158  69.051 
11.977  52.609  69.471 
12.665  52.457  68.357 
12.961  50.643  68.414 
12.635  49.578  67.781 
12.886  49.507  69.243 
12.535  50.291  68.130 
13.080  48.846  68.036 
13.471  46.213  64.513 
13.475  50.820  73.440 
12.804  46.650  64.611 
14.374  41.963  66.808 
14.028  44.336  64.290 
14.370  46.591  69.453 
14.861  39.571  63.517 
13.750  41.982  61.732 
15.087  43.478  69.086 
15.813  37.128  61.899 
18.389  33.590  62.541 
16.571  36.517  61.648 
17.562  37.927  70.453 
14.982  40.720  67.149 
19.233  37.559  75.872 
18.203  33.308  60.985 
22.085  28.639  66.649 
24.507  27.390  71.190 
21.463  29.841  70.592 
19.181  34.195  70.656 
18.563  35.054  68.575 
23.291  27.725  68.344 
18.946  35.146  73.503 
20.633  31.888  70.948 
16.971  38.618  72.992 
24.957  26.785  64.505 
26.161  25.110  63.125 
25.976  25.358  65.402 
17.481  34.237  59.032 
27.261  25.127  70.899 
21.182  29.841  69.198 
26.747  25.497  66.531 
28.628  24.004  68.964 
27.045  24.490  64.105 
23.313  27.476  67.544 
28.762  22.946  66.309 
30.992  21.603  68.423 
30.514  22.494  68.231 
30.359  21.718  66.594 
31.171  21.601  67.614 
31.974  20.565  66.390 
33.661  19.935  67.583 
32.629  20.218  66.976 
33.212  19.616  66.289 
34.305  18.694  66.737 
35.033  18.074  67.026 
34.788  18.194  66.602 
35.931  17.256  67.347 
35.812  17.547  66.509 
36.966  16.899  66.383 
38.184  16.627  66.532 
39.473  15.840  66.341 
38.511  16.314  67.776 
42.757  14.995  69.542 
39.571  15.143  65.596 
42.136  14.506  67.489 
41.104  14.921  63.435 
43.776  14.288  70.003 
41.291  15.072  68.750 
43.687  13.731  66.063 
44.541  14.551  67.317 
46.132  13.031  61.885 
46.425  14.142  75.136 
47.646  12.470  66.424 
45.668  13.136  67.191 
50.985  11.187  66.865 
45.799  14.210  73.117 
51.124  12.655  74.692 
41.826  14.962  68.708 
48.617  12.505  66.837 
53.659  10.849  62.235 
56.803  10.542  65.070 
56.899  10.305  62.770 
50.626  11.504  68.292 
57.583  10.937  68.019 
61.119  10.379  64.285 
57.014  10.403  65.680 
57.225  10.861  63.475 
58.203  11.551  68.437 
61.727  10.368  63.825 
59.369  11.287  67.538 
62.840  11.883  68.011 
63.782  11.441  65.961 
66.505  12.225  67.913 
66.767  12.083  65.796 
65.736  11.305  67.038 
67.640  11.899  64.870 
66.699  11.713  65.076 
66.706  11.488  67.165 
65.259  11.581  66.728 
70.981  13.185  71.250 
68.742  11.663  64.643 
70.482  11.755  64.156 
69.704  11.794  67.052 
71.611  12.481  63.872 
72.592  12.406  67.300 
75.107  11.908  59.031 
70.909  12.008  65.018 
73.275  12.348  61.715 
75.983  12.279  61.511 
72.117  11.463  62.178 
78.690  15.361  72.031 
73.965  12.150  64.414 
74.679  13.219  69.773 
80.055  14.644  64.395 
78.634  13.880  65.728 
77.393  13.948  69.291 
82.593  16.405  62.923 
77.518  13.510  65.300 
83.768  16.626  64.785 
83.702  16.958  64.229 
86.743  18.643  63.661 
90.570  22.137  62.413 
87.829  19.041  65.374 
85.234  17.919  68.318 
84.122  17.214  61.291 
86.467  20.076  72.465 
81.051  15.708  69.118 
82.556  15.512  68.997 
86.856  18.556  69.308 
88.977  21.343  61.737 
91.187  22.088  62.933 
89.810  22.035  70.543 
89.618  20.941  65.479 
90.264  21.410  64.824 
96.886  27.295  66.128 
95.288  25.260  67.605 
89.859  21.992  72.192 
94.117  24.637  63.309 
96.956  26.613  62.415 
94.599  25.162  65.141 
97.188  27.348  68.062 
99.002  30.933  69.858 
97.758  27.391  63.474 
97.645  29.005  70.038 
102.103  34.914  66.881 
101.677  32.619  58.453 
100.100  32.423  72.361 
100.407  30.631  64.933 
97.566  28.947  59.874 
98.661  30.732  72.969 
103.734  36.619  63.636 
105.298  40.635  64.876 
102.063  36.217  70.092 
105.815  41.405  66.428 
102.084  33.543  58.526 
104.099  38.283  63.219 
104.932  39.326  69.922 
105.347  40.392  66.401 
104.814  39.632  67.476 
104.467  38.847  67.480 
105.896  41.407  69.144 
104.461  38.089  63.935 
105.824  41.770  69.563 
104.312  39.381  71.695 
103.126  38.711  73.603 
107.638  47.147  67.941 
105.567  41.175  69.962 
105.468  40.813  66.509 
105.286  46.113  76.771 
106.033  41.295  67.833 
106.716  43.539  63.610 
104.728  42.694  73.572 
107.325  49.831  72.650 
106.440  43.874  68.055 
109.119  51.579  68.113 
106.304  44.762  72.220 
109.691  52.918  66.852 
106.619  47.639  73.966 
107.784  51.726  71.709 
109.752  53.976  66.549 
108.800  49.646  67.529 
109.593  60.575  68.208 
108.320  49.708  66.181 
109.426  53.192  65.370 
109.049  53.520  65.283 
109.207  54.362  63.999 
109.674  54.954  64.842 
108.990  57.818  71.859 
109.818  59.446  67.996 
109.700  61.867  64.124 
108.448  71.116  66.471 
109.942  61.306  62.602 
110.101  57.260  65.708 
108.201  66.632  73.903 
108.717  67.385  70.942 
108.768  60.444  71.752 
109.449  61.020  66.026 
109.674  63.943  65.319 
107.696  67.121  74.021 
107.778  69.553  73.354 
108.824  67.221  70.305 
107.157  76.936  64.696 
109.297  65.167  69.872 
108.617  66.811  72.229 
106.097  77.702  68.613 
105.875  78.751  67.755 
108.004  72.361  65.796 
104.947  81.271  63.709 
109.362  66.018  69.574 
107.293  75.106  64.791 
103.548  80.115  68.709 
105.881  77.159  64.466 
104.066  81.168  67.826 
105.758  78.289  60.721 
104.090  78.200  70.347 
105.328  76.502  69.777 
104.703  78.360  68.771 
104.336  78.773  69.655 
103.606  84.482  59.461 
102.104  84.124  69.343 
101.966  86.848  62.119 
100.325  87.510  66.716 
101.716  84.990  65.291 
100.888  86.493  68.540 
102.716  83.717  65.933 
102.351  85.667  64.408 
100.360  87.195  68.085 
98.776  88.885  68.330 
96.021  90.991  70.815 
100.866  85.517  68.063 
98.240  89.308  69.170 
95.797  91.804  70.284 
95.999  90.585  71.614 
95.576  90.961  70.487 
96.099  90.970  68.973 
95.496  91.566  69.528 
94.491  94.155  67.799 
95.174  93.775  67.619 
97.799  91.418  64.953 
93.767  95.252  68.191 
93.390  95.076  69.494 
94.955  94.077  66.956 
91.394  96.625  68.623 
91.840  96.445  67.571 
92.641  95.918  67.591 
89.857  98.469  68.046 
85.392  101.428  69.312 
84.644  102.997  63.932 
88.527  99.501  67.007 
86.574  101.448  62.335 
88.781  98.930  70.397 
88.653  101.068  62.714 
88.932  99.695  67.728 
85.231  101.907  71.054 
83.239  102.653  68.129 
84.056  103.244  63.419 
85.883  99.778  73.931 
84.755  101.557  72.125 
81.859  104.022  68.196 
81.702  104.075  66.906 
81.595  103.889  67.415 
82.196  103.360  66.545 
79.283  105.184  67.999 
78.808  105.361  67.584 
79.040  105.361  66.866 
78.484  105.295  66.862 
76.720  105.987  67.098 
76.059  106.361  66.500 
75.065  106.523  67.288 
74.255  106.922  67.054 
70.308  107.875  67.224 
66.753  109.784  63.158 
72.224  107.690  64.751 
73.715  107.149  63.743 
64.276  109.062  61.669 
72.038  108.000  62.757 
69.630  108.534  65.203 
65.541  106.896  76.474 
63.693  108.900  71.754 
68.597  109.027  59.340 
67.391  107.306  74.159 
68.006  109.344  63.827 
70.639  108.106  66.503 
65.429  109.291  63.071 
65.075  109.564  67.133 
64.198  106.372  78.244 
64.167  109.912  68.542 
61.074  109.922  62.102 
67.540  108.412  72.189 
63.454  109.298  61.476 
63.162  109.761  62.773 
60.445  108.832  73.242 
64.130  109.698  69.302 
59.361  109.309  69.771 
58.834  109.273  70.301 
57.746  109.825  65.825 
53.287  108.668  68.032 
50.311  108.486  65.044 
55.378  109.146  69.024 
51.873  108.597  66.672 
54.052  109.970  55.398 
47.770  108.680  61.706 
47.652  108.705  68.126 
45.808  107.357  62.229 
43.846  107.018  65.267 
44.315  106.530  61.680 
48.521  108.817  62.274 
58.461  109.805  63.288 
48.340  109.105  61.259 
47.599  108.811  65.870 
41.408  105.421  71.488 
42.144  105.925  67.226 
40.919  105.293  69.982 
44.120  106.400  63.484 
44.667  106.665  71.613 
38.102  104.279  65.291 
45.837  105.283  75.024 
39.850  104.317  69.324 
37.649  103.208  70.086 
40.066  104.473  71.001 
35.701  101.286  74.386 
37.797  103.403  66.817 
35.809  102.046  71.176 
37.064  102.847  70.972 
35.543  102.480  67.920 
35.473  101.356  71.333 
33.286  100.557  71.680 
31.823  100.479  69.680 
32.831  100.624  71.132 
32.224  100.035  71.218 
30.121  98.625  70.032 
30.320  98.240  70.895 
29.865  98.195  70.605 
30.214  98.577  71.465 
28.912  98.000  71.051 
28.310  96.803  71.447 
27.759  96.695  70.510 
24.922  93.985  73.355 
26.112  95.442  72.096 
20.861  92.861  63.603 
22.544  93.593  68.003 
18.586  88.323  64.301 
22.541  94.431  64.720 
18.683  88.040  68.483 
20.678  89.995  69.510 
20.718  90.558  67.949 
18.248  87.056  70.772 
19.225  87.160  73.358 
17.881  86.626  70.544 
16.727  84.729  69.172 
17.700  87.279  65.138 
19.299  85.963  74.955 
16.961  86.311  65.281 
17.522  87.521  66.665 
20.120  90.581  59.596 
17.901  86.968  68.482 
18.596  88.703  67.079 
16.638  83.210  70.018 
16.434  82.883  71.836 
16.848  83.786  71.437 
16.133  82.113  70.345 
15.294  81.294  69.317 
15.025  80.554  69.693 
14.824  79.377  70.444 
14.652  78.994  69.660 
14.838  79.830  69.179 
14.193  77.838  66.652 
14.020  73.753  72.573 
12.549  75.050  67.517 
13.644  76.834  68.751 
13.132  74.884  69.412 
12.114  74.526  64.581 
12.377  74.108  66.640 
10.827  69.240  69.348 
11.311  70.590  70.467 
12.449  73.322  69.494 
11.269  69.717  67.573 
12.004  61.967  74.816 
11.546  69.756  70.544 
10.719  65.927  70.625 
10.618  67.476  56.813 
11.041  64.668  70.791 
11.364  58.399  69.850 
13.431  56.224  77.097 
11.795  56.222  72.598 
10.329  59.357  66.038 
10.939  60.834  70.544 
11.773  58.781  71.828 
13.311  53.820  74.506 
12.891  59.017  74.481 
12.003  53.610  71.571 
11.741  56.374  71.913 
12.524  52.549  72.880 
12.048  53.040  70.164 
12.285  56.378  71.026 
11.955  53.342  69.173 
11.371  54.159  68.494 
12.234  53.690  68.348 
11.971  52.427  68.311 
12.728  51.361  67.986 
12.374  50.664  67.355 
12.341  49.914  67.005 
13.358  49.707  66.942 
12.895  48.998  66.972 
13.050  48.384  67.371 
13.600  47.319  68.201 
13.495  46.429  65.354 
12.684  47.176  65.461 
13.152  45.723  65.668 
13.555  43.159  61.167 
13.543  44.234  64.191 
13.841  43.860  66.670 
14.367  42.619  67.501 
14.861  40.257  64.018 
15.915  40.789  70.711 
16.644  35.707  64.458 
14.996  43.421  72.138 
19.566  39.201  78.554 
20.229  32.321  69.193 
25.011  27.168  67.580 
17.740  33.640  58.575 
19.465  30.549  62.903 
20.952  30.210  69.885 
19.568  32.179  60.427 
20.698  31.035  70.691 
25.748  26.451  67.845 
17.531  35.926  69.991 
24.961  26.878  69.798 
24.844  28.415  74.391 
18.820  32.739  66.334 
22.317  27.723  63.986 
22.544  27.667  63.127 
27.552  23.163  62.176 
23.803  27.404  67.913 
25.396  27.098  68.373 
26.519  25.928  68.251 
27.030  24.373  65.728 
26.943  24.801  66.687 
25.986  25.659  66.987 
26.906  25.043  68.562 
29.390  23.739  70.000 
29.372  22.910  68.020 
30.057  22.385  66.434 
29.196  22.579  66.872 
31.684  21.027  66.634 
31.545  20.656  66.053 
32.196  20.427  65.570 
32.450  20.242  66.194 
33.713  19.152  66.607 
34.543  19.011  66.008 
34.951  18.362  66.178 
35.706  18.295  66.117 
36.627  17.691  66.099 
35.882  17.383  65.677 
37.315  16.826  65.463 
36.423  17.201  64.304 
38.076  16.187  63.737 
40.472  15.928  66.877 
39.480  16.061  67.280 
39.414  15.937  65.694 
40.926  14.726  60.131 
41.194  14.469  64.112 
41.003  15.095  67.906 
45.001  13.266  62.580 
46.943  12.441  65.734 
43.280  14.404  67.052 
43.681  14.479  68.983 
44.235  13.256  65.564 
48.253  12.148  65.512 
41.538  14.605  66.994 
46.930  13.591  70.882 
51.727  11.131  64.964 
46.647  12.676  66.465 
48.956  12.148  67.570 
54.844  10.215  64.083 
51.350  11.646  62.789 
59.742  10.961  66.894 
56.990  9.896  60.227 
53.245  11.324  64.629 
52.197  11.078  63.892 
58.748  10.490  64.320 
55.439  10.294  60.712 
58.401  10.007  62.846 
62.808  10.700  67.402 
63.001  11.064  67.766 
62.420  10.558  66.415 
64.569  11.123  66.520 
63.599  10.874  65.138 
62.978  10.514  64.312 
64.630  11.925  66.739 
65.292  11.387  67.866 
65.844  11.894  66.076 
65.085  11.205  65.027 
68.340  12.218  65.860 
68.691  11.403  62.764 
67.027  12.167  64.424 
68.494  11.821  65.136 
70.108  12.440  66.577 
72.609  11.633  59.633 
73.656  12.034  63.032 
71.441  11.834  62.159 
70.971  12.580  64.258 
71.357  11.860  62.634 
74.254  12.291  64.024 
76.459  13.717  67.487 
77.523  13.399  57.746 
76.809  15.434  72.605 
79.481  15.846  71.220 
82.902  16.066  67.780 
76.656  13.282  60.109 
84.912  17.609  62.286 
80.455  15.999  71.216 
77.197  13.413  63.796 
75.764  12.345  58.397 
85.910  17.213  66.364 
81.538  15.475  63.213 
90.242  21.698  60.537 
85.766  18.029  64.756 
80.024  14.655  69.041 
87.511  18.946  63.480 
86.631  19.232  64.047 
90.449  22.767  71.805 
85.333  17.930  63.546 
89.786  20.886  63.692 
87.299  19.552  71.688 
90.740  22.835  69.967 
90.385  21.328  64.287 
88.742  20.886  61.303 
87.100  18.912  65.670 
89.518  20.205  66.818 
94.838  25.900  69.684 
94.407  24.606  69.416 
91.156  21.737  64.441 
91.061  22.791  70.882 
97.931  29.519  68.689 
97.354  27.747  67.777 
101.023  35.493  72.426 
96.555  26.520  66.019 
96.779  29.255  73.497 
98.639  30.631  68.773 
99.865  31.584  68.510 
100.477  31.554  61.949 
100.961  31.971  60.533 
103.927  36.657  64.817 
99.637  30.251  66.636 
99.232  29.626  66.848 
101.939  34.383  62.094 
102.114  35.860  68.503 
103.335  36.862  65.631 
101.138  33.381  66.681 
102.298  34.458  62.519 
102.926  35.377  63.941 
103.605  37.452  66.722 
103.419  35.665  61.220 
102.581  38.599  73.412 
101.118  35.987  76.182 
104.071  38.652  66.702 
102.660  39.993  76.406 
101.268  34.894  68.315 
104.602  38.537  63.279 
101.919  35.677  69.381 
105.434  40.339  61.150 
106.206  45.614  72.054 
106.351  43.033  69.749 
105.068  40.542  70.998 
107.946  46.075  65.645 
107.998  47.514  67.340 
104.663  46.946  76.621 
107.462  45.727  68.479 
108.443  47.998  67.333 
107.224  45.918  66.690 
107.329  44.192  66.977 
107.771  47.500  64.615 
107.075  46.442  70.187 
108.579  51.208  70.844 
108.511  50.166  67.221 
109.021  53.644  71.510 
108.874  49.992  68.704 
108.057  49.216  67.457 
108.240  49.407  65.262 
108.135  49.957  65.208 
110.262  56.663  65.286 
108.795  50.966  68.175 
108.847  53.142  64.729 
110.041  57.852  63.142 
109.361  61.504  61.325 
110.119  58.920  61.287 
108.083  68.947  66.520 
107.683  59.596  73.958 
108.522  66.693  62.938 
109.756  63.230  66.481 
109.087  64.269  64.452 
109.807  58.669  65.283 
107.580  71.148  65.369 
108.020  69.959  68.237 
109.283  63.607  66.669 
108.543  68.917  62.578 
108.226  70.873  67.018 
107.815  72.943  66.496 
105.806  72.759  75.121 
106.842  75.318  61.847 
108.155  72.086  64.652 
107.555  74.605  66.036 
105.271  77.109  71.186 
106.835  77.685  65.238 
104.636  79.529  67.554 
107.097  76.836  65.670 
106.010  74.250  70.548 
104.772  77.525  69.848 
105.522  78.305  66.210 
105.522  76.031  71.120 
102.610  84.364  66.487 
101.653  85.916  66.839 
106.632  75.961  68.429 
105.726  80.088  60.585 
102.511  83.277  67.290 
101.694  86.051  65.546 
102.098  84.387  68.258 
101.382  85.178  70.224 
101.253  86.669  66.355 
101.184  85.606  69.613 
98.494  91.824  58.249 
102.456  83.854  68.570 
102.739  84.848  64.703 
101.006  86.117  69.833 
99.584  88.043  69.352 
101.525  87.487  64.599 
100.212  90.480  55.899 
96.270  91.611  67.750 
95.772  91.922  68.836 
92.727  95.786  65.494 
99.714  88.040  68.669 
102.181  85.953  63.678 
97.222  89.166  70.097 
99.195  90.819  60.938 
93.116  95.484  65.800 
94.343  93.498  68.414 
91.582  97.120  68.558 
89.070  100.414  61.308 
87.933  99.653  69.169 
91.567  97.853  64.809 
90.643  99.384  65.316 
91.863  98.459  64.043 
83.969  102.007  68.531 
88.672  100.467  65.279 
87.943  99.502  68.275 
81.395  102.037  74.542 
86.014  101.942  65.592 
81.658  103.361  71.491 
84.908  103.242  62.319 
83.738  103.056  65.690 
84.562  103.246  62.999 
81.970  103.155  67.083 
84.598  102.693  64.644 
88.061  100.774  66.904 
80.229  103.585  70.138 
83.100  103.544  65.552 
79.716  105.077  67.167 
80.160  104.989  67.947 
80.473  104.956  66.740 
79.643  105.267  66.020 
78.156  105.778  66.895 
77.624  106.035  67.189 
76.883  106.228  66.057 
75.401  106.346  66.936 
74.136  106.657  65.763 
72.827  106.932  68.007 
72.761  107.358  66.621 
72.060  108.423  61.422 
72.922  107.237  64.631 
67.203  109.287  63.141 
71.819  108.464  55.912 
69.695  108.142  63.275 
67.351  109.038  66.042 
62.918  108.541  73.672 
69.952  107.610  70.593 
69.891  107.772  64.780 
66.249  109.506  63.724 
69.209  108.529  60.363 
68.323  108.834  61.940 
61.297  108.731  73.584 
54.071  109.811  59.240 
64.202  108.344  73.711 
58.950  110.266  60.980 
66.008  109.179  65.361 
65.979  109.773  64.136 
60.952  109.961  64.395 
50.524  109.708  62.500 
64.415  109.862  64.092 
60.488  109.235  65.467 
56.002  109.756  58.073 
54.992  108.807  71.547 
53.090  109.740  64.285 
55.468  110.102  61.657 
48.911  108.926  60.608 
56.846  109.326  67.402 
45.818  106.910  69.599 
53.828  109.836  57.137 
45.905  107.890  68.205 
45.270  107.236  63.973 
42.794  106.604  65.888 
45.267  107.366  62.806 
53.108  110.042  56.307 
44.988  107.612  67.782 
46.371  107.259  69.093 
47.665  108.251  65.267 
44.722  105.679  73.703 
46.085  108.055  64.689 
45.573  107.411  68.922 
38.173  104.463  67.671 
40.878  105.504  65.292 
41.527  105.660  67.893 
38.040  103.569  71.527 
37.975  103.996  67.429 
41.584  105.581  68.596 
38.133  104.595  66.776 
37.905  103.029  70.977 
35.585  101.567  71.939 
36.115  102.305  71.919 
35.602  102.395  68.899 
38.742  103.396  73.360 
33.825  101.653  66.318 
34.778  101.793  69.495 
33.237  100.674  70.437 
31.455  99.723  70.881 
31.833  100.057  68.482 
30.779  99.984  68.421 
30.482  98.867  69.774 
30.218  99.572  68.761 
30.880  99.568  70.264 
28.430  97.550  70.376 
27.827  97.223  69.667 
26.933  96.198  70.377 
26.423  96.626  68.615 
25.205  95.503  68.990 
25.128  95.662  68.102 
23.807  94.992  64.943 
19.850  91.197  62.195 
21.732  93.129  63.830 
19.517  88.192  70.099 
20.053  90.094  67.861 
24.312  93.141  73.987 
17.320  87.287  66.188 
17.546  87.720  64.917 
20.464  89.354  70.075 
17.273  83.921  72.241 
20.580  87.455  75.785 
17.970  87.659  68.062 
18.644  88.955  61.577 
16.419  84.639  63.408 
19.822  85.891  75.858 
19.917  90.411  60.729 
17.709  85.728  70.447 
16.292  84.598  68.403 
16.268  83.594  69.519 
15.835  84.280  66.999 
15.551  82.920  67.220 
15.011  80.914  68.626 
14.970  81.645  67.784 
14.419  79.642  68.105 
16.010  83.491  67.640 
14.965  78.507  70.240 
13.816  75.978  71.286 
14.877  78.158  69.240 
14.371  76.254  70.686 
12.996  75.102  68.239 
12.881  74.804  70.141 
11.636  68.882  70.447 
12.196  72.442  72.314 
12.147  72.478  69.567 
11.046  71.746  64.405 
10.539  69.498  66.078 
11.045  66.910  70.559 
11.175  66.011  70.927 
10.738  66.855  70.910 
10.850  69.653  68.522 
11.582  59.520  72.273 
11.179  67.101  72.346 
9.937  64.128  64.805 
10.983  58.088  68.008 
11.799  55.507  71.932 
10.669  66.115  68.387 
13.177  56.698  73.983 
10.203  60.254  66.904 
10.653  56.526  67.435 
11.349  56.013  69.589 
12.129  56.528  73.005 
11.702  55.558  68.933 
10.786  60.297  66.380 
11.729  54.244  69.155 
11.420  57.447  70.630 
11.819  54.078  70.184 
11.991  53.844  67.356 
11.604  53.329  67.896 
12.005  51.403  67.740 
11.823  52.028  67.205 
12.950  51.108  67.672 
12.714  50.194  67.253 
12.524  50.416  66.296 
13.304  48.775  66.194 
12.629  48.049  65.924 
13.624  48.950  72.396 
13.507  46.938  67.110 
13.354  47.148  67.799 
12.885  46.758  63.691 
14.192  42.234  65.919 
13.935  45.407  68.692 
13.377  44.270  62.607 
14.999  39.877  66.211 
14.278  42.117  63.894 
14.231  41.661  61.848 
16.720  35.891  62.824 
15.879  38.834  68.111 
20.772  30.934  69.348 
21.184  29.457  66.643 
18.105  35.626  67.799 
21.369  30.360  70.789 
20.268  30.604  65.244 
18.402  33.324  65.915 
24.532  27.243  69.278 
26.401  26.580  73.761 
25.799  26.968  69.712 
24.563  27.564  67.438 
19.911  30.817  62.463 
20.608  29.548  62.222 
22.412  27.268  62.418 
20.698  30.258  62.904 
18.432  32.834  59.162 
22.762  28.078  65.219 
24.407  25.678  60.176 
20.856  29.961  62.082 
19.389  32.465  67.427 
24.627  27.071  68.313 
21.609  29.252  66.211 
19.702  32.185  64.769 
25.496  27.033  72.832 
27.338  24.007  66.554 
29.454  22.885  67.406 
29.467  22.477  67.723 
31.429  21.699  65.986 
30.869  21.485  64.969 
31.848  20.936  65.255 
32.365  20.635  65.061 
32.094  20.087  64.689 
33.054  19.545  65.858 
33.853  19.470  64.621 
34.140  19.632  65.622 
35.002  18.389  65.304 
35.081  17.906  65.249 
35.326  17.895  65.988 
36.612  17.626  65.138 
35.735  17.415  64.837 
38.476  16.293  65.537 
41.228  15.500  68.366 
40.079  15.562  66.734 
38.102  16.348  66.927 
43.357  14.367  61.259 
39.336  16.028  66.809 
43.248  14.200  68.440 
42.072  14.728  63.549 
40.436  14.896  64.267 
41.562  14.564  61.356 
45.264  13.387  61.695 
43.905  13.757  66.860 
42.774  14.302  68.142 
49.719  11.978  69.007 
45.882  12.879  65.189 
47.897  12.445  62.889 
47.653  12.820  66.021 
48.492  12.369  63.403 
54.418  10.537  64.900 
54.259  10.531  63.654 
52.992  11.025  63.241 
51.465  11.569  68.673 
61.768  11.845  70.802 
59.729  10.367  63.629 
60.239  10.691  59.880 
47.971  12.963  63.162 
55.348  11.047  68.033 
61.928  11.138  67.819 
63.412  11.890  69.687 
61.616  10.668  65.391 
63.589  11.255  68.415 
62.751  11.114  65.123 
63.695  10.863  66.574 
63.791  11.718  64.950 
64.158  11.050  64.731 
64.261  11.256  67.150 
73.088  12.137  65.988 
65.320  11.294  65.831 
69.230  12.307  65.270 
68.816  11.741  65.709 
66.330  11.695  63.964 
68.309  11.745  66.057 
70.770  11.567  63.153 
68.202  11.338  62.869 
69.285  11.421  63.312 
70.939  11.378  60.697 
70.962  12.222  66.098 
69.725  11.196  58.733 
74.819  12.322  62.843 
79.332  14.326  61.174 
70.100  11.533  63.478 
77.523  13.446  66.264 
77.702  13.653  66.950 
78.475  14.583  60.812 
85.228  17.261  64.365 
82.851  16.176  64.121 
78.532  15.801  72.708 
78.557  14.145  61.805 
84.886  17.418  65.275 
83.024  16.816  61.674 
81.084  16.210  59.637 
80.873  14.859  63.391 
76.888  14.146  69.043 
87.250  19.024  67.177 
88.554  19.702  66.975 
86.660  17.731  65.971 
87.785  18.969  66.999 
88.733  19.667  65.199 
85.337  17.377  66.932 
88.739  20.433  61.799 
88.450  20.992  60.372 
88.790  21.327  59.493 
89.364  20.650  62.350 
90.614  22.423  72.127 
90.891  21.676  68.308 
87.647  19.357  64.989 
94.035  23.698  66.314 
90.719  23.984  75.002 
88.175  19.778  67.267 
98.404  28.787  65.469 
92.105  22.943  70.143 
98.496  28.828  61.163 
98.193  27.593  62.539 
101.877  34.173  63.369 
99.223  30.877  69.308 
99.900  30.761  62.350 
98.570  28.975  62.553 
101.734  33.203  57.957 
101.046  32.416  63.275 
96.470  26.357  60.314 
101.303  32.955  56.857 
99.684  32.151  70.452 
105.066  39.432  61.362 
99.232  29.551  63.037 
99.519  30.402  58.775 
100.104  32.830  70.625 
100.663  32.668  60.523 
104.081  39.103  69.514 
101.258  33.096  64.381 
102.962  38.302  70.075 
97.316  29.200  72.362 
107.596  44.899  64.631 
102.974  45.192  79.299 
103.366  37.191  67.151 
106.182  42.570  60.514 
107.036  43.787  64.434 
105.180  40.218  65.207 
103.157  37.213  68.776 
103.472  37.617  68.078 
107.578  47.922  69.537 
107.467  45.235  66.857 
106.189  42.382  62.498 
107.296  47.472  69.668 
103.538  38.815  72.792 
107.646  45.440  63.294 
105.791  44.260  73.408 
108.224  48.083  67.910 
108.714  48.989  65.805 
108.213  52.835  72.998 
107.551  50.644  72.803 
108.303  48.714  63.698 
109.705  53.176  69.815 
109.438  52.679  69.650 
109.560  55.954  67.343 
108.551  50.359  65.998 
110.341  58.831  67.140 
110.107  60.148  64.154 
109.959  57.086  68.126 
109.239  55.384  60.239 
109.397  51.301  65.365 
109.384  55.372  64.661 
109.991  59.979  63.529 
108.831  67.191  66.259 
108.695  68.605  64.541 
109.985  60.284  65.715 
107.984  66.814  74.344 
109.443  62.568  63.412 
108.745  64.693  70.699 
106.749  74.468  70.372 
107.514  76.519  64.933 
108.504  71.277  67.302 
106.773  75.951  66.638 
108.042  69.676  67.034 
107.961  69.002  72.728 
106.018  76.725  69.747 
106.313  77.755  64.060 
106.822  76.270  63.191 
106.098  78.712  59.376 
106.892  73.086  70.619 
105.826  79.096  63.834 
107.505  73.265  67.729 
106.001  77.747  66.786 
103.677  80.829  68.229 
103.319  81.995  68.565 
107.229  75.972  63.127 
105.378  80.082  66.556 
104.606  78.247  70.307 
104.319  80.049  68.849 
105.360  77.907  69.052 
104.393  80.998  65.227 
103.451  85.071  62.314 
102.166  85.590  66.142 
105.593  78.550  64.168 
101.116  86.562  67.165 
102.481  82.015  68.682 
99.945  87.109  67.165 
100.932  85.821  68.807 
99.984  90.790  56.954 
99.177  90.684  57.562 
100.300  86.525  69.922 
98.296  89.137  68.516 
103.335  84.480  60.751 
99.289  90.388  64.679 
98.504  89.115  67.677 
99.157  88.253  68.499 
95.348  91.498  71.169 
100.247  88.633  65.005 
94.911  92.299  69.759 
94.653  94.145  68.728 
95.270  92.379  66.877 
92.953  95.422  66.833 
92.533  96.210  68.255 
90.016  99.415  65.182 
92.623  95.751  68.598 
86.887  102.019  65.274 
93.173  95.512  68.226 
92.152  95.877  66.652 
90.766  97.328  68.657 
90.038  98.633  67.403 
89.827  99.282  66.027 
85.550  102.551  63.533 
87.351  101.426  68.991 
85.162  102.555  64.451 
83.796  102.630  65.033 
85.609  101.584  65.780 
83.935  103.654  58.414 
85.161  102.267  67.085 
86.662  102.212  59.828 
83.184  102.731  71.243 
82.910  103.132  65.133 
82.402  103.787  67.710 
82.236  103.825  65.489 
80.055  104.508  67.008 
81.357  104.727  66.273 
79.581  104.814  66.232 
78.794  104.710  66.272 
78.527  105.547  66.085 
77.908  106.088  66.186 
76.494  105.683  66.263 
75.020  106.195  66.178 
74.675  106.743  66.564 
75.125  107.046  65.484 
73.316  107.549  66.280 
73.927  106.467  66.500 
73.046  107.181  65.120 
75.248  107.111  61.817 
71.392  107.809  65.077 
72.845  107.627  60.857 
70.595  108.331  62.258 
66.666  109.739  65.085 
62.573  109.909  65.113 
69.163  108.301  61.789 
68.691  108.790  63.823 
61.775  109.626  60.937 
63.028  109.344  61.070 
67.126  109.030  60.393 
63.058  108.700  69.740 
67.147  109.329  64.344 
64.739  109.342  70.198 
59.990  109.457  69.034 
63.474  109.622  60.505 
60.529  109.188  70.522 
63.517  109.872  65.356 
60.353  109.546  66.988 
45.604  107.788  64.526 
58.517  109.642  61.447 
59.279  109.235  70.579 
59.421  109.756  67.837 
48.840  108.017  70.900 
44.282  106.804  70.807 
56.362  109.972  60.056 
57.493  109.635  68.776 
53.131  109.911  63.076 
46.441  107.080  59.478 
47.896  108.315  59.168 
46.100  107.622  60.558 
45.488  107.508  69.863 
43.167  106.242  64.161 
43.245  106.687  62.684 
45.825  107.316  61.267 
43.341  106.866  67.934 
43.524  105.334  73.299 
40.641  104.700  63.483 
38.830  104.639  65.441 
37.636  103.572  69.187 
44.427  105.413  73.082 
41.417  104.610  73.608 
38.383  104.165  65.926 
37.845  103.248  72.235 
44.195  107.127  67.769 
34.929  102.272  64.903 
39.895  104.695  64.903 
39.878  103.944  72.498 
34.408  102.421  69.208 
33.651  101.956  63.964 
37.879  102.730  72.001 
33.741  100.761  70.409 
36.012  101.804  69.955 
31.764  100.714  68.938 
31.394  100.353  69.377 
31.286  100.603  68.131 
29.765  98.866  69.288 
30.156  99.607  68.083 
30.903  100.447  67.556 
29.818  99.220  68.080 
30.532  98.995  69.213 
28.680  97.981  69.486 
27.421  97.428  68.551 
28.347  98.173  68.284 
24.266  94.828  69.449 
25.699  96.344  68.092 
24.614  94.951  68.721 
21.608  91.503  70.066 
20.336  91.775  65.133 
23.834  94.373  69.726 
17.047  87.021  61.042 
19.060  89.639  66.634 
21.730  90.017  72.784 
25.075  95.291  69.929 
17.886  88.386  64.604 
17.245  85.293  68.734 
18.653  89.195  60.005 
21.782  93.157  61.156 
19.701  88.998  70.078 
16.702  85.383  67.120 
19.351  89.237  65.991 
16.190  84.296  64.444 
16.065  83.834  66.108 
17.577  86.412  66.731 
16.299  84.653  65.718 
14.740  82.362  64.727 
16.358  82.835  68.372 
15.398  81.838  68.545 
15.053  80.023  67.389 
14.928  80.017  68.188 
14.672  79.046  68.352 
14.813  80.701  68.125 
14.266  78.431  68.953 
13.081  75.566  68.416 
13.853  77.438  65.831 
13.436  76.754  67.085 
14.112  77.604  69.586 
12.746  73.727  69.021 
11.852  71.602  70.679 
11.680  71.050  70.046 
13.394  74.126  72.232 
10.676  66.608  67.956 
12.799  74.126  66.297 
12.135  73.441  67.074 
10.723  68.874  64.924 
10.800  65.965  67.465 
12.510  72.542  73.072 
11.794  70.371  69.391 
10.469  68.564  66.038 
11.391  62.716  72.086 
10.740  63.993  69.461 
10.932  59.233  69.934 
10.657  59.744  68.504 
10.797  61.431  67.621 
11.673  55.659  70.826 
11.003  55.804  66.017 
11.529  57.615  72.062 
12.223  61.173  75.599 
11.322  58.169  70.971 
11.538  54.868  69.082 
11.451  55.575  70.230 
11.617  55.458  67.716 
11.183  55.096  68.146 
12.223  52.629  67.710 
11.736  52.461  67.490 
11.752  51.495  66.543 
11.980  51.322  66.970 
12.276  50.871  66.949 
12.190  50.108  66.543 
12.409  48.994  66.153 
12.903  48.765  65.604 
13.249  47.746  66.617 
14.211  46.321  67.035 
13.141  46.987  65.010 
12.584  46.743  62.868 
13.308  44.860  63.761 
14.251  39.915  61.038 
16.974  35.031  61.727 
13.356  44.024  63.426 
19.134  32.846  67.101 
14.050  41.165  61.102 
14.665  43.966  68.897 
22.827  28.039  69.109 
19.992  32.664  70.378 
14.662  44.313  70.318 
16.072  39.203  69.460 
20.189  31.483  65.001 
19.644  31.492  58.125 
22.855  28.710  68.082 
19.420  31.600  62.799 
18.802  31.934  63.036 
22.498  28.062  66.036 
20.261  30.830  67.709 
20.064  32.730  72.219 
22.482  28.086  69.397 
21.429  28.868  66.989 
20.470  29.924  64.748 
21.161  29.753  57.000 
22.057  28.456  62.870 
26.266  23.703  61.094 
24.324  25.387  59.015 
23.540  26.920  63.378 
22.704  27.295  64.648 
23.091  27.403  65.713 
25.602  24.535  55.307 
26.367  25.255  66.295 
30.237  21.269  60.304 
24.760  25.418  60.992 
29.409  23.621  68.911 
28.041  23.348  65.743 
23.470  28.229  70.751 
29.852  22.659  65.597 
29.453  22.598  69.038 
30.571  21.876  65.879 
32.817  20.444  65.697 
34.038  19.457  64.184 
34.210  19.070  65.048 
34.726  18.996  64.885 
34.933  18.396  64.593 
35.849  17.752  65.341 
35.716  17.980  64.499 
37.411  17.308  64.231 
36.653  17.032  66.010 
36.901  17.008  62.853 
37.181  17.055  64.678 
39.935  15.290  65.899 
37.630  16.710  63.268 
40.639  15.125  67.073 
42.610  14.228  61.684 
42.840  13.904  62.964 
44.099  13.804  63.503 
38.926  16.138  64.715 
41.017  14.646  64.828 
44.259  14.191  61.891 
41.840  14.340  62.071 
41.427  15.569  70.435 
44.888  12.925  63.973 
48.891  12.547  65.889 
42.643  13.998  66.601 
51.297  11.166  70.045 
47.208  12.241  63.896 
51.604  12.606  74.546 
50.707  11.490  62.201 
52.937  10.424  66.099 
60.971  10.675  66.058 
55.470  11.151  55.844 
61.413  10.473  60.520 
58.450  10.738  65.502 
58.937  10.451  64.889 
54.315  10.992  61.155 
62.800  11.150  66.700 
58.246  10.419  62.172 
61.782  10.658  63.182 
63.288  10.927  65.574 
63.337  10.964  63.729 
62.952  11.025  62.415 
62.637  10.939  64.236 
60.997  10.816  63.203 
63.606  10.962  64.309 
65.290  11.385  64.091 
67.964  11.633  64.353 
65.998  11.614  64.801 
66.456  11.749  62.215 
68.070  11.340  63.576 
66.163  11.584  65.600 
70.612  11.576  62.586 
72.532  12.020  64.231 
74.640  12.130  61.881 
70.833  12.684  66.448 
71.850  11.983  64.842 
79.151  14.165  64.152 
80.730  14.766  66.586 
74.478  13.130  67.878 
78.835  14.540  64.001 
78.302  16.079  74.068 
79.387  14.269  66.454 
72.159  11.597  61.694 
79.420  14.422  62.129 
72.535  12.194  62.170 
80.853  15.261  62.816 
78.646  14.539  66.886 
82.793  15.918  68.380 
82.710  16.322  59.939 
89.720  21.136  60.213 
79.248  14.130  63.259 
86.357  17.807  65.462 
85.009  17.700  61.460 
88.985  19.859  66.790 
86.650  19.248  61.112 
80.383  15.724  70.400 
84.684  17.702  69.350 
89.583  21.085  66.524 
87.097  19.610  61.438 
90.249  21.849  61.282 
89.380  21.573  60.385 
91.590  22.395  62.813 
90.900  22.222  60.842 
89.573  20.976  70.865 
93.536  23.122  65.009 
86.940  18.526  65.026 
88.980  20.699  60.388 
97.586  26.957  63.715 
89.098  20.403  65.143 
97.430  27.968  66.365 
97.324  29.520  72.920 
97.891  28.034  65.481 
97.512  27.791  68.795 
95.806  25.718  65.281 
98.208  28.830  68.100 
100.521  30.996  63.551 
101.059  32.057  61.823 
101.214  32.650  61.206 
98.550  28.197  62.331 
104.001  38.149  67.226 
99.035  30.362  63.913 
98.923  29.533  60.817 
99.283  30.087  60.470 
102.113  34.112  64.996 
101.759  33.403  63.720 
104.267  37.645  61.946 
105.359  41.468  62.588 
103.461  36.472  63.167 
99.565  30.488  67.030 
106.353  42.768  63.239 
103.065  35.026  63.325 
106.624  43.599  64.335 
105.944  41.978  65.541 
105.348  43.421  74.550 
104.404  39.653  65.856 
106.574  43.342  66.852 
105.665  41.900  64.211 
106.920  45.166  67.106 
106.719  43.097  64.961 
105.745  42.402  71.588 
107.164  44.260  63.890 
106.180  42.049  67.473 
107.526  49.307  73.538 
106.036  42.126  68.245 
106.865  44.127  67.689 
108.415  47.999  65.623 
108.546  48.833  66.508 
107.898  49.067  70.265 
108.872  50.375  69.437 
109.961  56.222  63.707 
109.166  52.702  68.037 
108.849  49.683  66.587 
108.352  50.591  63.730 
108.606  48.703  65.246 
108.865  51.183  64.969 
109.236  53.565  64.104 
110.135  56.345  64.201 
110.031  55.614  64.601 
109.308  62.140  62.552 
109.095  64.445  63.290 
109.800  64.158  66.170 
108.603  63.061  60.104 
110.060  58.946  66.483 
108.975  64.633  62.189 
109.131  65.643  61.474 
109.104  66.168  66.705 
108.943  67.346  67.689 
109.348  60.930  69.521 
109.092  63.547  63.826 
108.377  69.310  62.187 
108.011  69.860  62.135 
108.464  68.705  63.261 
106.739  75.335  62.961 
107.929  71.091  63.236 
107.209  75.252  68.204 
107.718  72.563  64.013 
107.308  74.637  66.992 
107.403  71.837  61.269 
107.844  73.217  62.850 
105.967  78.175  61.558 
105.377  80.474  64.526 
105.917  78.931  65.433 
105.919  79.444  66.086 
104.048  78.824  70.564 
104.074  79.780  68.202 
106.131  78.334  65.215 
105.545  80.384  63.507 
102.067  83.873  66.999 
104.789  80.647  65.173 
103.857  81.332  66.934 
103.545  82.267  66.202 
101.697  85.157  67.442 
100.708  87.119  65.826 
103.214  84.349  64.259 
101.446  85.904  67.552 
102.021  86.692  64.912 
101.500  87.561  58.431 
100.935  87.588  65.808 
102.700  86.327  60.074 
101.834  87.533  61.013 
97.061  90.192  68.794 
99.111  87.911  69.342 
99.757  89.194  63.932 
97.422  90.391  67.839 
98.410  88.387  70.485 
95.913  91.711  69.317 
96.475  91.128  67.872 
102.514  85.407  65.324 
96.571  93.886  63.698 
94.315  94.664  67.086 
92.378  98.456  62.674 
87.507  101.602  66.028 
93.822  94.489  67.530 
93.348  94.849  66.267 
92.289  98.225  58.500 
90.404  98.874  65.940 
85.522  102.409  65.210 
89.862  100.051  64.638 
85.667  101.281  72.904 
87.701  101.404  65.368 
87.217  101.546  63.394 
84.628  102.504  65.528 
89.793  100.653  60.544 
88.053  100.385  67.239 
83.079  103.504  66.176 
83.396  103.635  62.367 
82.950  102.912  66.738 
83.246  103.467  67.975 
81.849  103.991  66.170 
83.705  102.428  67.256 
81.513  104.359  65.535 
80.966  104.874  65.519 
79.895  105.006  65.486 
79.015  105.404  65.958 
79.009  105.438  65.228 
78.424  105.933  65.555 
77.690  105.822  65.829 
76.896  105.678  65.416 
75.675  106.491  65.667 
75.235  107.004  66.016 
74.466  107.066  65.821 
73.456  107.638  62.552 
72.597  107.495  63.952 
73.572  107.317  65.479 
71.760  108.611  60.119 
71.054  108.633  57.507 
71.418  108.507  58.037 
69.138  108.507  62.922 
66.183  108.937  58.494 
69.139  108.630  59.032 
67.567  109.180  65.657 
70.008  108.753  58.651 
64.294  110.038  66.407 
62.967  109.395  70.377 
64.341  109.282  62.819 
69.549  108.565  59.468 
67.985  108.537  65.130 
65.988  109.830  63.171 
67.670  109.473  64.530 
59.502  109.724  60.467 
59.036  110.154  66.831 
64.742  109.915  65.614 
60.181  110.048  61.040 
56.280  109.851  63.205 
56.430  108.986  72.037 
59.056  109.678  64.941 
57.822  109.619  67.295 
56.494  109.393  62.995 
56.104  110.175  62.299 
57.342  109.486  66.403 
49.040  108.877  65.142 
48.663  108.908  63.209 
53.847  109.776  61.303 
53.415  109.386  56.265 
49.129  109.109  62.538 
45.585  107.023  59.983 
50.844  109.082  57.642 
42.830  104.790  74.850 
44.861  107.106  62.490 
42.486  106.265  65.348 
40.404  105.197  69.165 
45.937  108.146  66.258 
36.972  103.852  67.833 
39.773  105.391  64.543 
38.974  104.572  68.456 
40.573  105.828  66.043 
43.706  107.112  66.846 
41.466  106.034  67.122 
37.994  104.384  68.255 
37.771  103.997  64.441 
36.980  103.276  68.570 
35.930  102.150  72.950 
36.517  102.621  71.734 
34.122  102.532  64.383 
36.075  103.079  67.709 
37.423  102.814  69.116 
33.435  102.004  68.408 
34.059  101.125  70.377 
32.876  101.348  68.404 
32.250  100.821  68.825 
31.027  100.636  66.593 
33.561  101.198  68.385 
30.413  99.596  67.220 
28.183  97.862  69.052 
29.320  98.364  69.814 
28.203  97.385  68.927 
28.738  97.543  68.705 
27.422  97.143  67.169 
25.632  95.668  67.428 
26.526  96.167  67.908 
18.416  87.686  67.801 
19.089  88.989  67.665 
22.412  93.103  68.836 
19.161  90.020  61.530 
23.346  92.329  70.923 
17.978  88.443  61.270 
19.234  89.817  63.979 
23.323  93.851  68.209 
18.809  89.413  64.152 
17.203  86.935  62.977 
22.740  91.822  70.034 
20.539  90.501  61.423 
18.142  88.371  63.127 
18.114  87.402  66.183 
16.390  85.451  64.631 
19.004  90.379  63.276 
17.144  84.889  69.638 
16.038  84.518  67.919 
16.096  83.204  69.135 
15.007  81.558  66.179 
15.517  81.743  69.357 
14.322  79.586  66.156 
15.410  82.112  68.140 
14.331  79.183  66.492 
13.680  77.585  67.429 
13.539  76.318  68.204 
14.033  77.827  68.716 
12.499  74.657  64.996 
12.708  74.915  68.747 
13.463  75.342  69.460 
14.565  78.182  70.174 
11.087  70.372  62.524 
9.985  64.245  61.777 
11.262  71.596  65.909 
11.613  72.177  62.858 
10.293  68.119  64.436 
11.650  71.208  68.904 
13.095  73.322  73.277 
12.011  67.048  74.561 
10.744  66.187  70.168 
11.005  58.122  69.298 
12.747  73.833  68.106 
10.229  66.609  66.617 
10.296  59.033  65.679 
9.830  64.617  64.326 
9.879  61.150  63.098 
10.844  60.435  70.879 
10.873  58.579  66.439 
10.000  58.945  60.513 
11.394  61.295  72.163 
11.324  59.760  70.781 
11.424  61.054  71.210 
10.518  56.733  66.036 
10.826  57.821  68.904 
10.902  55.390  67.287 
11.761  54.713  67.128 
11.312  53.951  67.280 
12.186  52.844  66.871 
11.545  52.644  66.238 
11.996  51.857  66.032 
11.936  50.863  66.168 
11.881  50.224  65.435 
12.595  49.432  65.985 
12.451  48.667  65.333 
12.147  48.893  64.655 
13.059  47.399  66.224 
12.661  47.810  65.476 
12.605  47.419  64.622 
12.511  46.082  62.238 
15.377  38.486  63.028 
13.447  46.178  66.761 
15.068  40.203  62.078 
15.437  40.887  69.255 
15.914  39.855  68.681 
15.586  41.354  68.329 
16.530  39.241  72.805 
15.126  39.239  59.508 
19.187  34.906  70.589 
15.038  40.950  65.243 
19.318  31.973  63.980 
20.637  31.889  68.458 
18.660  32.800  65.463 
18.595  33.442  66.874 
21.877  28.122  60.877 
17.886  35.261  66.691 
18.618  35.805  72.115 
19.328  31.034  62.143 
21.058  29.432  59.982 
22.319  28.599  64.553 
28.952  21.633  60.974 
18.831  32.479  61.395 
22.791  27.216  61.521 
24.856  24.621  61.318 
24.300  27.000  64.675 
25.208  25.941  63.916 
23.643  27.572  65.724 
25.572  24.764  59.383 
24.872  26.315  65.087 
24.789  26.887  65.800 
27.724  24.268  63.534 
27.993  24.075  66.053 
26.265  24.717  62.718 
29.256  23.748  67.840 
30.495  22.032  67.039 
29.277  23.220  65.719 
31.284  21.271  64.757 
30.155  21.519  64.792 
30.768  20.985  64.551 
33.302  19.349  64.985 
33.032  20.021  64.694 
33.936  18.547  63.426 
34.037  18.456  64.238 
35.204  17.787  64.059 
35.706  17.697  63.118 
36.307  17.085  63.543 
36.122  17.860  64.151 
36.583  17.025  65.119 
44.023  13.451  62.815 
36.839  17.003  63.465 
38.820  15.949  63.353 
39.473  15.545  64.384 
42.712  14.563  65.353 
44.261  13.739  62.187 
40.208  14.944  58.681 
42.690  14.329  60.773 
39.595  15.358  56.874 
43.229  13.819  63.388 
45.273  13.223  64.089 
43.561  14.095  64.070 
53.635  11.371  70.161 
51.396  11.257  66.091 
54.954  10.678  63.230 
48.915  12.167  64.137 
52.609  10.998  65.238 
52.577  11.685  61.710 
50.935  12.042  72.468 
54.365  10.368  62.860 
58.885  9.919  59.155 
53.479  10.960  60.861 
50.084  11.931  68.603 
50.147  11.362  64.102 
61.646  10.851  66.733 
55.834  10.879  63.334 
61.560  11.047  64.710 
60.724  10.822  60.067 
60.546  10.950  64.604 
63.521  11.302  67.554 
62.505  10.589  65.656 
60.548  10.625  63.516 
62.572  10.461  63.506 
62.064  10.389  64.575 
67.925  11.705  66.791 
64.592  11.071  62.730 
62.624  10.590  62.854 
67.447  11.380  63.537 
65.322  11.643  63.108 
68.075  11.787  62.097 
70.647  11.621  60.968 
67.824  11.937  62.457 
67.830  11.921  63.946 
72.365  12.163  60.151 
72.350  12.252  66.443 
79.473  14.494  64.808 
74.723  11.556  59.269 
71.483  11.977  63.148 
75.540  13.545  52.937 
75.500  12.141  57.616 
79.064  14.598  59.290 
75.939  12.896  62.273 
73.667  13.643  72.374 
76.704  13.209  66.049 
80.842  15.060  65.659 
78.481  14.276  62.720 
74.917  12.918  68.850 
84.491  17.135  62.946 
80.474  14.475  67.529 
79.767  14.916  59.925 
85.589  18.390  62.373 
81.736  16.590  62.273 
84.045  16.979  65.106 
85.802  18.131  63.176 
86.595  19.010  62.000 
87.362  19.451  69.677 
86.032  18.979  62.430 
89.164  20.863  61.047 
89.657  21.647  61.072 
88.803  20.854  59.531 
88.380  20.905  58.678 
87.707  19.684  61.952 
91.606  22.941  60.600 
92.138  23.759  60.422 
87.743  18.700  66.276 
91.976  22.669  66.879 
89.598  21.249  63.976 
90.591  21.474  67.128 
98.797  28.855  67.035 
98.664  28.386  61.820 
97.088  27.848  67.055 
98.822  28.322  63.753 
98.866  29.579  62.632 
99.099  31.309  69.033 
98.858  29.278  68.311 
98.974  29.850  65.962 
96.220  28.568  52.073 
94.766  26.790  54.464 
97.413  28.276  60.747 
99.138  29.773  58.601 
98.468  29.354  59.456 
100.505  31.050  65.616 
99.436  30.019  61.387 
105.152  41.022  63.950 
101.517  33.565  56.095 
103.844  37.421  64.742 
104.232  37.683  63.706 
101.008  32.182  64.208 
99.552  31.022  59.599 
105.191  40.676  58.719 
104.766  40.457  69.278 
104.563  40.710  72.682 
101.636  33.620  65.130 
102.250  36.021  67.622 
105.655  41.626  64.883 
106.280  42.729  65.672 
106.654  42.800  67.618 
104.583  38.445  64.798 
105.511  41.022  64.289 
105.004  39.271  62.431 
107.026  43.104  66.319 
108.114  46.094  64.794 
107.690  46.321  64.441 
107.085  44.701  65.501 
105.889  46.313  74.317 
107.952  47.360  66.084 
108.108  46.596  63.669 
107.851  48.071  63.243 
107.792  45.661  64.753 
107.743  49.631  63.882 
108.688  49.630  64.799 
108.357  50.144  64.361 
109.501  55.136  64.225 
109.751  54.731  68.987 
109.780  53.517  66.226 
109.387  54.097  64.714 
109.286  54.136  65.211 
109.941  57.036  66.656 
109.395  53.855  70.368 
109.160  68.161  67.544 
109.286  63.166  61.240 
109.029  65.272  63.665 
109.132  60.653  57.446 
108.911  62.918  61.417 
109.339  62.885  62.073 
108.078  67.270  63.419 
108.500  67.580  63.190 
109.123  67.267  68.975 
108.780  66.028  63.559 
108.459  67.206  62.411 
109.426  64.730  64.018 
108.384  68.070  65.248 
107.478  71.373  62.779 
107.461  74.128  68.587 
107.624  74.026  67.293 
108.125  70.661  60.960 
107.868  72.323  63.308 
105.999  78.208  64.212 
105.080  79.962  67.248 
107.379  74.405  67.914 
107.672  72.705  66.011 
106.357  76.844  63.825 
105.436  78.125  64.926 
104.506  78.247  69.497 
106.224  77.491  62.111 
107.473  75.095  62.552 
107.615  74.664  63.582 
105.062  80.513  65.837 
105.217  78.963  68.202 
