28.488  97.152  49.443 
26.082  96.402  53.588 
29.572  99.798  57.445 
20.677  89.980  48.664 
19.270  87.046  50.248 
20.113  89.635  51.426 
19.598  88.003  48.411 
22.568  91.629  47.893 
18.931  87.325  51.524 
18.440  86.042  48.601 
17.997  84.066  50.423 
18.597  85.793  49.514 
17.718  85.269  50.910 
17.592  84.265  49.399 
17.751  83.539  48.104 
17.293  83.662  50.162 
16.944  82.002  50.394 
16.346  81.154  50.088 
16.737  80.803  49.445 
16.189  79.780  50.365 
15.267  78.082  50.566 
15.487  78.095  50.141 
15.850  77.627  50.080 
15.443  76.858  50.010 
14.339  76.243  51.131 
13.978  74.711  50.024 
14.070  75.756  51.294 
13.815  74.706  51.336 
13.144  73.342  51.070 
14.092  73.744  50.051 
14.547  71.852  47.800 
13.667  73.418  49.831 
13.259  70.284  51.235 
13.178  68.924  49.552 
13.076  69.504  50.087 
12.785  69.601  51.144 
13.020  67.941  48.672 
13.132  68.095  47.924 
12.495  66.537  51.280 
12.274  65.393  48.885 
12.225  66.690  50.592 
12.152  63.322  48.446 
11.791  62.408  49.559 
11.930  65.823  50.921 
11.816  63.172  49.935 
11.476  61.446  51.301 
11.453  60.689  50.363 
10.314  62.600  60.295 
11.980  57.279  47.806 
11.556  57.190  49.569 
11.215  59.627  50.191 
10.911  56.287  52.534 
11.689  53.219  46.959 
10.226  60.453  56.129 
10.496  54.864  51.953 
10.540  54.163  53.288 
11.676  52.558  49.303 
10.707  57.561  54.155 
11.110  54.017  48.344 
13.822  48.956  45.781 
13.497  49.418  46.588 
12.563  46.099  54.831 
11.029  51.723  53.542 
15.058  48.585  44.817 
14.947  46.981  45.341 
15.120  45.458  47.207 
15.356  44.779  46.627 
15.619  44.630  47.825 
15.833  43.543  47.587 
15.991  43.049  48.421 
15.814  42.527  48.685 
16.591  41.440  48.177 
16.044  41.212  48.336 
14.800  40.507  52.741 
16.358  40.778  49.302 
16.440  39.804  50.288 
17.052  38.709  49.668 
18.920  37.122  46.990 
18.218  36.178  49.765 
16.608  37.872  52.441 
18.234  36.879  48.153 
19.207  37.004  45.848 
16.099  37.753  51.512 
17.826  33.991  53.264 
18.957  32.068  54.331 
17.973  36.530  49.004 
21.228  33.967  45.968 
19.291  32.076  51.449 
21.412  30.369  49.510 
25.868  26.266  47.692 
25.145  28.122  44.279 
17.045  35.037  52.853 
24.497  29.640  44.908 
24.689  26.920  50.069 
26.571  25.244  46.558 
26.269  30.138  39.681 
18.701  33.044  51.427 
23.362  30.532  46.644 
31.612  25.137  41.181 
23.659  28.203  49.035 
28.022  25.795  43.315 
34.734  19.443  48.650 
30.656  25.553  43.118 
35.390  19.090  48.525 
31.643  21.744  48.045 
33.315  20.561  49.240 
37.103  16.333  53.698 
37.799  17.943  49.157 
36.180  19.044  47.898 
35.406  19.570  47.649 
38.883  18.331  47.576 
38.126  18.590  47.072 
40.180  17.217  46.990 
39.993  18.276  46.268 
41.056  18.019  46.094 
41.404  17.249  46.566 
44.902  14.506  48.486 
43.620  17.028  44.273 
41.986  17.539  44.166 
44.232  16.888  43.404 
44.499  16.112  43.967 
43.201  17.779  41.906 
45.376  15.107  45.437 
43.444  16.835  43.439 
46.236  16.045  44.133 
45.056  16.131  44.267 
46.576  14.204  46.101 
49.356  13.226  47.691 
48.086  13.938  46.201 
47.689  13.950  47.643 
55.073  13.839  42.783 
45.847  15.807  44.409 
49.467  12.939  49.952 
58.479  10.645  51.782 
53.628  11.632  48.323 
51.669  13.683  44.530 
59.646  12.555  43.635 
58.580  11.768  47.651 
52.517  13.087  45.479 
63.221  10.424  54.351 
62.708  10.527  53.001 
54.160  13.854  44.537 
58.125  12.518  44.596 
58.617  10.708  55.724 
56.848  11.406  49.065 
61.928  12.659  45.311 
60.967  10.488  57.116 
51.589  12.558  47.224 
61.213  10.073  54.356 
59.816  12.381  44.307 
68.261  12.481  46.521 
67.335  13.303  44.772 
68.237  12.529  45.967 
72.444  14.345  45.521 
71.710  11.929  52.311 
67.650  14.433  42.832 
68.191  11.413  51.562 
72.357  13.496  48.775 
73.115  14.452  45.997 
72.979  13.039  50.318 
71.278  12.537  48.689 
77.565  16.002  48.059 
76.860  17.641  43.582 
74.311  16.090  44.451 
73.868  13.945  49.964 
75.522  15.321  46.217 
78.359  17.469  44.057 
76.070  15.714  45.344 
80.712  19.731  44.820 
80.492  18.175  46.800 
82.953  20.624  44.926 
80.479  17.356  49.165 
82.594  19.184  47.559 
83.970  20.885  46.242 
84.501  20.407  47.382 
82.464  20.298  45.218 
83.445  20.441  47.482 
85.674  21.758  46.718 
86.218  21.549  47.965 
86.407  22.310  46.856 
87.348  23.173  46.793 
87.080  22.911  47.386 
87.744  23.374  47.112 
88.371  23.744  47.510 
88.247  24.408  46.747 
87.747  24.826  45.941 
89.003  25.278  46.128 
89.863  26.504  46.504 
90.079  25.959  45.953 
89.973  26.631  45.465 
90.772  26.949  45.365 
90.964  28.180  44.123 
92.817  28.527  46.653 
92.468  29.344  44.670 
92.845  29.960  44.517 
93.688  30.419  45.329 
94.191  30.792  46.614 
95.074  31.531  45.396 
94.941  30.104  47.120 
94.379  30.378  46.278 
94.339  31.160  45.051 
96.235  34.419  43.044 
99.422  34.665  48.750 
97.507  35.352  44.281 
98.646  35.779  46.527 
100.656  36.352  48.981 
98.572  33.326  47.959 
99.734  37.449  46.692 
100.942  38.584  47.942 
98.710  39.675  42.889 
100.414  38.908  46.099 
99.724  40.481  44.348 
100.665  39.612  46.648 
102.522  40.856  48.872 
101.243  41.176  45.446 
101.830  41.358  46.131 
102.334  42.366  46.083 
102.702  43.423  46.396 
101.617  43.086  44.684 
103.490  45.756  47.133 
104.105  45.697  46.945 
103.651  46.515  47.326 
104.334  46.854  46.942 
105.098  47.567  48.378 
104.698  47.900  48.226 
105.558  49.182  48.551 
105.513  49.328  48.030 
105.287  50.298  48.232 
105.777  50.413  47.788 
106.382  52.360  48.725 
106.264  52.830  47.679 
106.255  53.363  48.396 
106.795  53.196  50.591 
106.176  53.771  50.553 
106.325  55.564  46.011 
108.302  55.889  52.163 
107.585  57.483  47.639 
106.755  59.429  46.003 
106.726  53.897  49.816 
107.641  59.427  48.410 
106.937  57.944  45.762 
106.361  56.063  45.222 
104.861  67.631  41.971 
107.031  59.831  46.766 
106.732  60.570  46.328 
107.828  61.577  50.673 
108.330  57.185  50.662 
105.722  67.696  42.973 
101.279  69.629  36.177 
105.270  74.371  46.787 
106.499  71.068  49.910 
105.493  64.562  41.107 
106.241  70.683  45.840 
106.093  69.168  45.815 
107.354  67.737  49.729 
105.290  71.267  45.253 
105.475  74.553  47.222 
101.908  71.175  37.431 
102.779  74.009  42.114 
104.225  75.055  44.824 
103.354  80.642  50.825 
106.287  71.835  49.296 
104.900  80.077  54.326 
106.502  73.250  52.010 
105.273  78.207  51.713 
103.275  77.759  46.172 
103.564  76.077  43.603 
103.002  81.171  49.191 
103.805  76.923  45.999 
102.605  82.672  49.132 
101.364  84.096  49.000 
100.349  86.837  48.041 
99.919  85.216  44.996 
102.807  79.899  47.132 
93.472  92.728  45.286 
94.920  91.642  45.872 
97.975  87.175  43.251 
101.989  81.807  46.115 
96.559  90.184  44.413 
99.011  85.564  43.012 
93.709  93.223  44.600 
98.992  87.846  46.238 
96.474  91.335  47.464 
90.336  95.269  45.745 
95.981  91.071  45.367 
91.236  94.133  43.284 
89.427  96.062  46.277 
97.936  89.079  46.593 
89.167  96.116  44.764 
97.075  91.877  49.543 
86.705  97.334  45.721 
88.249  97.775  46.984 
90.375  94.380  42.910 
88.456  97.275  46.158 
84.229  100.070  46.389 
92.507  96.129  49.432 
88.440  96.535  44.076 
86.695  97.480  44.736 
88.796  99.784  53.171 
86.589  99.392  48.424 
80.941  103.097  46.550 
86.432  98.233  47.196 
85.904  98.157  43.419 
81.582  102.798  47.756 
83.058  99.545  43.726 
82.410  102.468  47.259 
82.469  100.410  42.760 
80.620  104.153  48.405 
84.310  103.395  56.124 
78.547  104.863  45.577 
79.185  103.124  44.173 
78.705  104.228  44.200 
81.254  103.005  48.672 
77.811  103.263  42.058 
85.485  100.495  48.746 
75.333  106.431  50.233 
75.184  106.860  52.764 
75.613  105.828  45.502 
71.958  106.961  47.697 
67.809  105.904  41.885 
68.746  106.206  43.133 
74.815  102.598  38.425 
75.665  105.289  46.323 
65.924  105.730  44.090 
76.243  105.543  45.632 
65.435  106.773  45.282 
66.681  106.629  45.232 
64.921  106.970  47.428 
65.508  106.356  43.792 
63.606  106.800  46.708 
62.342  106.280  43.681 
61.302  106.301  45.252 
60.130  107.261  46.273 
63.055  106.476  44.243 
58.966  108.118  48.384 
59.458  107.483  48.791 
60.616  107.692  46.939 
60.703  107.055  46.035 
58.780  107.901  47.456 
55.737  106.015  44.667 
57.357  107.293  46.839 
52.411  105.650  45.955 
55.618  109.306  52.329 
55.177  107.477  47.104 
53.008  106.186  46.373 
57.769  108.279  48.974 
55.327  106.983  46.153 
48.844  105.840  48.024 
46.374  104.792  46.906 
48.603  107.323  50.920 
49.995  106.621  48.232 
49.497  105.593  47.060 
46.652  105.676  51.704 
46.865  105.937  50.843 
46.399  106.030  49.443 
46.028  104.755  47.688 
45.329  104.159  46.210 
45.172  105.177  48.726 
42.836  104.187  50.846 
42.405  104.349  49.938 
44.546  105.028  48.343 
41.458  104.061  49.812 
38.229  103.211  49.046 
44.039  104.909  48.954 
39.121  103.082  50.155 
38.317  102.605  47.843 
40.516  102.505  45.941 
37.678  102.489  49.414 
36.797  101.691  48.629 
37.925  102.153  47.218 
33.151  100.766  48.500 
37.211  102.311  49.160 
34.536  101.400  51.366 
35.665  99.751  41.912 
31.836  100.330  50.860 
31.914  97.261  42.224 
28.936  97.515  47.387 
26.787  94.879  44.070 
23.048  91.391  45.481 
25.084  92.649  41.954 
31.281  97.314  45.821 
33.385  101.137  50.574 
24.514  94.786  51.581 
28.329  95.844  44.543 
23.037  93.073  50.108 
21.967  91.304  46.343 
28.553  96.812  47.541 
25.566  95.832  51.664 
24.971  94.756  50.720 
24.276  94.750  56.849 
21.299  90.417  47.266 
23.629  94.311  53.798 
21.625  88.872  46.727 
18.950  86.916  48.369 
29.168  98.131  50.015 
19.457  86.810  48.378 
20.844  90.243  49.551 
18.765  85.629  50.692 
18.211  86.124  49.586 
18.010  82.935  47.004 
18.010  84.825  48.694 
18.198  83.952  48.729 
18.026  82.575  49.250 
17.730  83.093  48.987 
16.646  81.852  49.735 
16.211  80.507  49.924 
17.112  81.532  49.342 
15.973  79.568  49.689 
15.983  79.062  49.709 
16.308  78.051  49.202 
14.678  76.419  49.439 
14.227  75.766  49.591 
14.920  75.297  48.731 
14.441  75.266  49.446 
14.335  75.409  50.430 
13.899  74.598  53.538 
13.460  73.504  50.741 
13.979  74.126  50.927 
13.907  70.186  47.838 
12.824  70.846  52.634 
13.281  70.268  50.573 
13.579  68.750  47.922 
14.361  70.278  48.467 
13.863  69.384  48.283 
13.598  71.245  51.302 
12.618  67.072  50.027 
12.286  66.494  49.240 
12.261  66.018  49.529 
12.133  65.256  49.839 
12.972  66.402  49.881 
11.739  63.718  50.177 
12.504  62.363  48.373 
10.673  57.937  51.962 
12.082  59.095  48.902 
10.817  55.457  50.401 
11.085  61.982  53.503 
10.772  59.774  51.435 
11.992  55.227  47.120 
11.023  58.369  51.855 
10.940  61.281  53.475 
13.018  50.667  46.272 
13.780  48.248  47.521 
12.491  54.507  44.076 
11.648  52.704  47.070 
12.879  49.491  49.174 
10.762  53.106  53.896 
10.395  53.654  53.319 
14.795  49.817  44.412 
12.769  47.779  49.712 
14.882  47.685  45.882 
11.602  49.310  52.160 
10.757  55.759  48.935 
14.835  46.243  47.433 
15.679  45.094  46.965 
15.579  44.270  47.379 
15.428  43.793  47.577 
16.435  43.888  47.153 
16.374  42.848  47.650 
16.350  41.586  47.291 
17.163  41.565  47.038 
16.953  39.889  47.762 
16.422  40.450  48.007 
16.245  40.018  48.671 
17.959  39.367  47.443 
19.469  31.541  53.878 
17.599  38.872  48.053 
18.504  35.632  48.762 
17.241  38.531  48.144 
20.318  33.900  48.413 
20.497  34.480  47.653 
19.991  36.277  46.674 
17.289  37.911  48.966 
18.970  35.893  48.083 
22.546  31.999  44.572 
24.574  29.006  44.454 
19.155  35.142  49.268 
22.372  34.301  41.493 
27.526  23.264  51.678 
25.181  26.422  47.032 
26.493  25.851  48.531 
24.008  27.103  47.952 
24.334  28.745  45.268 
23.889  27.172  48.676 
27.791  25.381  45.386 
25.099  25.598  52.065 
29.338  22.534  48.930 
27.527  25.536  46.230 
30.841  23.607  46.203 
28.341  23.917  47.422 
31.857  18.578  55.121 
28.543  24.473  46.734 
29.162  22.254  49.783 
32.439  20.655  49.376 
33.941  20.182  48.319 
34.096  20.215  47.526 
34.277  19.598  48.808 
35.189  19.550  48.380 
33.896  19.756  48.499 
40.487  17.439  47.645 
38.061  18.404  47.666 
39.826  18.909  44.726 
40.874  18.401  44.549 
42.796  17.079  44.377 
40.971  17.394  46.309 
43.610  15.661  47.297 
40.342  18.537  43.923 
42.958  17.555  43.926 
43.588  16.526  46.800 
43.739  17.422  42.270 
47.550  13.861  48.644 
44.088  15.366  46.717 
48.362  15.257  44.493 
49.342  14.280  45.159 
49.079  13.252  49.321 
50.209  14.085  46.051 
48.636  13.865  45.678 
54.296  11.603  47.605 
48.945  14.769  43.688 
51.018  14.324  43.846 
46.544  15.392  44.927 
49.487  13.314  48.717 
50.250  14.251  44.680 
55.512  13.168  43.784 
50.794  12.515  47.958 
54.356  11.545  48.613 
57.877  11.879  46.281 
58.879  12.087  46.670 
58.889  12.703  45.305 
64.003  13.234  44.770 
64.193  16.312  37.333 
60.343  11.363  48.469 
58.073  11.164  50.347 
59.838  10.147  55.820 
65.970  12.860  45.771 
68.303  11.984  51.012 
59.442  12.170  45.136 
67.283  11.854  47.733 
67.603  11.752  51.496 
71.243  13.028  47.422 
70.570  14.112  45.074 
67.353  12.340  46.292 
69.859  14.191  43.724 
68.140  13.134  45.395 
72.957  14.340  46.601 
72.544  13.920  47.988 
76.606  15.893  46.073 
72.954  15.602  42.552 
72.647  12.444  51.528 
74.224  15.251  45.845 
76.424  14.754  50.388 
75.680  17.037  41.360 
74.149  15.015  44.968 
77.588  16.993  45.814 
74.316  15.903  42.855 
78.176  18.241  43.705 
82.026  19.223  47.455 
81.298  18.970  46.200 
80.957  18.422  45.822 
79.525  17.928  45.797 
83.299  19.603  47.273 
85.194  21.127  47.116 
86.054  22.344  46.296 
84.830  21.767  46.808 
85.212  21.961  44.901 
85.135  23.111  43.167 
84.533  21.709  45.932 
85.798  21.937  45.413 
86.448  22.994  46.507 
86.653  22.846  45.559 
86.898  22.731  46.594 
87.697  23.921  46.445 
87.229  23.533  46.144 
88.365  25.420  46.768 
89.179  25.950  45.578 
90.135  25.372  46.868 
89.092  25.978  44.781 
88.442  26.125  45.473 
90.643  26.880  46.125 
91.451  29.116  42.347 
92.235  28.584  44.856 
92.363  28.906  45.907 
93.928  30.185  45.779 
94.249  30.985  44.204 
94.788  30.431  46.472 
95.913  33.484  43.455 
96.632  32.541  45.561 
95.048  33.303  42.956 
94.910  34.410  42.197 
98.937  35.518  45.463 
98.068  33.006  47.966 
96.943  34.909  43.214 
99.377  33.610  49.335 
98.820  37.280  44.035 
99.880  36.195  46.619 
100.521  37.207  46.664 
99.181  39.302  44.721 
99.818  37.441  45.805 
98.958  38.918  43.400 
99.982  39.796  44.272 
100.556  39.313  45.207 
100.760  39.595  45.669 
101.103  41.677  44.567 
101.260  42.152  44.569 
102.075  43.130  44.941 
102.160  43.504  45.873 
102.486  43.846  45.499 
103.469  45.233  46.959 
103.396  46.383  46.470 
104.251  46.101  47.443 
104.230  47.250  46.265 
105.029  48.272  47.454 
105.569  48.966  47.675 
105.040  48.962  47.920 
105.680  49.852  47.709 
105.428  49.549  47.032 
105.421  51.223  48.087 
105.463  50.306  47.133 
105.851  51.616  46.738 
106.705  54.457  47.785 
108.994  58.847  53.276 
107.870  55.020  51.999 
107.551  54.351  52.199 
106.565  53.541  48.878 
106.573  54.415  49.059 
106.960  56.651  48.189 
105.545  54.966  44.419 
108.005  59.830  50.663 
106.282  59.866  43.457 
107.892  60.274  49.748 
107.642  61.495  49.407 
105.605  64.125  42.355 
108.319  60.147  51.361 
104.836  62.563  39.649 
107.996  62.289  48.241 
105.076  67.160  42.474 
106.234  65.649  44.286 
103.288  64.299  37.591 
105.269  71.943  46.895 
105.738  68.210  43.758 
104.512  65.620  41.703 
108.275  62.080  50.384 
106.108  69.187  44.379 
105.438  70.501  44.411 
107.109  68.039  48.475 
105.317  74.015  48.795 
103.861  75.076  44.043 
105.408  76.526  48.851 
105.524  75.641  48.606 
105.392  73.235  46.287 
105.567  75.506  53.027 
100.770  84.781  47.091 
101.846  84.115  50.226 
101.867  79.461  42.225 
105.437  77.698  50.208 
103.842  81.729  51.119 
101.614  80.815  44.463 
98.366  86.549  42.800 
100.504  83.388  45.357 
102.733  73.329  40.499 
93.941  90.282  40.622 
99.839  79.642  38.682 
96.071  88.486  40.183 
101.549  83.349  47.448 
100.215  89.124  56.080 
96.005  88.504  41.924 
99.410  86.340  44.762 
98.422  88.131  45.621 
96.821  86.877  41.758 
99.114  88.434  46.948 
93.925  94.904  50.446 
94.037  92.591  44.798 
94.402  93.963  47.472 
88.180  98.903  48.608 
90.026  98.057  49.067 
92.337  97.555  50.620 
88.480  96.532  44.633 
88.050  97.225  44.653 
92.380  95.247  48.112 
89.634  99.063  50.451 
91.907  92.431  40.810 
88.619  95.743  43.496 
88.508  95.879  42.835 
87.765  96.822  44.398 
89.217  95.447  42.415 
85.501  97.618  43.260 
80.729  103.514  46.180 
88.749  100.235  52.829 
83.453  99.836  45.166 
84.439  99.562  44.128 
91.561  98.026  51.451 
82.564  102.764  48.842 
83.841  100.209  44.720 
82.033  100.885  44.355 
82.855  99.824  42.186 
81.821  100.957  43.286 
82.525  100.668  43.635 
83.948  99.304  43.372 
80.480  105.363  57.777 
80.675  103.760  47.582 
82.039  103.997  51.087 
79.300  104.444  46.817 
78.467  103.177  43.760 
76.377  105.987  48.273 
70.950  106.249  42.922 
71.133  105.724  44.612 
76.267  105.747  46.094 
71.100  106.630  46.972 
68.089  105.437  43.190 
65.364  105.571  43.345 
65.347  103.706  37.880 
73.020  104.488  39.459 
67.160  107.076  47.081 
64.343  107.246  46.777 
62.982  106.117  44.648 
60.303  106.398  45.417 
62.963  107.043  45.689 
62.427  106.762  44.921 
58.889  107.694  46.484 
61.529  107.364  47.088 
61.650  106.707  45.262 
59.489  107.525  46.872 
59.850  107.863  46.823 
58.819  106.744  46.156 
57.504  107.830  48.682 
57.453  108.122  50.158 
54.237  106.795  46.776 
47.985  104.893  45.969 
55.946  107.366  45.788 
55.423  109.337  53.546 
58.516  108.016  48.492 
49.717  106.134  48.018 
51.071  105.826  45.825 
56.288  107.937  48.147 
50.250  105.907  46.020 
47.691  106.289  49.646 
52.308  105.572  44.596 
48.468  104.609  45.986 
46.353  105.913  49.898 
47.460  106.665  51.143 
45.613  105.761  50.486 
45.910  105.235  48.242 
47.931  106.125  48.419 
47.126  104.389  46.403 
44.082  105.253  49.981 
45.414  105.262  48.263 
43.016  104.625  50.076 
41.346  104.477  50.692 
39.557  101.775  44.094 
40.410  103.759  50.899 
38.723  100.643  40.888 
41.269  102.825  47.881 
36.834  100.030  42.048 
38.134  102.791  50.657 
38.342  102.071  45.682 
38.781  102.530  48.749 
29.967  96.745  44.459 
34.567  100.539  45.091 
35.961  101.696  48.825 
35.208  101.166  46.782 
36.047  100.895  45.835 
31.809  99.413  46.116 
31.010  97.482  43.413 
30.000  96.434  44.074 
29.165  96.682  46.550 
28.109  96.519  46.370 
32.816  99.396  45.141 
25.964  93.847  48.103 
32.944  100.217  48.438 
23.513  94.199  52.935 
22.352  91.939  48.905 
26.771  96.926  50.660 
23.103  93.306  51.997 
22.712  93.691  54.422 
23.826  93.715  50.047 
23.718  93.384  49.631 
25.240  95.202  51.429 
21.242  90.124  48.582 
22.456  93.731  55.638 
20.418  86.948  46.410 
21.682  92.423  60.034 
20.156  88.327  48.755 
19.631  88.052  49.379 
22.073  92.308  50.706 
19.548  89.363  52.035 
18.565  86.372  48.105 
18.716  83.395  46.855 
18.187  83.293  47.611 
17.947  82.365  47.175 
17.762  83.055  47.385 
17.295  82.473  49.600 
17.074  82.369  49.165 
16.772  81.357  48.279 
17.377  80.943  48.688 
16.325  79.899  49.411 
15.620  78.939  50.396 
14.839  76.547  48.648 
15.352  76.541  47.774 
15.389  76.695  48.334 
15.143  75.796  49.605 
14.703  75.818  48.715 
14.546  73.611  49.332 
13.886  74.119  49.463 
14.074  73.305  49.173 
15.193  74.171  48.070 
14.715  72.466  47.265 
14.604  73.568  46.067 
13.326  69.155  49.138 
13.667  72.485  50.329 
14.109  69.269  47.609 
12.974  67.657  49.961 
13.721  67.843  47.200 
12.868  67.245  48.421 
13.241  68.029  50.653 
12.729  66.396  48.812 
13.222  67.514  49.451 
12.215  65.056  48.139 
11.402  63.013  50.670 
12.167  64.201  50.559 
12.171  63.048  48.988 
11.545  61.873  52.775 
11.602  59.943  49.417 
11.298  53.296  49.846 
12.360  60.332  48.168 
12.147  56.758  46.172 
11.169  58.140  50.448 
11.086  56.910  49.820 
10.979  55.018  48.673 
11.382  54.550  47.337 
10.170  62.617  56.174 
14.264  50.557  43.197 
10.650  56.102  50.631 
10.567  55.976  51.733 
11.799  50.284  48.576 
11.168  55.279  49.552 
14.189  48.179  47.014 
13.907  45.974  50.055 
14.407  47.775  45.606 
14.149  47.085  46.677 
15.425  46.756  45.570 
15.734  46.093  46.104 
15.198  45.338  45.921 
15.961  44.544  46.693 
15.765  43.693  46.703 
16.028  43.533  46.284 
16.519  41.930  46.490 
16.790  41.397  46.708 
17.490  41.224  46.754 
17.188  40.403  47.339 
17.586  39.796  47.263 
17.960  39.338  45.818 
17.186  39.437  48.021 
16.420  39.584  49.405 
19.644  35.460  47.847 
19.829  36.412  45.895 
18.419  37.813  48.241 
17.718  37.374  48.734 
20.847  35.227  44.498 
18.704  35.911  49.103 
22.349  30.255  47.130 
17.450  36.086  50.174 
22.499  31.242  46.229 
22.731  30.397  46.070 
23.707  28.707  46.660 
22.091  31.751  45.914 
19.506  33.748  49.919 
30.389  23.879  44.992 
24.767  27.415  46.401 
29.015  25.283  45.261 
20.239  32.293  49.643 
26.192  25.621  47.221 
29.351  23.136  47.740 
24.215  26.127  50.612 
21.896  31.178  47.262 
25.847  26.777  45.410 
27.071  26.763  42.619 
22.971  27.740  51.894 
29.973  21.821  50.538 
32.326  21.721  47.653 
31.992  21.700  48.817 
33.503  21.233  47.886 
34.586  19.840  47.991 
34.899  20.174  47.549 
35.701  19.498  47.185 
36.242  20.088  47.275 
38.206  18.736  46.251 
36.582  19.573  47.307 
38.547  19.340  45.864 
38.631  18.909  45.522 
39.685  18.287  45.260 
39.050  19.352  44.643 
45.895  13.899  49.268 
41.667  17.721  44.744 
42.038  17.146  44.965 
44.535  16.866  42.617 
46.017  17.142  42.445 
42.987  17.344  42.837 
46.921  15.820  43.275 
45.236  15.742  43.871 
49.359  14.960  42.830 
52.107  12.434  47.861 
51.762  13.062  45.912 
48.458  15.253  43.079 
49.692  14.886  43.457 
44.859  15.083  46.235 
44.035  15.001  46.286 
50.446  13.802  45.278 
48.895  13.507  48.322 
53.085  13.914  44.317 
50.447  13.410  46.729 
55.231  12.634  44.574 
61.676  11.847  47.061 
58.803  11.552  49.973 
53.203  13.387  45.303 
62.950  10.735  52.214 
62.035  13.366  41.520 
62.294  10.991  50.223 
64.214  12.013  46.734 
62.610  13.204  43.022 
60.532  12.383  44.109 
62.168  13.073  43.309 
66.862  11.402  51.027 
65.454  13.078  43.766 
66.680  13.707  43.762 
69.384  11.571  52.957 
73.100  13.796  47.354 
74.070  12.867  52.306 
63.369  12.414  44.898 
69.220  14.354  43.036 
72.064  14.436  44.861 
70.561  14.454  43.486 
71.048  13.097  47.918 
70.176  14.286  43.245 
73.842  14.383  45.889 
75.152  14.917  46.990 
76.353  14.659  51.433 
72.420  15.737  41.901 
76.392  16.590  44.333 
74.512  15.241  44.458 
73.747  14.831  45.264 
74.698  15.677  43.657 
79.262  17.205  46.167 
77.390  16.340  47.304 
79.559  18.863  44.265 
81.799  19.955  44.431 
82.701  19.713  45.891 
83.019  20.488  45.927 
83.961  20.063  46.681 
84.008  21.265  45.211 
83.716  20.610  45.496 
84.388  21.878  44.543 
85.725  22.507  44.098 
84.982  22.349  43.985 
85.268  22.233  43.345 
85.649  22.454  46.033 
86.061  23.130  45.548 
86.969  23.581  45.188 
86.963  23.122  45.784 
87.155  24.442  46.053 
88.355  24.878  46.062 
89.021  26.066  43.838 
89.706  25.558  46.325 
88.725  25.383  45.226 
90.362  27.213  45.537 
90.731  27.587  44.739 
90.070  27.093  44.759 
91.640  29.066  43.200 
92.888  29.141  44.935 
93.561  31.014  43.587 
93.129  30.439  44.566 
92.825  28.884  45.369 
96.310  34.005  44.871 
95.711  33.310  45.075 
94.928  33.508  42.519 
95.629  31.755  45.748 
96.443  35.021  42.469 
95.674  33.276  44.140 
95.676  32.658  44.419 
99.315  36.453  45.397 
99.026  36.112  45.107 
98.927  36.228  45.910 
99.243  34.468  48.002 
99.287  38.746  44.207 
100.171  35.872  47.991 
99.415  39.211  43.478 
98.793  38.026  43.594 
99.666  39.972  43.625 
100.721  41.361  44.712 
101.722  42.087  45.202 
100.635  40.634  44.669 
102.398  43.579  44.981 
102.187  42.639  45.331 
103.421  45.374  46.398 
103.215  45.158  45.626 
103.379  45.660  45.911 
103.565  46.268  45.918 
104.312  48.188  47.432 
104.500  47.848  46.696 
104.908  48.097  46.608 
105.391  48.893  46.888 
105.023  49.765  46.880 
105.371  50.136  46.285 
105.539  50.784  46.996 
105.137  51.504  46.938 
105.599  51.960  47.782 
106.192  53.203  46.396 
105.968  54.299  47.434 
107.043  58.953  47.300 
105.298  54.062  45.355 
108.822  57.654  52.136 
106.832  53.416  51.524 
106.556  54.424  46.896 
105.819  57.969  43.535 
105.798  63.539  41.768 
107.273  62.311  47.707 
105.551  63.257  41.362 
106.408  59.341  44.069 
106.932  68.092  47.099 
105.483  64.815  41.536 
105.944  71.573  48.405 
107.158  66.355  49.036 
105.392  62.604  41.019 
107.055  62.368  46.813 
106.252  67.582  44.505 
106.130  70.872  46.546 
105.784  69.311  46.887 
104.970  74.029  45.881 
103.636  67.942  39.654 
103.047  69.835  38.773 
105.702  65.271  42.409 
105.285  68.458  43.497 
102.499  76.509  41.514 
104.754  72.633  45.329 
103.826  79.176  47.735 
105.371  75.516  50.052 
103.642  80.132  48.780 
101.665  80.729  45.302 
106.207  74.083  50.419 
102.441  78.020  43.116 
101.981  78.509  41.958 
102.049  76.626  40.822 
106.232  75.180  51.316 
103.528  80.757  48.697 
102.367  78.249  42.683 
103.939  75.659  44.226 
97.758  87.860  44.405 
100.974  85.536  48.582 
99.421  86.320  46.418 
103.196  79.046  46.210 
94.248  91.898  44.545 
101.422  85.014  50.711 
93.001  94.887  47.619 
96.011  89.028  42.795 
97.882  90.578  49.586 
100.563  83.427  43.738 
94.415  94.119  48.300 
91.693  94.544  45.458 
94.417  94.415  48.877 
90.050  96.637  46.771 
90.081  96.020  45.744 
97.459  89.246  45.451 
91.912  91.290  40.344 
91.536  94.642  44.680 
90.694  93.034  40.678 
86.905  99.838  48.168 
88.389  98.461  49.385 
94.494  91.552  42.607 
89.917  95.031  43.039 
88.992  94.672  42.623 
87.985  96.328  42.367 
87.698  96.468  43.534 
87.393  97.461  44.864 
84.207  100.553  46.388 
87.717  98.721  48.043 
87.539  100.747  53.682 
85.153  98.980  44.172 
85.200  98.486  44.976 
85.006  101.059  48.421 
78.971  105.116  47.963 
85.576  98.846  44.416 
82.099  100.035  42.069 
80.857  101.899  43.834 
79.807  101.156  41.602 
79.903  103.457  45.242 
75.229  103.279  40.944 
79.655  101.695  42.960 
79.807  104.706  50.913 
75.075  106.955  51.836 
75.733  106.131  48.863 
76.276  106.777  52.709 
72.659  106.577  46.821 
70.629  106.735  46.701 
66.892  105.336  42.356 
68.355  105.967  44.547 
72.933  105.021  41.109 
68.944  104.831  41.323 
75.815  103.002  39.943 
74.679  106.069  50.104 
73.969  102.620  38.057 
63.583  106.561  44.312 
62.597  106.745  47.273 
62.438  107.239  46.594 
63.093  106.856  46.578 
65.915  106.732  45.922 
62.899  107.404  47.132 
63.356  106.857  45.099 
63.092  106.058  43.561 
57.295  106.429  44.772 
58.229  106.449  45.585 
54.646  107.106  47.586 
57.577  106.429  44.243 
56.672  108.922  51.195 
54.463  106.023  45.086 
57.924  108.679  49.888 
56.984  107.796  47.557 
50.545  107.500  50.022 
52.713  106.885  46.832 
52.124  105.287  45.121 
54.658  107.172  45.636 
53.867  106.727  45.507 
49.535  105.334  45.615 
48.703  104.977  45.683 
48.639  105.305  46.517 
48.435  106.443  49.048 
47.166  106.056  48.821 
47.348  105.864  48.172 
48.245  105.694  48.303 
46.177  105.514  48.724 
44.729  105.319  49.253 
45.150  104.784  47.650 
41.485  104.039  48.884 
43.372  104.183  50.012 
38.367  102.191  46.436 
39.632  102.719  47.089 
39.136  102.923  48.160 
43.592  103.143  45.002 
38.892  102.184  46.309 
39.070  102.117  45.836 
40.056  103.173  47.996 
36.365  101.579  49.354 
41.755  102.211  44.418 
35.837  100.624  44.145 
35.282  101.026  46.287 
30.483  97.453  45.491 
37.049  99.656  40.756 
27.315  93.864  41.692 
35.640  100.051  44.772 
35.316  101.255  47.326 
23.440  92.287  46.454 
27.063  94.308  44.212 
27.404  95.642  47.012 
28.655  96.096  45.451 
29.791  97.209  46.169 
35.046  97.983  39.340 
25.098  94.789  48.835 
23.006  92.670  51.776 
25.694  96.649  54.536 
31.017  98.606  45.560 
22.127  92.824  53.810 
23.941  91.471  41.715 
21.144  90.795  50.291 
22.145  88.180  41.376 
20.065  90.056  51.151 
22.273  93.180  55.478 
21.409  88.811  45.364 
22.310  89.638  42.742 
19.470  86.976  49.123 
18.489  85.028  46.538 
19.567  85.508  44.260 
19.124  86.214  46.589 
19.312  85.294  44.999 
18.011  84.248  49.920 
17.912  85.138  48.236 
18.037  84.405  47.096 
16.722  81.595  48.869 
17.684  82.695  48.144 
17.040  82.196  48.544 
16.824  80.363  48.233 
16.605  80.594  48.622 
16.545  79.607  48.606 
15.916  78.550  49.660 
15.511  77.899  49.328 
15.117  77.149  48.256 
16.124  77.414  47.126 
15.039  74.760  46.032 
15.037  74.807  46.952 
14.614  74.723  47.864 
14.820  75.219  47.679 
14.375  74.179  48.730 
13.885  70.096  49.960 
14.463  73.752  48.162 
14.292  70.184  46.431 
14.302  71.215  46.160 
14.649  71.506  46.986 
13.567  68.893  46.247 
12.989  68.491  48.454 
12.516  67.246  49.086 
12.530  65.840  48.193 
12.882  66.529  47.964 
12.102  65.826  48.617 
12.254  64.659  47.797 
12.164  64.352  49.703 
12.304  63.575  49.300 
11.971  64.471  49.053 
11.782  61.487  49.838 
10.843  60.181  52.205 
11.981  62.330  48.803 
11.696  60.464  51.103 
11.468  59.711  48.794 
11.657  56.514  46.728 
12.000  57.298  47.018 
11.924  55.126  46.525 
12.657  55.941  43.235 
13.357  50.950  45.949 
14.737  49.763  43.467 
12.095  52.652  47.607 
10.539  55.484  52.675 
13.519  48.993  47.860 
11.858  56.637  45.323 
10.051  53.924  52.507 
11.335  57.793  50.797 
12.125  46.180  55.330 
15.065  48.210  44.054 
15.281  46.494  44.618 
15.833  46.233  44.626 
16.106  45.657  45.432 
15.851  44.926  45.459 
15.820  44.197  45.996 
16.243  43.609  45.463 
16.512  43.201  45.454 
16.447  42.583  46.193 
17.056  40.887  46.437 
17.552  40.157  45.965 
16.878  40.738  47.172 
18.002  40.070  46.681 
17.368  37.204  49.389 
16.695  37.556  51.417 
18.522  37.586  46.787 
19.009  37.915  45.105 
18.072  38.222  47.099 
22.918  31.231  45.014 
22.062  34.265  44.397 
19.664  35.347  47.054 
23.121  31.473  44.455 
21.813  32.595  46.069 
23.121  31.652  43.775 
23.923  32.242  41.656 
21.274  30.258  50.640 
24.684  27.980  45.102 
22.248  33.833  44.976 
23.533  30.999  44.300 
27.804  29.150  39.482 
25.162  30.133  41.541 
26.458  26.251  45.675 
29.605  25.851  39.663 
31.634  22.791  45.681 
24.118  27.519  49.070 
23.219  26.189  53.000 
22.840  28.023  50.181 
26.637  27.158  43.810 
26.872  24.930  49.544 
26.098  28.254  41.824 
30.046  22.890  47.215 
31.261  22.387  47.334 
33.073  21.312  47.287 
33.646  20.652  47.470 
34.730  19.998  47.076 
35.061  19.921  46.770 
35.390  20.167  46.107 
38.131  19.133  47.058 
37.505  18.583  48.335 
38.604  18.424  46.791 
38.569  19.286  44.350 
37.771  18.932  46.183 
38.989  18.483  46.049 
39.477  19.435  44.266 
40.908  18.688  42.804 
40.016  18.222  44.688 
43.886  17.401  42.817 
42.470  18.328  42.030 
43.380  18.346  41.281 
44.583  17.343  41.906 
47.803  15.684  42.190 
47.735  15.995  42.916 
49.864  15.155  43.966 
47.491  14.427  45.100 
46.661  15.746  44.177 
48.456  14.398  44.912 
43.229  15.546  46.815 
50.940  14.537  42.475 
50.959  13.583  45.126 
54.557  10.971  52.333 
55.590  14.424  41.640 
51.814  13.806  43.702 
53.003  11.160  51.957 
52.235  11.467  51.580 
50.794  13.759  45.694 
55.032  12.439  45.481 
51.140  12.796  47.634 
60.489  13.445  41.557 
59.480  13.473  41.185 
55.641  16.612  37.114 
61.705  12.172  48.375 
57.506  11.249  49.574 
56.328  10.214  50.937 
69.415  12.236  48.159 
60.727  12.901  43.284 
68.586  12.140  47.137 
67.515  14.014  43.555 
60.897  12.713  46.536 
66.140  13.188  44.168 
66.393  14.811  41.459 
66.797  11.904  46.999 
71.260  14.759  45.091 
69.334  14.121  44.299 
71.064  15.084  42.255 
70.016  13.643  45.005 
76.528  16.393  44.867 
70.570  15.326  43.461 
76.457  17.045  44.230 
74.290  16.499  41.959 
73.023  15.983  42.902 
71.177  14.679  44.602 
76.122  15.478  47.287 
78.929  18.079  44.078 
78.433  19.548  39.181 
78.828  17.702  45.675 
83.112  19.897  45.381 
81.712  19.985  43.672 
82.579  19.941  43.996 
82.146  19.769  43.639 
83.149  20.315  44.051 
84.515  20.813  45.601 
84.027  20.624  46.665 
83.176  21.027  44.226 
84.790  21.018  46.420 
84.164  21.525  43.061 
83.173  21.648  41.999 
85.625  23.138  44.068 
85.652  22.281  44.603 
86.200  23.138  44.648 
86.543  23.644  44.391 
87.172  23.978  45.573 
87.956  24.936  45.147 
88.132  25.380  45.762 
88.529  25.901  43.752 
89.427  27.512  43.980 
89.705  26.457  45.103 
89.488  27.453  43.457 
90.269  27.657  44.157 
91.797  29.298  43.614 
90.920  28.327  43.187 
91.820  28.932  44.754 
92.387  29.275  44.111 
93.929  30.100  45.000 
94.303  31.912  45.553 
95.109  31.970  44.907 
95.151  32.854  43.729 
94.294  33.833  42.312 
97.143  36.211  42.988 
96.804  33.830  46.006 
97.609  33.169  46.302 
100.544  35.905  48.777 
96.620  34.450  43.700 
98.067  33.850  46.458 
100.839  37.590  47.367 
98.718  38.354  44.793 
97.858  36.619  44.573 
98.551  40.502  42.348 
100.102  42.375  42.656 
99.542  41.173  42.521 
100.769  40.979  45.307 
99.673  41.364  43.494 
100.440  41.430  43.987 
101.645  41.908  45.860 
102.565  44.330  44.671 
102.772  44.908  46.001 
103.380  45.888  45.159 
103.159  46.597  45.621 
103.412  46.904  44.596 
103.704  46.930  45.420 
103.307  47.582  45.413 
104.625  48.541  47.211 
103.814  48.794  45.359 
104.727  48.615  46.189 
105.013  49.425  46.150 
105.182  51.964  45.658 
105.541  50.695  46.218 
105.998  52.372  46.141 
105.930  53.299  45.482 
105.712  51.689  46.166 
106.622  55.954  47.016 
107.045  54.508  50.681 
106.639  60.524  44.078 
105.199  68.589  41.980 
105.748  55.397  45.202 
106.894  57.416  44.934 
106.104  61.906  46.030 
107.243  64.746  46.822 
105.836  66.044  43.405 
107.111  67.545  47.720 
106.614  63.477  46.793 
107.657  62.860  48.941 
108.470  61.017  49.534 
102.485  69.227  37.865 
106.995  60.762  45.777 
105.314  62.391  42.173 
105.511  64.661  43.686 
105.892  68.720  45.087 
105.376  69.137  44.046 
103.708  71.894  42.093 
101.894  69.861  36.975 
104.849  70.543  43.084 
103.830  69.793  40.124 
103.288  69.559  39.174 
105.869  73.321  50.797 
104.494  81.470  52.894 
103.146  79.109  45.664 
103.410  79.804  47.330 
104.728  77.159  48.622 
105.323  76.689  50.652 
99.757  84.093  43.770 
101.429  80.154  44.431 
104.298  76.187  45.649 
102.452  77.019  41.918 
105.239  75.649  47.877 
104.757  79.536  51.310 
98.435  87.388  45.016 
100.381  81.846  42.726 
96.751  89.208  44.093 
98.193  85.994  42.174 
99.603  85.914  45.449 
96.422  92.637  49.607 
93.974  93.073  45.518 
95.045  91.852  44.928 
94.811  93.536  47.143 
94.232  92.024  43.194 
93.418  92.596  42.925 
95.739  93.024  50.075 
95.162  89.569  42.288 
94.490  90.536  41.529 
96.065  92.091  47.737 
90.562  96.057  47.191 
96.012  88.083  39.446 
92.994  93.993  46.307 
94.691  86.267  36.452 
95.627  93.758  52.817 
93.160  93.335  43.225 
92.911  94.840  48.178 
91.888  93.740  43.352 
90.558  93.995  43.069 
92.504  95.373  47.350 
89.927  94.196  40.958 
86.554  96.932  42.628 
86.930  98.881  47.771 
84.602  99.476  44.991 
85.051  98.715  43.370 
86.503  97.228  43.835 
85.672  97.543  41.658 
83.323  100.848  45.267 
82.975  100.119  43.049 
85.725  98.510  46.033 
80.660  100.954  41.472 
80.663  102.652  45.257 
82.971  101.065  46.064 
83.881  101.812  48.149 
77.832  102.669  41.107 
77.445  104.907  45.895 
74.723  105.235  43.366 
82.974  103.882  52.714 
76.930  106.357  49.488 
74.921  106.370  48.858 
71.882  106.028  45.346 
71.315  106.826  49.853 
78.438  104.352  45.946 
75.886  106.326  49.652 
71.774  106.390  47.345 
70.493  105.902  45.918 
67.107  104.927  41.907 
70.281  106.341  45.424 
69.920  105.540  41.109 
63.949  106.272  44.541 
65.563  106.999  46.648 
68.564  107.444  49.521 
66.795  106.402  44.492 
66.067  106.663  45.084 
64.913  107.024  46.686 
62.241  106.448  44.621 
60.762  106.998  45.019 
63.543  107.333  47.276 
62.310  106.801  45.970 
60.638  106.394  44.074 
58.810  106.191  43.777 
58.419  106.501  43.762 
55.333  106.396  44.714 
55.815  106.947  44.905 
57.843  106.966  44.912 
55.866  106.275  44.183 
56.288  107.976  47.574 
57.051  107.177  46.136 
55.921  106.069  43.709 
49.747  104.901  44.953 
49.141  107.337  50.991 
52.201  104.833  43.245 
57.823  107.630  47.492 
47.482  104.018  46.099 
47.567  104.327  45.659 
45.916  103.634  44.610 
47.982  105.315  46.637 
46.174  105.194  47.820 
47.349  105.041  48.101 
46.528  104.378  47.076 
43.912  102.980  43.760 
44.408  103.230  46.224 
43.309  104.254  48.955 
40.243  102.004  46.666 
43.979  104.128  46.775 
41.855  102.500  44.928 
43.458  101.957  42.019 
44.598  103.761  46.057 
38.501  101.170  43.539 
39.409  103.290  49.268 
36.915  101.109  45.320 
37.120  100.328  41.749 
29.418  96.195  44.120 
32.610  98.799  44.568 
32.501  97.723  43.229 
37.067  101.151  44.551 
33.004  100.088  46.951 
35.007  98.552  39.737 
32.995  99.882  46.225 
36.295  101.082  44.460 
30.624  97.849  45.840 
39.532  100.561  40.519 
32.482  98.207  42.364 
23.889  93.175  47.756 
30.871  96.602  43.011 
27.959  94.019  41.360 
26.010  95.539  50.357 
26.424  97.458  52.916 
26.650  97.049  52.409 
24.768  94.116  48.135 
21.971  92.236  49.918 
23.763  93.131  48.631 
21.466  90.204  46.073 
23.666  93.672  51.999 
22.912  91.207  44.758 
20.905  87.029  42.664 
21.094  90.756  48.909 
20.021  88.388  47.786 
18.627  86.523  50.143 
21.298  89.682  46.743 
22.793  86.911  39.883 
18.242  83.786  46.937 
17.907  84.252  48.008 
17.428  81.596  46.690 
18.304  83.486  45.098 
18.403  84.573  47.884 
17.066  80.509  47.330 
17.478  82.221  47.797 
16.792  80.786  47.823 
17.042  80.310  49.515 
16.289  79.213  48.863 
15.562  77.700  47.622 
15.696  78.483  48.625 
15.562  77.993  48.486 
16.368  78.203  46.551 
15.130  76.281  46.926 
16.070  76.810  44.359 
15.400  75.459  47.518 
14.988  75.267  45.947 
14.236  70.770  48.289 
14.150  72.740  49.254 
14.164  73.193  48.465 
14.293  70.883  47.414 
13.774  69.719  45.399 
13.659  68.792  47.384 
13.647  69.083  44.938 
13.643  69.179  45.800 
13.289  67.226  48.182 
13.638  67.521  47.606 
12.619  64.782  48.271 
12.910  66.036  46.999 
12.072  64.060  48.161 
12.040  63.418  47.530 
12.504  63.152  47.695 
12.293  62.585  47.825 
12.200  61.835  47.197 
11.784  61.328  48.984 
11.968  60.405  47.492 
11.311  59.295  49.102 
12.052  56.090  47.359 
11.157  57.896  49.737 
11.531  56.691  48.030 
11.683  58.414  48.509 
11.482  54.411  48.192 
13.986  51.913  42.719 
12.544  51.998  45.051 
10.537  59.519  53.316 
10.542  55.752  55.735 
12.148  47.174  52.808 
11.734  49.718  50.875 
14.395  46.845  47.100 
14.565  52.807  40.901 
14.752  46.484  46.392 
14.303  49.288  44.114 
14.922  47.145  44.452 
15.522  45.945  43.898 
15.884  44.803  44.699 
16.437  44.115  44.677 
16.485  44.434  45.273 
16.806  43.698  45.218 
16.570  43.129  46.244 
17.009  41.778  45.379 
17.317  41.850  46.088 
17.096  40.942  45.839 
18.009  40.089  45.385 
18.478  38.827  45.598 
18.626  38.394  44.712 
18.383  38.944  44.636 
20.205  35.966  44.808 
18.619  38.453  46.754 
21.355  34.917  44.573 
23.919  30.201  44.845 
21.296  33.639  46.809 
18.417  37.561  47.364 
20.025  35.666  45.484 
19.150  35.973  48.536 
24.289  31.052  42.649 
22.536  32.727  45.607 
25.545  28.878  42.712 
27.269  29.737  37.868 
22.620  32.940  43.761 
21.380  33.860  45.445 
23.535  31.873  43.646 
30.635  22.433  48.622 
25.495  30.807  40.859 
30.440  25.151  41.158 
31.214  24.647  43.719 
28.303  23.648  48.815 
24.214  26.740  50.835 
28.749  25.569  43.268 
29.794  23.448  46.572 
28.185  25.299  44.726 
26.711  26.564  44.401 
30.780  24.700  41.788 
33.200  22.499  46.788 
34.197  20.622  48.248 
33.952  21.059  46.703 
34.980  21.021  46.591 
34.834  20.441  45.964 
36.141  20.076  45.622 
36.731  19.669  45.735 
36.570  20.094  46.394 
36.928  19.759  45.045 
38.909  18.911  45.054 
40.074  19.029  42.697 
39.337  18.697  44.390 
40.281  18.741  43.425 
40.834  19.444  42.432 
42.550  19.017  41.825 
41.264  17.892  43.945 
43.698  18.286  42.404 
44.730  18.186  40.317 
45.277  14.643  48.803 
47.706  15.238  43.595 
51.869  13.398  44.951 
43.869  16.045  45.615 
49.234  15.673  42.505 
45.329  16.197  43.413 
48.427  13.619  47.169 
52.052  14.992  42.103 
52.810  14.445  42.505 
49.694  14.913  44.397 
52.386  13.558  43.835 
53.695  13.367  44.531 
49.472  14.225  46.491 
60.999  11.730  47.362 
54.487  13.538  43.244 
55.194  11.812  47.960 
52.774  11.937  48.013 
48.618  13.298  47.518 
61.936  12.499  45.975 
65.723  13.447  44.776 
64.253  13.638  42.116 
66.316  11.863  49.184 
65.016  13.652  41.993 
66.443  13.534  44.752 
67.338  13.959  44.477 
64.801  13.051  44.170 
59.484  12.880  42.700 
69.835  12.998  47.842 
69.014  13.227  45.088 
66.785  15.382  40.961 
68.188  12.621  47.656 
67.115  14.021  43.019 
69.710  14.976  41.947 
69.470  14.422  43.574 
70.334  14.900  42.676 
71.119  14.753  44.069 
69.179  15.042  41.985 
72.541  14.839  44.611 
73.065  14.482  47.805 
74.380  14.700  46.440 
73.339  15.514  43.594 
73.272  15.206  44.858 
76.798  17.758  41.865 
79.063  18.931  44.144 
78.014  17.518  43.197 
82.295  19.471  45.670 
78.820  17.986  43.490 
82.086  18.604  48.585 
81.915  19.238  45.335 
83.568  21.068  43.647 
81.255  20.245  42.954 
83.110  20.868  43.430 
83.402  21.427  42.965 
84.220  21.070  44.252 
84.852  21.162  45.142 
83.784  22.113  42.989 
85.633  23.149  42.993 
86.537  24.682  40.573 
85.973  23.896  44.288 
87.848  24.702  44.401 
87.584  24.801  43.506 
87.553  24.160  45.226 
88.597  25.370  44.324 
87.771  25.396  43.380 
89.065  26.559  43.127 
89.117  26.668  44.075 
90.310  27.887  43.501 
89.734  26.885  42.712 
90.672  28.905  41.386 
90.342  28.141  42.682 
92.450  29.698  43.833 
93.531  30.345  44.103 
92.899  29.963  43.797 
94.161  31.562  44.105 
94.202  31.466  44.630 
94.771  32.030  43.487 
95.974  35.282  41.807 
96.108  34.858  42.097 
96.453  36.204  41.921 
96.300  33.789  44.110 
98.598  37.136  44.696 
99.728  36.722  46.573 
98.235  38.409  43.572 
98.336  37.488  43.164 
99.599  37.790  45.214 
99.271  39.661  42.836 
97.709  38.939  41.770 
100.203  38.131  45.820 
99.976  41.789  42.670 
100.110  42.008  43.487 
101.355  42.711  44.903 
101.285  42.534  44.013 
101.626  44.335  43.792 
101.930  44.158  44.282 
102.821  44.584  45.191 
102.244  44.863  44.612 
102.772  45.298  44.759 
103.094  46.485  44.548 
103.906  47.682  44.562 
103.607  47.739  44.980 
104.254  48.023  45.955 
104.142  47.871  45.496 
105.095  49.384  45.698 
104.714  49.815  46.303 
104.943  50.454  45.459 
105.195  51.224  44.223 
105.375  52.540  45.706 
106.430  57.901  45.028 
105.920  52.178  46.813 
105.808  53.672  46.373 
106.847  57.779  46.574 
106.603  53.063  49.554 
106.591  59.912  45.711 
106.706  60.394  44.648 
105.785  63.921  41.450 
104.548  62.481  39.110 
107.329  63.307  48.431 
102.665  68.425  38.574 
106.378  62.874  46.057 
105.423  63.131  42.860 
106.929  64.753  48.183 
107.619  59.550  51.336 
106.124  66.244  44.022 
105.058  65.609  40.367 
103.385  69.817  40.358 
107.021  66.829  47.318 
106.169  62.732  44.486 
104.803  67.346  41.098 
101.956  67.233  36.071 
104.237  74.130  46.097 
101.310  76.185  39.445 
104.115  67.718  40.119 
103.852  66.545  38.774 
104.236  69.940  41.405 
105.268  73.569  46.677 
103.898  78.221  48.784 
106.445  74.337  52.205 
104.454  69.416  41.294 
103.833  81.531  51.850 
102.024  79.655  44.936 
104.547  77.756  47.795 
102.996  78.625  47.229 
104.279  71.865  41.983 
97.035  88.675  43.607 
97.643  86.526  42.527 
104.435  77.974  48.632 
102.176  81.808  47.028 
96.455  88.175  43.201 
98.029  84.451  39.220 
97.128  87.480  43.288 
101.278  84.705  48.197 
94.652  91.060  42.362 
97.348  90.996  49.091 
100.015  87.607  48.211 
91.693  94.426  43.894 
92.947  94.588  45.756 
100.218  85.393  45.688 
99.283  84.792  43.415 
92.044  94.744  46.208 
97.767  89.634  46.659 
90.211  95.113  44.496 
88.903  98.721  49.969 
93.389  90.287  39.917 
95.295  93.136  47.600 
91.409  93.472  42.206 
93.790  92.631  43.796 
95.078  92.296  47.180 
89.631  95.713  44.186 
88.154  96.697  46.002 
90.120  94.366  42.140 
86.707  96.685  43.585 
86.614  96.651  41.819 
84.284  99.909  45.534 
84.041  100.329  45.700 
85.329  98.373  44.044 
87.014  97.674  44.087 
82.868  100.235  43.644 
83.622  99.957  43.675 
86.112  98.249  44.198 
83.991  100.002  44.018 
78.871  101.691  40.439 
78.780  104.922  47.425 
80.159  101.488  42.204 
80.231  102.897  44.186 
81.082  102.301  44.995 
77.405  104.353  43.286 
77.761  105.660  48.468 
76.934  105.943  48.413 
71.469  106.238  44.607 
73.290  105.110  42.867 
82.282  101.918  46.955 
75.014  101.250  37.729 
73.332  106.692  47.562 
74.169  105.672  46.025 
71.451  106.494  46.171 
70.618  106.193  44.792 
68.528  104.148  38.313 
71.210  104.986  40.057 
68.107  106.130  42.635 
63.909  106.252  42.944 
66.548  105.993  44.692 
70.544  106.001  45.235 
69.609  105.716  45.894 
68.303  105.478  41.376 
64.037  106.513  45.594 
60.299  106.662  44.381 
62.221  107.413  47.399 
62.100  106.069  43.206 
61.754  106.672  46.604 
59.257  106.481  43.661 
58.029  106.052  43.392 
59.357  106.892  44.598 
60.238  107.225  47.359 
58.018  107.172  46.260 
59.198  106.469  45.050 
55.703  105.519  43.743 
54.183  106.136  44.220 
56.318  105.727  44.012 
54.672  106.396  44.754 
54.162  105.323  44.090 
47.541  105.681  47.753 
48.361  105.096  47.630 
47.220  106.499  49.406 
47.369  104.625  46.886 
44.520  104.426  47.182 
47.831  104.054  43.658 
46.702  105.933  48.894 
46.718  104.104  44.550 
45.115  103.480  45.583 
43.145  103.605  46.392 
43.155  104.690  49.303 
39.817  103.230  48.479 
42.541  103.434  47.478 
44.351  102.934  43.052 
45.090  103.750  46.785 
43.004  103.037  45.592 
42.142  101.668  43.367 
37.214  101.933  47.066 
38.842  102.442  47.100 
41.748  100.322  38.536 
41.784  101.589  42.495 
39.649  102.175  45.365 
36.748  101.050  43.532 
33.881  100.113  44.920 
33.775  98.153  42.530 
36.823  99.645  39.906 
27.322  94.138  43.155 
34.366  98.458  40.997 
37.998  100.641  41.270 
21.886  89.042  43.098 
22.609  92.689  48.695 
33.858  99.287  42.654 
25.912  94.745  44.969 
25.429  95.616  54.784 
26.544  95.330  48.669 
25.434  94.139  46.218 
25.747  94.982  50.930 
28.341  95.323  43.950 
23.980  91.657  42.864 
28.081  96.927  48.424 
19.616  86.800  46.874 
24.959  95.715  53.127 
22.625  92.308  50.552 
21.783  86.092  38.662 
19.260  87.664  50.947 
21.543  87.158  42.177 
24.248  91.000  42.652 
20.608  86.869  43.433 
20.189  86.347  44.130 
18.844  84.160  45.398 
18.726  85.094  47.600 
19.660  86.358  45.936 
18.600  85.778  46.946 
18.195  85.660  48.878 
17.714  82.006  45.853 
17.226  80.715  46.350 
17.444  82.236  47.320 
17.057  81.305  46.995 
16.065  79.048  47.973 
16.519  79.870  47.760 
16.618  79.035  47.734 
15.825  78.701  47.725 
16.085  79.040  46.849 
15.760  77.429  48.082 
15.888  77.491  46.113 
15.961  70.962  38.657 
14.587  73.327  45.651 
13.694  69.521  46.793 
14.689  73.416  47.688 
14.523  72.800  46.518 
14.806  73.895  47.022 
13.603  70.205  48.572 
14.395  71.490  45.767 
13.968  70.371  45.216 
14.167  69.556  44.717 
13.236  67.963  46.433 
13.182  68.745  46.652 
13.101  67.123  46.704 
13.200  68.158  47.085 
13.309  66.170  47.587 
12.612  65.434  47.315 
12.827  64.372  47.499 
12.173  63.909  47.564 
12.425  62.782  47.008 
12.095  62.067  47.927 
11.598  61.835  48.816 
12.077  61.612  48.102 
11.741  59.755  47.951 
11.044  58.023  49.085 
