24.872  25.020  61.237 
23.788  26.455  61.151 
27.183  22.875  54.808 
25.503  25.210  63.907 
21.788  27.779  62.351 
25.289  25.612  63.234 
27.563  23.014  59.973 
24.883  24.476  57.617 
28.609  22.596  60.329 
30.559  20.658  60.114 
31.194  20.264  61.358 
31.432  20.323  61.836 
32.408  19.749  62.471 
29.496  21.922  61.833 
31.853  19.165  58.736 
29.950  21.049  59.772 
33.112  19.125  62.048 
31.178  20.071  60.726 
31.677  19.942  60.641 
34.113  18.758  61.162 
36.796  15.899  60.241 
35.423  17.602  57.479 
38.024  15.251  60.187 
36.835  16.121  57.587 
41.953  13.584  61.584 
38.789  15.929  54.426 
40.122  14.651  57.246 
38.162  15.880  59.760 
41.902  14.132  57.808 
41.337  14.772  56.241 
41.074  14.703  62.580 
40.672  14.188  59.335 
44.665  13.138  60.658 
45.381  12.886  60.031 
45.177  12.971  60.818 
45.149  12.422  58.964 
46.004  12.272  60.009 
47.664  11.817  59.796 
47.666  11.967  59.045 
48.839  11.254  60.219 
47.689  11.742  61.513 
47.747  11.633  60.451 
50.320  11.807  64.303 
49.634  11.776  60.115 
58.982  10.337  59.227 
51.128  10.813  65.189 
59.653  10.776  52.910 
54.851  10.306  59.199 
60.639  9.838  59.792 
54.839  10.833  63.958 
64.524  10.462  55.196 
57.438  10.349  57.586 
59.695  10.424  60.526 
58.573  10.223  61.595 
62.749  10.852  57.837 
63.129  10.602  58.643 
63.580  10.723  60.154 
64.415  10.534  59.774 
64.887  10.560  59.831 
65.970  10.643  59.460 
66.790  10.511  59.220 
67.591  10.847  61.678 
66.303  10.835  61.361 
69.913  11.605  61.762 
68.051  10.982  59.380 
72.820  11.658  60.669 
76.762  13.319  60.987 
76.349  12.556  61.708 
77.155  14.121  55.425 
75.958  12.861  66.493 
84.642  17.827  64.750 
82.106  15.499  66.810 
75.822  13.572  56.133 
77.701  13.032  62.776 
76.984  13.299  62.637 
79.554  14.955  56.935 
80.311  15.162  60.961 
80.830  15.570  57.050 
77.961  14.239  58.902 
80.061  14.820  59.664 
80.291  14.639  63.018 
82.263  16.328  59.237 
83.705  17.537  59.001 
83.636  17.314  59.760 
84.418  18.261  59.346 
84.479  17.838  58.704 
86.456  19.002  57.750 
86.470  19.424  57.536 
87.188  19.979  59.048 
88.456  20.310  58.615 
88.183  20.533  57.651 
88.721  20.969  58.440 
91.548  22.749  59.065 
92.634  23.448  61.164 
91.181  22.518  58.337 
92.222  23.667  58.384 
93.572  25.376  58.442 
94.176  24.696  61.169 
96.585  26.052  59.552 
94.487  24.313  63.904 
93.328  23.271  64.797 
92.264  22.487  64.560 
92.888  25.459  56.827 
94.992  28.056  52.406 
95.372  28.201  55.037 
93.969  27.124  54.228 
96.790  27.313  57.896 
98.008  28.289  60.423 
98.953  30.303  57.424 
95.214  24.880  62.677 
95.043  25.585  66.540 
95.126  25.802  59.581 
95.991  26.471  60.566 
96.649  28.119  57.171 
95.070  25.978  58.539 
104.426  37.599  60.472 
97.924  29.109  60.521 
100.468  32.083  56.180 
98.108  28.779  56.700 
99.531  30.521  57.899 
101.004  32.472  55.893 
104.075  36.806  60.113 
104.918  39.891  59.473 
102.720  34.950  60.426 
104.447  40.072  56.485 
105.401  41.745  64.893 
105.688  43.511  60.949 
105.635  40.527  60.592 
106.079  44.055  57.624 
106.758  46.469  70.044 
105.721  41.809  58.995 
105.997  43.250  60.060 
106.140  44.732  56.162 
106.531  44.584  60.654 
106.570  44.690  58.847 
106.777  45.187  59.176 
106.860  46.635  61.509 
107.583  47.773  60.824 
107.489  47.104  60.263 
107.694  48.586  61.027 
107.298  49.323  60.461 
107.733  50.669  60.413 
107.307  49.954  60.325 
108.180  50.974  61.253 
108.414  52.567  61.170 
108.264  53.353  60.298 
108.750  53.766  59.814 
109.082  57.275  64.633 
109.228  58.545  56.238 
109.074  54.016  60.620 
108.572  52.733  64.317 
108.931  61.446  58.328 
109.057  61.605  61.963 
109.097  59.144  59.943 
108.726  61.584  61.227 
109.133  58.562  58.946 
108.450  64.549  60.941 
108.474  63.511  59.548 
108.453  66.613  61.615 
108.640  65.531  60.948 
108.679  66.520  60.798 
108.117  67.493  61.413 
108.619  66.595  59.580 
107.751  68.804  60.509 
107.588  67.842  60.616 
108.173  69.867  59.706 
108.036  70.620  59.104 
107.346  72.696  60.399 
107.682  71.961  60.282 
107.526  72.971  60.979 
107.432  74.115  59.398 
107.255  74.355  60.165 
107.483  73.452  60.187 
106.297  77.571  60.215 
106.676  76.860  59.953 
106.718  78.362  59.494 
105.844  78.957  58.573 
105.784  79.805  58.161 
106.001  79.278  57.552 
106.154  78.648  62.623 
105.232  79.920  57.382 
105.041  82.361  59.470 
105.644  80.962  63.426 
104.383  84.359  61.985 
106.121  80.751  59.554 
103.281  83.579  66.384 
103.566  84.473  62.105 
104.831  82.638  57.973 
102.297  85.677  54.847 
102.043  87.635  57.053 
101.551  86.580  54.424 
98.571  92.251  55.816 
99.748  90.357  60.823 
102.019  88.211  61.439 
98.817  91.012  65.329 
98.108  93.443  59.280 
98.658  88.581  67.552 
97.151  91.344  66.817 
98.558  92.594  59.570 
100.389  88.892  64.141 
99.156  90.847  64.294 
94.510  96.383  62.495 
100.933  89.082  62.497 
98.063  92.326  63.502 
96.149  94.152  62.654 
96.563  93.905  63.018 
95.109  96.136  58.259 
95.870  94.167  65.509 
88.420  100.770  60.417 
90.872  99.101  65.117 
93.122  97.535  60.331 
93.235  97.743  62.895 
95.509  96.363  59.161 
92.878  96.943  65.954 
88.196  100.437  68.058 
93.775  97.390  59.116 
84.427  101.650  69.765 
91.590  98.519  64.731 
88.610  100.717  63.075 
85.845  102.324  61.482 
80.383  105.785  56.058 
90.024  99.705  60.335 
80.599  105.853  55.197 
84.061  102.287  63.752 
85.175  102.411  49.278 
84.190  103.389  61.488 
80.205  105.018  61.479 
78.779  105.364  61.249 
79.542  105.649  61.258 
78.063  105.621  61.360 
77.969  106.067  61.634 
76.901  106.442  61.466 
78.605  106.200  59.985 
76.055  106.747  62.212 
76.812  106.492  50.842 
75.609  106.797  60.245 
74.182  106.778  50.859 
74.758  108.169  57.293 
72.609  107.402  53.216 
71.467  108.079  55.217 
72.089  108.744  60.209 
70.199  108.394  55.767 
70.442  108.578  54.475 
73.341  107.755  61.266 
70.049  109.024  57.159 
65.914  109.367  59.368 
65.942  109.098  57.426 
67.796  109.758  60.524 
65.084  109.362  57.320 
67.079  108.908  58.357 
63.803  109.943  60.888 
61.573  109.865  57.549 
64.871  110.232  63.184 
58.110  109.767  65.945 
57.331  109.911  61.121 
58.647  109.284  55.733 
59.336  109.788  56.216 
55.055  109.301  55.274 
55.558  109.271  60.696 
50.753  108.343  68.140 
53.105  109.343  57.976 
54.264  109.269  60.895 
57.476  109.964  60.338 
53.984  108.976  65.898 
53.300  108.813  54.931 
42.723  105.993  61.800 
43.267  105.899  60.983 
52.248  109.077  59.292 
49.039  107.514  56.805 
44.628  106.242  61.140 
45.026  106.650  61.612 
53.744  108.861  64.961 
40.839  104.912  62.020 
46.772  107.034  60.223 
39.433  104.217  62.587 
40.311  104.560  60.281 
40.982  104.867  60.960 
40.149  104.855  59.830 
38.030  103.455  60.474 
39.404  103.993  59.345 
37.705  103.375  59.817 
34.479  101.773  58.309 
36.315  103.260  60.347 
29.566  99.431  60.493 
37.364  103.488  63.155 
31.517  101.623  60.930 
34.278  102.183  61.600 
35.788  102.806  67.765 
33.914  101.803  64.714 
35.545  102.824  61.320 
26.509  97.321  61.186 
27.743  97.695  63.460 
32.657  101.409  62.573 
30.620  100.194  63.844 
29.441  99.847  63.629 
31.997  101.186  63.097 
32.196  101.392  63.966 
29.587  99.739  59.739 
29.148  99.569  60.826 
26.594  96.306  65.309 
25.157  95.863  64.701 
23.307  94.870  60.137 
23.232  94.724  63.484 
19.918  89.831  66.717 
20.649  89.980  68.408 
22.408  92.928  68.165 
20.189  90.239  64.508 
18.573  89.476  59.807 
18.668  86.874  56.971 
20.645  91.859  55.040 
20.224  90.106  65.447 
19.972  91.940  59.733 
17.702  86.674  59.227 
19.024  89.433  57.830 
18.258  85.597  57.907 
21.046  92.150  66.517 
17.190  85.175  60.243 
19.555  89.849  64.850 
21.376  92.437  65.231 
16.153  82.164  63.244 
16.673  85.866  62.010 
15.403  81.533  61.225 
15.586  82.362  62.246 
15.573  82.405  61.359 
15.221  81.167  62.939 
14.953  80.677  61.021 
14.619  80.074  61.305 
14.797  79.257  63.775 
14.507  80.278  65.225 
13.978  78.805  63.639 
13.108  75.929  63.909 
13.102  76.477  65.135 
12.568  74.402  63.220 
12.939  75.617  61.938 
13.376  75.181  61.849 
11.451  69.543  67.001 
12.652  73.490  64.342 
11.018  64.542  66.412 
11.344  71.022  66.698 
12.291  73.684  63.496 
12.562  74.273  65.914 
10.968  70.305  63.606 
11.781  70.787  68.878 
11.122  61.156  68.365 
10.428  63.066  62.930 
10.583  58.363  60.270 
11.057  69.828  61.294 
11.038  68.011  56.855 
10.899  68.821  59.541 
10.389  66.260  60.709 
10.198  63.837  61.290 
12.792  72.475  56.142 
10.816  60.344  61.819 
10.462  58.718  63.275 
10.802  60.277  63.300 
10.290  63.963  56.045 
10.142  59.820  64.226 
11.322  54.587  56.638 
11.157  61.436  64.305 
11.869  52.759  60.138 
11.023  54.642  59.832 
11.131  57.945  66.583 
11.364  54.104  60.747 
11.153  55.615  63.273 
12.120  53.605  62.519 
11.958  52.040  61.736 
12.289  50.797  61.760 
12.669  48.069  60.088 
12.187  48.584  60.354 
13.060  45.537  58.966 
12.354  48.304  61.130 
12.660  48.933  61.218 
12.181  48.976  58.694 
12.003  48.884  59.606 
13.037  45.331  60.741 
13.111  44.937  62.568 
13.827  44.118  61.212 
13.773  44.140  64.241 
15.325  38.971  59.464 
15.232  40.218  63.836 
15.018  40.753  61.569 
15.314  38.935  67.620 
14.786  42.855  64.916 
16.047  38.831  69.202 
14.835  42.202  65.612 
16.399  37.622  67.262 
16.360  37.301  68.570 
16.874  35.167  65.130 
17.900  33.940  58.248 
18.308  32.583  60.758 
16.656  35.504  54.262 
18.217  33.939  63.525 
17.543  34.232  64.240 
17.929  32.827  62.801 
20.648  30.238  62.099 
24.160  25.822  54.913 
18.725  32.208  57.642 
21.723  28.656  55.522 
23.156  26.920  55.370 
23.634  26.759  52.455 
24.503  26.728  50.045 
28.331  22.387  57.511 
24.529  25.850  51.555 
28.547  22.355  50.917 
26.961  23.808  63.154 
29.878  21.404  61.143 
26.818  23.416  60.221 
27.487  23.116  57.535 
28.819  22.536  61.598 
25.023  25.351  60.238 
24.741  25.392  61.977 
21.817  28.639  62.170 
31.602  19.739  54.550 
30.040  20.822  59.274 
34.117  18.402  59.190 
30.675  20.552  62.371 
32.319  19.349  59.965 
29.876  21.283  63.712 
40.131  14.823  61.890 
35.719  17.607  59.453 
33.481  18.378  58.705 
40.061  15.394  53.484 
39.616  15.064  56.890 
39.333  15.415  57.046 
37.995  15.897  61.628 
38.833  15.835  63.206 
39.827  14.444  61.463 
41.606  14.507  57.945 
42.466  14.246  54.459 
41.339  14.140  58.723 
43.306  13.887  57.830 
39.800  14.946  64.034 
43.748  13.494  58.664 
43.528  12.980  59.351 
44.714  12.670  59.577 
44.015  12.962  58.460 
44.446  13.302  59.049 
45.696  12.774  59.322 
46.752  12.145  59.448 
49.162  11.582  61.682 
46.860  11.872  60.574 
49.469  11.579  59.147 
48.127  11.929  60.441 
49.355  11.294  60.863 
53.578  10.732  61.920 
62.333  10.313  56.295 
60.550  10.713  61.142 
61.134  10.171  58.133 
55.126  10.698  57.923 
61.245  10.084  61.527 
55.993  10.355  63.720 
60.041  10.082  55.039 
61.029  11.213  53.272 
60.104  11.595  50.818 
66.154  10.250  53.895 
59.188  10.198  56.004 
63.691  10.352  57.139 
62.519  10.283  59.135 
65.273  10.314  58.992 
64.202  10.388  59.348 
65.467  11.068  59.430 
67.201  10.837  59.552 
67.069  10.871  60.062 
68.190  10.965  61.600 
69.614  10.706  58.948 
68.325  10.612  58.182 
71.733  11.826  53.787 
72.452  11.972  60.361 
79.233  14.076  62.359 
77.020  14.683  55.650 
69.513  11.087  58.314 
75.977  13.755  54.744 
76.565  13.086  64.858 
77.182  12.883  63.126 
80.212  15.038  58.193 
79.072  14.546  56.775 
74.383  12.533  56.970 
77.325  13.798  56.650 
80.125  15.369  56.262 
81.245  15.624  58.737 
80.689  15.635  60.216 
82.054  15.987  58.433 
84.379  17.618  59.658 
83.023  17.226  57.693 
83.345  17.406  58.297 
84.058  17.790  58.403 
85.299  18.904  58.781 
86.094  19.073  57.371 
85.337  19.332  57.724 
87.150  20.392  58.676 
90.502  22.093  58.441 
89.772  21.617  58.362 
90.155  21.739  59.160 
90.843  22.089  59.173 
90.259  23.028  57.922 
89.905  21.640  57.563 
86.773  18.649  66.466 
93.162  23.124  65.381 
92.646  25.170  55.473 
91.930  23.412  58.730 
90.607  22.622  62.471 
94.099  24.164  62.159 
94.353  26.930  55.583 
94.287  26.634  54.305 
92.390  23.523  59.610 
99.405  30.525  62.872 
95.973  28.437  54.162 
98.992  31.458  54.810 
94.798  24.902  60.516 
93.780  25.576  57.467 
96.018  27.557  56.086 
96.496  29.539  53.582 
96.362  28.125  54.978 
99.675  30.640  60.518 
101.991  34.675  67.250 
103.139  36.659  61.412 
102.539  35.228  59.222 
96.483  27.288  57.433 
99.471  30.846  56.699 
103.196  35.246  59.673 
103.354  35.562  60.210 
104.737  39.189  60.073 
104.422  37.643  59.629 
103.104  36.332  62.296 
101.563  34.302  57.595 
105.648  42.498  64.275 
105.204  41.348  64.215 
103.974  36.242  58.515 
105.140  40.424  63.299 
104.467  38.705  63.185 
106.026  42.952  57.371 
104.776  41.194  54.116 
105.576  43.250  57.443 
106.188  43.783  58.425 
105.262  44.842  54.894 
106.211  45.252  58.718 
107.114  46.356  60.706 
106.589  46.075  59.264 
107.283  46.126  60.159 
107.247  46.347  58.581 
107.084  47.418  60.256 
107.975  49.402  60.816 
107.735  50.381  59.596 
108.033  50.103  59.983 
108.142  51.850  60.461 
108.307  50.996  60.762 
107.848  52.666  59.934 
109.341  54.761  62.015 
109.064  54.856  58.668 
109.113  55.584  61.861 
109.198  60.110  63.833 
109.433  59.702  60.530 
108.571  62.818  58.657 
109.585  55.135  62.243 
109.826  57.439  59.469 
109.003  61.250  60.995 
108.513  63.399  55.820 
108.777  60.482  55.385 
108.544  64.947  58.061 
108.506  64.390  57.252 
108.705  61.151  62.991 
108.558  66.293  59.048 
108.200  67.269  60.482 
107.947  66.709  60.138 
108.361  66.856  60.914 
108.003  68.877  59.208 
108.020  69.469  60.415 
107.582  70.766  60.187 
107.723  71.107  59.599 
107.929  71.924  59.025 
107.558  72.544  59.597 
107.092  74.965  61.068 
107.434  73.247  59.190 
106.220  77.751  59.443 
106.544  75.909  59.168 
107.099  74.296  61.519 
107.004  76.901  59.405 
106.332  78.037  56.555 
106.668  77.060  56.733 
105.675  79.134  55.476 
105.209  81.187  60.131 
104.368  82.545  60.690 
104.757  83.284  61.606 
105.057  80.973  57.915 
102.995  86.165  61.574 
104.194  84.137  58.300 
102.570  85.521  56.593 
103.929  83.819  56.701 
102.003  86.087  54.092 
101.429  85.724  64.932 
103.961  83.343  60.806 
97.594  93.445  59.300 
100.078  89.030  54.418 
100.357  87.826  65.720 
101.758  86.030  50.609 
101.188  89.164  60.059 
97.000  92.989  65.254 
102.513  86.142  61.518 
100.947  89.087  63.398 
96.249  95.535  59.783 
100.317  89.391  65.118 
93.879  96.616  60.164 
99.284  91.959  60.298 
94.760  95.043  65.121 
93.764  97.035  60.810 
99.618  90.652  65.437 
90.029  99.698  63.885 
94.688  95.822  63.862 
93.433  98.293  60.928 
94.021  97.003  59.827 
94.451  95.348  64.168 
85.487  101.911  67.383 
89.910  98.311  67.429 
91.823  98.125  66.329 
86.090  102.127  62.215 
83.918  101.941  72.390 
92.251  98.457  55.886 
88.767  100.131  62.248 
87.937  100.483  61.941 
81.924  104.270  59.608 
78.486  106.033  55.058 
85.624  103.753  57.108 
78.988  106.315  54.150 
86.235  102.336  61.224 
85.257  102.776  59.501 
81.099  105.119  61.314 
80.183  105.556  61.142 
81.203  104.496  61.040 
80.222  105.633  60.013 
80.083  105.602  56.426 
73.332  108.040  58.301 
79.480  105.799  59.624 
75.845  106.319  61.246 
75.487  106.768  59.762 
76.885  106.579  60.330 
76.172  106.777  61.489 
78.335  106.890  56.030 
71.364  108.431  53.866 
72.600  107.930  62.968 
72.374  106.396  47.699 
70.202  108.518  56.832 
68.864  108.446  53.529 
71.029  108.974  62.013 
71.451  107.527  52.070 
67.851  109.173  60.473 
69.225  108.642  56.455 
67.147  108.419  59.570 
69.788  108.477  56.043 
67.786  108.788  57.303 
65.886  109.704  61.534 
65.145  109.609  59.913 
63.882  109.296  58.750 
62.588  109.786  59.924 
59.896  110.225  59.393 
60.815  109.476  57.176 
56.790  109.730  61.835 
56.108  109.873  58.387 
61.445  109.932  59.483 
56.082  109.535  54.712 
55.622  108.998  55.232 
60.234  109.910  63.315 
49.888  108.604  61.149 
59.395  110.368  58.533 
54.642  109.652  59.634 
54.634  109.529  57.986 
49.426  107.511  54.044 
56.314  109.408  55.631 
48.469  107.515  57.451 
48.267  107.990  63.961 
49.777  108.207  56.965 
45.726  106.922  65.700 
51.259  108.236  63.876 
49.100  108.004  57.518 
45.716  106.372  60.767 
41.507  105.311  62.377 
40.171  104.445  61.390 
41.687  105.405  60.574 
38.993  103.809  61.799 
38.723  103.855  62.445 
38.819  103.797  58.737 
37.986  104.011  60.362 
36.952  103.696  58.781 
35.679  102.828  58.435 
36.425  103.381  64.616 
36.673  103.073  60.964 
35.680  103.179  60.023 
34.454  102.779  58.741 
29.906  100.184  59.307 
34.011  102.424  58.735 
35.689  103.085  64.811 
32.670  101.954  63.433 
29.915  99.328  65.403 
32.920  100.868  67.910 
27.795  98.157  62.062 
24.273  95.779  58.387 
29.658  99.755  64.649 
31.552  101.081  63.642 
25.501  96.884  60.162 
27.635  97.862  65.439 
26.060  97.728  63.167 
28.178  99.200  63.401 
22.973  93.932  67.202 
23.264  94.954  62.534 
21.949  92.396  63.876 
22.496  93.139  66.502 
27.860  97.932  55.331 
20.359  91.471  65.561 
19.907  91.006  63.266 
20.584  92.202  63.023 
24.043  95.047  55.362 
18.102  86.721  57.564 
20.801  92.467  56.308 
18.158  88.713  60.403 
18.353  88.172  60.664 
23.052  94.484  58.030 
19.391  89.693  54.497 
19.531  89.546  55.404 
17.047  86.308  63.297 
16.882  85.126  59.498 
17.785  87.689  63.994 
16.534  82.920  61.138 
18.080  86.700  62.151 
17.652  86.161  61.774 
14.873  80.772  62.276 
15.453  82.645  65.109 
15.291  81.721  64.653 
15.129  81.735  61.743 
15.141  79.983  60.784 
14.307  80.030  61.967 
14.394  78.520  61.992 
14.458  78.953  60.804 
14.191  79.249  62.413 
14.383  78.521  62.942 
12.603  74.150  64.181 
13.205  76.512  66.902 
13.064  76.529  66.444 
12.736  75.523  65.413 
12.241  73.176  59.382 
10.661  68.980  60.717 
11.045  70.208  66.008 
12.901  73.359  58.509 
11.515  70.835  60.274 
10.818  67.455  63.498 
10.824  64.732  67.379 
10.653  65.090  64.880 
11.980  68.977  68.180 
10.463  65.225  63.970 
11.307  69.485  56.825 
10.096  66.371  59.342 
10.511  67.274  59.927 
12.446  72.247  58.983 
10.806  68.827  64.763 
10.119  62.874  57.120 
10.101  62.220  58.809 
11.438  66.723  67.479 
11.721  67.892  57.944 
10.510  57.871  62.891 
11.195  60.349  69.217 
11.267  57.408  68.028 
11.086  56.949  61.985 
11.287  59.140  68.643 
11.070  60.130  58.767 
11.868  53.943  61.712 
10.315  61.966  61.133 
11.908  52.810  62.606 
11.269  54.532  62.239 
11.408  52.188  61.233 
11.706  51.543  60.872 
11.554  50.875  60.290 
11.874  50.428  57.815 
13.063  46.002  59.230 
12.896  46.828  60.236 
12.247  47.929  57.567 
13.300  45.935  62.895 
13.190  44.602  61.175 
13.404  44.354  61.899 
14.426  41.447  57.742 
13.102  45.062  59.698 
11.478  49.779  55.840 
15.144  39.663  58.822 
14.625  40.423  60.094 
16.463  36.490  64.189 
14.369  41.511  59.949 
15.479  38.796  57.530 
15.244  40.963  66.190 
16.625  34.980  64.070 
16.887  36.572  62.270 
18.219  32.663  59.210 
22.105  28.907  69.877 
17.858  33.627  62.142 
15.870  38.539  60.583 
16.267  36.671  59.343 
17.691  34.091  60.000 
16.847  35.538  58.532 
17.121  36.453  57.240 
21.284  29.065  60.647 
22.310  26.896  58.427 
21.491  28.859  67.158 
20.506  29.737  62.097 
19.857  31.622  55.949 
20.237  30.958  56.367 
24.635  25.307  55.607 
28.585  22.013  58.646 
27.258  23.797  58.488 
26.490  24.037  62.635 
25.161  25.365  56.265 
27.058  24.152  52.123 
25.025  25.041  62.646 
23.735  25.920  54.178 
28.697  21.225  55.236 
29.262  21.868  60.353 
29.425  21.707  60.956 
28.133  21.992  55.178 
29.756  21.397  54.585 
34.520  18.180  59.451 
31.137  19.941  55.215 
28.490  22.484  62.574 
36.033  17.143  60.308 
37.658  15.868  54.936 
40.014  14.546  58.161 
34.665  18.279  59.957 
35.576  16.817  53.784 
39.070  15.049  61.122 
38.970  15.101  62.698 
34.918  17.579  59.937 
38.243  15.478  58.353 
36.750  16.066  58.361 
42.318  13.603  59.399 
37.521  16.651  62.510 
41.522  14.129  57.010 
40.402  14.538  60.618 
37.781  15.151  60.812 
43.299  13.860  60.517 
38.227  15.652  53.510 
43.776  13.131  57.950 
44.367  13.056  58.096 
44.991  12.802  58.652 
45.936  12.830  58.700 
45.555  12.350  57.913 
46.067  12.295  58.694 
47.343  12.331  58.127 
47.505  12.483  59.049 
48.554  11.519  60.920 
48.827  11.370  59.501 
50.622  11.448  59.622 
50.257  11.433  60.992 
56.555  9.783  60.659 
60.926  10.032  60.517 
60.817  9.559  55.297 
62.010  11.136  52.345 
57.483  10.412  64.799 
60.410  9.854  56.830 
59.959  10.884  53.787 
59.554  10.968  66.378 
64.816  10.567  56.816 
61.752  10.811  61.064 
63.895  10.868  55.754 
60.905  10.419  56.097 
63.760  10.997  59.047 
64.909  10.608  58.453 
65.655  10.721  58.176 
65.695  10.859  58.752 
66.323  10.699  59.801 
67.719  10.610  59.497 
68.270  10.615  60.066 
68.393  11.059  58.456 
77.216  13.048  64.011 
71.001  12.064  53.461 
72.127  11.360  60.947 
73.576  12.472  56.348 
71.214  11.319  61.234 
73.480  12.528  57.417 
75.795  13.336  58.677 
78.768  13.531  64.615 
74.827  13.789  56.084 
73.102  12.069  62.564 
79.789  15.351  54.143 
75.578  13.034  57.869 
77.935  14.057  57.100 
80.147  15.524  57.530 
80.620  15.888  59.116 
81.556  16.013  57.510 
82.335  17.189  58.656 
83.274  17.073  60.067 
82.349  16.920  57.363 
83.658  17.883  57.663 
85.536  18.761  58.210 
85.056  18.808  57.323 
86.737  19.614  55.521 
86.743  19.418  57.108 
88.107  20.529  58.225 
86.792  19.951  56.855 
86.977  20.133  57.725 
88.357  21.171  55.325 
89.433  21.714  59.339 
88.052  20.438  55.378 
88.764  20.681  66.814 
89.184  21.282  58.053 
94.267  26.270  56.594 
93.300  24.414  59.470 
92.485  23.797  60.321 
93.242  23.916  59.930 
93.089  24.406  60.323 
91.423  23.251  61.795 
93.772  25.804  55.870 
97.223  29.021  54.668 
100.183  31.795  57.796 
94.495  27.489  54.788 
95.810  26.108  58.995 
94.888  27.142  54.976 
93.447  23.767  61.933 
99.912  30.959  62.118 
99.259  29.931  58.403 
96.135  28.246  53.179 
100.022  32.129  53.574 
98.749  30.583  58.578 
99.130  30.273  60.852 
101.115  31.665  58.675 
102.202  35.280  54.035 
101.748  33.526  58.846 
104.247  37.611  61.182 
102.809  36.553  54.061 
103.831  35.911  60.805 
103.651  38.708  57.381 
102.375  34.465  58.171 
104.230  38.057  59.133 
105.420  41.252  57.650 
104.529  39.091  55.358 
105.170  41.076  56.182 
105.573  43.464  62.710 
104.982  39.853  55.893 
105.297  43.817  54.041 
105.537  42.122  57.467 
104.477  40.411  54.090 
106.200  44.458  56.689 
105.891  42.947  58.610 
106.969  45.590  58.726 
106.603  45.676  59.575 
107.347  46.561  59.863 
107.470  47.057  57.282 
107.649  48.026  57.860 
107.378  47.320  59.560 
107.394  50.076  58.122 
106.986  48.846  59.759 
108.240  51.053  59.796 
108.348  51.078  59.093 
108.115  51.863  59.751 
108.738  53.221  59.719 
108.938  54.046  59.161 
108.982  54.676  59.363 
109.181  55.460  64.646 
108.837  58.188  59.695 
108.604  62.600  61.090 
109.212  60.080  58.940 
109.120  60.573  59.517 
108.885  63.018  62.519 
110.018  56.189  62.779 
108.736  61.352  55.549 
107.986  64.818  60.269 
108.295  63.976  59.476 
108.503  64.499  56.292 
108.239  65.385  59.324 
108.406  65.800  60.142 
108.046  64.885  58.568 
108.603  67.430  61.611 
108.108  68.075  60.309 
108.573  67.337  58.964 
107.443  69.350  59.717 
108.088  69.719  57.519 
107.815  70.518  58.373 
107.489  71.058  58.248 
107.061  72.700  59.849 
107.752  71.626  59.861 
108.030  72.574  57.301 
107.883  71.454  58.862 
106.641  74.816  59.137 
104.154  82.608  58.794 
107.116  75.424  58.084 
105.440  80.517  59.016 
106.539  77.802  58.575 
106.436  77.547  58.050 
105.658  80.024  56.478 
103.109  85.339  58.247 
103.756  83.647  65.640 
104.726  83.266  57.930 
103.181  85.211  60.254 
104.510  82.271  56.839 
103.096  84.370  54.023 
102.906  84.494  57.235 
106.170  78.298  57.640 
101.465  88.588  59.804 
97.597  93.161  60.730 
98.061  92.968  58.493 
104.871  81.978  56.719 
96.509  94.258  52.609 
102.428  86.265  57.530 
94.725  95.920  54.071 
100.166  88.643  65.560 
99.605  87.273  69.031 
100.358  86.798  67.270 
98.756  90.474  65.263 
96.443  93.826  64.052 
97.522  93.035  63.040 
96.297  94.804  61.192 
94.203  95.349  64.584 
96.671  93.704  63.599 
91.757  96.035  48.076 
96.591  94.312  54.334 
93.499  97.047  63.485 
93.813  97.197  62.751 
95.052  95.377  62.056 
88.826  99.942  65.898 
92.064  98.984  59.017 
89.995  100.467  61.302 
91.639  98.770  57.397 
91.456  99.222  62.960 
89.669  99.421  62.443 
91.365  98.994  55.739 
83.138  103.395  60.709 
91.644  99.162  59.934 
88.748  100.288  60.068 
81.369  105.127  52.548 
87.471  101.537  63.090 
82.308  104.718  58.949 
82.811  103.685  62.270 
86.136  102.560  57.284 
82.593  104.329  59.819 
82.145  104.318  61.229 
77.385  107.064  58.646 
80.848  105.517  56.842 
77.485  106.109  60.750 
78.393  106.037  60.704 
72.405  107.278  51.038 
78.336  106.261  58.826 
74.815  107.793  56.360 
75.574  107.677  55.038 
71.881  108.379  55.319 
75.418  107.430  58.153 
74.544  107.793  52.873 
74.651  107.885  54.939 
70.694  108.161  53.177 
70.490  108.671  54.984 
75.148  106.772  50.860 
76.448  107.023  57.264 
69.195  108.737  55.520 
71.027  108.173  56.170 
67.360  109.182  55.859 
67.851  109.178  56.116 
67.017  109.153  57.371 
64.860  109.246  59.096 
65.715  109.504  58.680 
63.985  109.524  58.021 
63.702  109.665  57.398 
64.372  109.851  59.247 
64.595  110.027  61.799 
60.165  110.057  58.590 
52.666  108.552  61.579 
61.464  109.335  58.292 
60.934  110.203  57.737 
55.157  109.257  57.154 
56.536  110.120  56.911 
60.654  109.550  66.869 
54.072  108.809  54.738 
56.990  109.729  55.789 
57.003  108.402  67.573 
54.874  109.146  62.843 
47.897  107.484  58.633 
47.503  107.760  62.140 
52.560  108.715  54.915 
51.113  108.640  54.599 
47.244  107.022  59.991 
48.572  107.509  55.831 
45.028  106.770  60.153 
43.639  105.664  58.833 
42.147  105.057  59.314 
40.257  104.529  59.187 
40.981  104.966  60.082 
52.712  108.934  57.781 
40.971  105.174  59.031 
40.445  104.603  58.608 
39.467  104.142  59.937 
37.541  103.416  58.870 
39.024  104.270  59.201 
37.402  103.806  59.636 
37.231  103.193  58.504 
35.461  102.863  60.457 
34.899  102.350  59.064 
33.698  102.188  58.096 
33.825  102.443  60.935 
33.723  101.877  62.208 
29.174  99.533  61.625 
25.882  97.616  61.683 
36.191  103.059  64.088 
30.063  100.543  56.616 
35.173  102.889  63.272 
24.705  96.351  60.347 
19.714  90.200  65.294 
25.387  96.896  61.131 
25.790  97.067  61.720 
24.915  96.547  58.384 
21.151  92.291  64.334 
23.953  95.596  62.270 
21.195  93.060  62.121 
23.872  95.259  61.083 
25.346  97.194  58.445 
25.446  96.587  63.132 
25.106  96.163  56.917 
22.877  94.741  58.620 
23.641  95.150  61.506 
19.867  90.724  58.044 
24.721  95.647  56.371 
21.190  92.488  58.726 
22.481  93.902  58.214 
21.911  94.105  61.234 
18.884  89.844  60.914 
19.724  91.402  59.106 
18.079  86.213  57.907 
19.203  90.251  60.177 
18.424  87.755  65.226 
20.031  90.883  59.611 
19.796  90.537  58.883 
16.920  86.411  63.974 
17.076  85.075  60.782 
15.804  82.413  60.537 
16.012  83.129  60.587 
14.854  80.884  64.524 
15.553  81.870  60.445 
15.422  80.910  60.392 
15.774  85.144  63.232 
14.894  80.577  59.664 
14.643  79.471  61.114 
13.690  78.035  63.303 
13.671  77.462  61.699 
13.365  76.920  62.547 
12.945  73.733  65.356 
10.213  64.165  60.056 
12.247  72.526  65.361 
12.697  72.234  53.507 
12.643  74.761  60.360 
11.153  70.246  57.495 
12.088  72.520  67.875 
12.736  74.555  63.880 
11.125  65.091  68.062 
11.780  72.692  60.472 
10.500  66.563  58.596 
10.832  66.269  56.169 
12.092  72.761  61.018 
10.506  61.939  63.656 
11.476  72.409  62.572 
11.833  61.202  53.118 
11.166  67.183  63.192 
10.676  68.479  59.811 
10.493  68.099  61.912 
9.920  65.398  59.316 
10.999  69.152  57.916 
10.071  65.784  59.956 
10.168  61.394  62.738 
10.994  70.300  60.171 
10.766  56.428  62.686 
10.930  56.359  64.141 
11.187  57.610  63.902 
10.276  60.020  58.701 
11.919  54.171  62.904 
10.696  53.027  56.583 
11.106  55.625  52.630 
11.619  52.999  62.061 
10.784  58.411  58.500 
11.599  51.459  61.387 
12.384  49.608  58.829 
12.157  49.710  61.494 
12.321  47.178  59.991 
12.346  49.191  60.914 
12.397  48.593  59.461 
12.295  47.674  59.788 
12.170  49.635  53.760 
12.838  45.200  61.700 
13.735  43.327  60.195 
13.433  44.313  58.699 
14.814  39.981  60.956 
16.112  35.920  54.573 
14.110  43.596  58.350 
15.169  40.321  52.463 
13.075  45.796  58.000 
14.335  39.501  53.990 
15.791  38.690  61.784 
16.392  36.302  58.405 
15.629  39.738  64.774 
18.984  31.229  60.186 
15.949  37.355  60.885 
17.473  34.727  61.185 
18.702  33.331  51.718 
15.938  36.162  55.071 
18.589  33.192  55.779 
17.094  35.753  62.282 
20.374  34.096  47.860 
19.837  30.521  59.516 
17.546  34.442  66.757 
18.541  32.301  61.479 
16.636  36.020  56.567 
20.622  30.182  57.939 
28.448  22.214  52.380 
27.926  22.503  58.861 
26.170  23.764  58.115 
25.952  24.306  54.248 
28.546  22.977  49.769 
23.118  26.515  58.544 
29.509  20.742  56.009 
27.032  23.629  60.632 
27.704  22.895  57.114 
28.330  22.643  60.997 
30.882  19.861  57.090 
26.766  23.735  59.326 
30.227  21.575  58.977 
26.876  23.031  59.386 
26.065  23.993  60.376 
35.377  16.772  54.965 
32.826  18.426  58.190 
32.229  18.902  57.622 
33.492  19.065  60.514 
30.172  20.204  56.682 
37.592  15.769  57.944 
35.622  17.029  52.866 
41.484  14.879  52.489 
37.840  16.143  53.507 
37.219  16.086  58.307 
42.917  14.651  51.096 
35.564  17.962  52.986 
36.856  16.119  61.045 
38.744  14.943  59.204 
36.237  16.624  58.090 
38.977  15.347  54.546 
38.189  15.874  57.103 
38.948  16.037  52.795 
43.232  13.378  58.472 
43.713  13.670  57.127 
43.718  13.495  56.195 
44.589  13.426  57.601 
45.151  12.597  57.704 
45.970  12.751  57.346 
46.584  12.788  57.475 
46.408  12.279  57.969 
46.856  12.144  58.727 
48.394  11.903  59.543 
48.628  11.806  58.776 
51.758  10.952  59.820 
48.849  11.863  60.287 
51.496  11.555  60.336 
50.636  11.329  60.633 
53.519  10.768  63.900 
54.339  11.024  58.228 
65.745  10.616  54.565 
55.940  10.050  58.657 
66.692  11.470  50.526 
62.676  10.355  53.105 
63.106  10.117  55.820 
57.050  10.462  55.410 
59.759  9.751  57.597 
64.437  11.002  54.359 
57.354  10.115  62.211 
67.426  10.271  56.860 
64.503  11.016  58.342 
65.388  10.916  56.001 
67.175  10.818  58.842 
65.417  10.709  57.710 
68.387  11.314  55.898 
68.782  10.737  59.638 
69.151  11.459  52.551 
72.737  11.971  58.934 
68.835  10.780  55.366 
70.928  11.407  59.277 
76.364  13.817  55.515 
72.211  11.703  59.533 
77.637  15.141  53.089 
74.433  12.658  56.051 
73.585  12.764  58.204 
78.069  15.477  52.719 
75.484  14.027  53.400 
77.981  13.345  63.618 
76.122  12.851  61.076 
77.903  13.768  59.533 
79.463  15.171  57.417 
78.701  14.292  57.953 
80.730  15.450  58.315 
81.319  16.182  58.408 
82.219  16.661  58.417 
82.769  17.559  58.803 
83.857  17.603  57.134 
84.936  18.328  57.211 
84.175  18.558  57.292 
86.457  19.681  56.029 
87.740  20.462  55.891 
87.193  19.711  56.370 
87.886  20.587  57.180 
88.626  20.641  56.853 
88.893  20.951  56.209 
89.160  21.786  56.641 
88.651  20.414  57.771 
88.682  21.084  57.127 
90.423  22.159  57.902 
90.062  22.298  58.620 
92.556  24.491  56.028 
96.716  29.618  52.829 
90.674  21.256  65.660 
91.944  25.161  55.742 
93.690  23.844  67.004 
95.790  26.312  66.063 
96.141  25.868  63.501 
93.527  23.978  60.977 
96.081  29.380  50.974 
94.471  26.894  53.348 
96.423  28.890  55.427 
97.924  29.388  57.051 
99.164  32.774  51.294 
95.144  26.550  56.905 
97.079  26.894  59.096 
104.398  38.680  61.378 
96.759  27.587  58.834 
100.137  30.928  61.396 
98.588  29.074  59.969 
98.186  28.035  59.038 
103.980  37.216  59.480 
102.234  34.897  59.009 
102.469  34.086  58.507 
102.809  36.066  57.720 
99.235  30.159  59.226 
101.346  32.897  56.691 
105.491  41.378  56.947 
104.060  37.237  61.476 
105.531  42.183  65.923 
105.090  40.081  60.626 
105.389  43.004  59.321 
104.991  41.241  63.093 
105.638  42.119  56.560 
105.002  41.409  55.193 
104.187  41.149  53.623 
106.597  44.041  58.065 
106.687  45.048  57.183 
106.752  45.037  57.920 
106.133  45.520  57.506 
107.285  46.395  59.205 
107.307  47.153  59.009 
107.575  48.574  58.046 
107.069  48.143  59.082 
107.493  47.812  59.593 
107.354  49.976  58.891 
108.029  50.601  59.109 
107.854  51.464  58.768 
108.647  52.448  59.222 
108.391  53.354  59.273 
108.745  54.214  60.129 
108.855  53.273  58.894 
109.692  56.062  58.216 
109.790  56.646  61.369 
109.370  57.096  60.554 
109.010  54.809  60.690 
108.955  57.247  53.506 
109.289  54.874  62.962 
109.922  57.712  62.343 
108.809  62.926  55.753 
108.632  63.692  58.127 
108.752  62.630  55.257 
108.108  64.772  56.376 
108.300  64.690  57.611 
108.446  66.493  58.556 
108.075  66.770  58.258 
108.426  67.524  59.748 
108.217  68.853  58.660 
107.854  68.056  58.574 
108.267  69.781  58.875 
107.402  70.408  57.514 
108.134  71.295  57.936 
107.548  72.521  58.512 
107.817  73.304  57.092 
107.901  72.459  58.084 
107.048  73.293  58.414 
107.578  73.424  58.364 
107.218  74.417  57.845 
107.308  74.315  58.728 
106.855  76.788  58.552 
107.069  75.299  58.890 
106.358  77.650  55.071 
106.544  76.959  55.840 
105.014  80.271  56.134 
106.264  78.752  56.730 
104.691  82.038  55.809 
103.427  83.918  60.095 
104.372  83.575  57.604 
104.253  82.037  59.894 
104.163  83.647  58.573 
102.190  86.309  55.000 
99.930  90.627  59.912 
101.112  89.151  54.501 
105.488  80.613  57.825 
99.769  87.905  46.967 
96.489  94.663  62.043 
98.013  92.178  55.191 
96.371  95.398  57.515 
96.637  94.428  56.504 
98.707  91.643  63.626 
97.885  90.390  67.632 
99.644  91.118  58.022 
95.775  95.309  53.864 
99.287  91.010  60.538 
101.893  87.754  60.286 
95.003  95.038  65.830 
95.466  94.740  65.039 
96.760  93.968  53.500 
98.415  92.925  61.558 
91.352  98.713  53.834 
95.942  95.330  55.690 
94.295  96.831  53.860 
95.007  94.993  64.341 
99.024  91.552  62.065 
90.746  99.710  56.211 
91.014  97.401  67.666 
89.749  100.266  60.451 
86.632  101.970  60.791 
93.131  97.689  56.948 
88.679  100.879  53.979 
85.209  102.797  62.525 
91.923  98.468  58.056 
88.487  100.590  61.892 
83.831  103.656  58.927 
90.563  99.660  55.618 
85.130  104.168  55.978 
75.380  108.081  57.080 
81.076  105.531  56.369 
82.218  103.815  61.880 
83.283  103.553  61.511 
78.999  106.165  55.814 
77.774  105.931  59.855 
79.671  105.710  52.739 
79.886  104.995  58.418 
73.039  108.309  57.575 
80.855  104.996  58.517 
73.044  108.656  59.040 
76.809  107.008  58.777 
72.434  108.487  58.016 
77.905  106.812  56.677 
71.635  108.377  62.208 
71.787  108.675  58.870 
76.888  106.967  55.566 
70.632  107.680  52.021 
68.928  108.690  54.277 
75.150  107.973  55.480 
70.581  108.925  57.552 
69.809  108.387  53.966 
66.620  109.332  55.764 
66.289  109.044  56.734 
64.601  108.802  56.990 
65.473  109.460  59.543 
64.666  109.263  57.752 
65.719  108.525  56.171 
64.131  109.270  56.238 
63.203  109.913  57.500 
61.072  109.930  58.728 
58.401  109.832  57.119 
60.527  110.272  61.903 
56.264  109.643  53.213 
59.275  110.270  62.090 
54.358  109.298  62.699 
56.320  109.658  57.114 
52.016  108.613  57.345 
56.228  109.388  56.632 
53.726  109.031  55.483 
55.374  109.527  54.073 
52.324  108.609  51.852 
50.483  108.658  60.394 
51.733  108.582  52.740 
47.392  107.198  59.228 
49.334  108.177  60.554 
51.731  108.748  61.492 
46.492  106.465  58.625 
45.580  106.384  59.502 
43.991  106.009  58.822 
41.444  105.259  59.784 
42.092  105.668  61.117 
41.961  105.471  58.273 
41.571  105.508  58.581 
41.584  104.703  59.225 
42.792  105.583  58.731 
40.760  105.040  58.262 
38.610  104.209  58.266 
37.035  103.298  60.222 
37.257  103.461  57.963 
35.842  102.454  56.963 
35.196  102.734  62.649 
33.049  101.749  57.882 
33.359  101.662  65.101 
31.703  100.936  62.685 
32.147  101.619  60.630 
31.098  100.791  55.309 
34.071  102.653  61.566 
33.722  101.985  60.834 
34.698  102.500  59.923 
37.349  103.612  64.200 
28.523  99.034  54.261 
21.141  93.376  57.411 
23.518  94.626  59.759 
27.915  97.265  66.171 
27.465  98.536  64.023 
27.059  97.695  62.346 
27.295  98.525  61.042 
26.414  97.014  65.642 
24.726  94.773  68.939 
22.052  92.975  67.005 
24.538  95.649  57.564 
22.561  94.279  54.568 
24.827  96.025  58.750 
18.461  90.172  62.210 
19.388  88.734  54.844 
22.830  93.632  61.699 
20.451  92.226  59.164 
20.788  92.838  58.596 
20.009  91.427  57.774 
21.492  92.496  54.837 
18.651  87.374  57.068 
18.649  87.119  52.715 
22.097  93.818  59.326 
16.765  84.734  59.771 
17.241  85.819  60.267 
18.978  89.734  59.129 
16.533  83.265  62.539 
16.844  82.655  58.851 
15.778  82.928  61.412 
16.900  83.610  59.215 
15.993  82.546  59.262 
15.716  81.795  60.887 
15.059  80.484  58.845 
14.986  81.376  60.564 
14.670  79.312  60.125 
13.966  78.252  60.589 
14.125  78.641  60.284 
13.731  77.282  60.901 
13.845  77.453  63.279 
13.211  75.288  67.617 
12.496  74.129  61.630 
12.593  73.177  60.524 
12.979  75.118  58.197 
12.978  75.826  61.153 
11.010  66.593  65.561 
12.027  72.085  60.805 
11.188  69.171  57.367 
11.134  69.145  62.836 
11.743  70.526  63.890 
11.452  70.754  58.506 
10.297  61.390  57.654 
11.069  63.913  69.209 
12.014  73.002  63.129 
11.019  68.641  58.967 
11.425  63.929  64.710 
10.800  67.941  60.628 
11.251  58.795  69.399 
10.359  64.967  60.537 
10.427  67.267  59.165 
12.161  71.026  56.678 
10.736  59.269  61.898 
10.603  59.889  59.716 
10.347  63.531  62.180 
10.173  67.864  59.857 
11.030  53.278  55.735 
10.767  55.724  63.947 
10.850  59.925  68.017 
10.656  59.276  60.438 
11.713  55.229  61.698 
10.933  56.966  52.736 
10.909  52.563  59.539 
11.338  53.204  61.124 
12.226  50.628  60.609 
11.714  50.968  61.127 
12.093  50.187  61.138 
12.229  49.042  50.448 
12.252  50.327  59.923 
13.161  44.711  57.918 
11.261  50.636  55.667 
13.251  43.826  56.033 
14.558  42.722  57.998 
13.205  44.828  60.403 
14.673  41.841  57.473 
15.673  37.317  54.390 
14.456  41.320  56.859 
15.807  37.352  59.466 
14.506  41.028  59.444 
14.563  40.934  58.226 
14.789  42.550  62.635 
16.647  35.957  60.545 
16.268  37.738  62.941 
15.858  37.492  61.889 
16.964  35.228  57.557 
14.780  39.683  59.707 
18.794  31.588  61.558 
18.338  33.236  58.550 
17.461  33.602  59.786 
23.525  27.137  60.602 
19.850  30.645  58.293 
15.615  36.543  53.975 
21.493  29.857  64.805 
19.041  31.747  56.006 
24.158  25.807  56.838 
21.574  28.401  61.298 
24.919  26.105  56.328 
27.930  22.958  52.602 
28.363  22.527  54.515 
26.003  23.460  56.902 
27.358  25.577  44.942 
27.589  22.550  54.811 
23.645  26.477  55.497 
28.310  22.880  53.530 
20.540  29.159  59.289 
23.672  26.307  56.502 
20.135  30.279  60.362 
29.017  22.292  52.966 
32.121  18.846  55.423 
30.377  19.990  57.904 
27.893  22.501  56.369 
31.661  19.346  57.699 
39.637  15.145  53.978 
32.035  18.680  58.651 
31.773  19.754  59.274 
36.806  16.321  54.525 
37.903  16.788  51.614 
35.957  16.796  56.391 
34.526  17.687  53.230 
39.077  15.361  53.290 
40.878  15.067  52.245 
40.589  14.806  53.699 
36.749  16.738  60.476 
40.269  15.217  55.751 
40.459  14.881  55.365 
43.039  13.496  56.870 
40.692  14.747  54.912 
40.830  14.765  54.441 
43.134  13.866  54.318 
42.963  13.810  56.103 
44.625  13.179  56.481 
44.364  13.487  55.663 
44.359  13.243  57.068 
45.174  12.525  56.940 
45.838  12.229  57.040 
46.512  12.161  56.384 
46.854  12.260  57.191 
47.206  12.171  57.530 
47.922  12.207  58.346 
49.590  11.510  58.608 
50.441  11.525  59.025 
51.275  11.314  59.040 
52.935  11.116  59.632 
58.827  10.106  62.516 
54.970  10.215  59.969 
52.887  10.946  58.055 
55.161  11.695  48.729 
52.316  10.670  62.798 
56.592  11.322  51.396 
65.704  12.180  46.996 
62.791  12.110  47.519 
59.495  11.167  50.320 
60.444  10.603  51.858 
55.860  10.585  57.314 
62.455  10.106  55.056 
55.295  10.748  58.693 
67.935  10.782  57.424 
64.104  10.533  52.513 
64.602  11.108  50.223 
68.992  11.447  58.556 
66.608  10.593  58.168 
65.827  10.735  52.395 
67.246  10.847  57.645 
67.399  10.550  56.378 
77.605  13.262  62.043 
74.781  12.748  57.690 
70.044  11.324  58.402 
76.679  13.731  56.087 
72.565  11.419  63.716 
71.457  11.747  59.340 
76.450  13.149  63.138 
74.625  13.354  54.809 
71.951  11.871  54.553 
75.026  13.275  57.515 
77.608  15.016  54.048 
77.767  13.917  58.037 
79.197  14.857  55.328 
76.702  12.599  62.121 
80.449  15.830  55.812 
80.955  15.526  57.857 
81.712  16.594  56.732 
81.893  16.349  57.591 
83.006  16.919  56.673 
84.290  18.211  57.626 
86.299  18.953  56.789 
85.638  19.138  55.784 
85.096  18.396  56.390 
86.862  20.110  55.164 
87.349  19.993  55.066 
88.298  20.295  56.388 
87.424  20.140  56.568 
88.767  21.803  54.718 
89.944  22.174  55.803 
89.539  21.468  56.910 
91.086  22.708  57.373 
91.578  24.468  55.151 
91.442  24.011  56.172 
92.155  23.839  57.945 
97.136  29.454  54.428 
95.155  25.696  61.267 
94.805  26.425  56.274 
91.931  23.043  61.299 
91.758  24.126  54.587 
98.697  29.807  57.952 
93.319  23.336  62.870 
97.225  26.786  62.979 
93.904  24.426  59.489 
98.535  29.586  56.898 
94.611  27.482  51.707 
99.104  29.268  60.304 
99.619  29.831  65.975 
94.504  26.107  57.538 
100.998  32.561  57.494 
98.722  31.672  50.787 
97.585  27.425  60.567 
105.950  42.304  56.890 
97.917  29.321  55.682 
101.958  34.033  55.808 
101.740  33.735  55.369 
103.443  35.960  56.640 
105.417  40.017  58.668 
104.073  38.856  63.576 
103.870  36.992  58.711 
105.681  41.392  60.429 
105.042  41.719  54.736 
105.370  41.411  59.498 
104.770  40.234  58.167 
106.536  44.063  63.347 
103.581  37.708  63.993 
105.093  41.493  57.994 
105.425  43.524  54.515 
105.580  43.202  56.623 
106.182  43.571  56.766 
105.685  43.407  57.949 
106.785  45.733  57.995 
107.189  47.809  57.836 
107.337  46.594  58.129 
107.310  47.901  57.015 
107.401  48.586  59.155 
107.309  49.021  58.831 
108.035  50.445  58.486 
108.127  50.499  57.657 
108.596  51.719  58.556 
108.586  52.518  58.377 
108.124  52.982  58.377 
108.543  53.309  57.978 
108.820  53.945  57.669 
109.013  55.110  57.843 
109.462  56.025  65.831 
109.275  56.638  68.904 
108.444  62.865  60.280 
109.111  55.909  54.482 
108.990  60.684  58.671 
109.128  59.831  54.734 
108.726  62.125  58.256 
108.025  63.126  54.427 
108.729  63.349  56.611 
108.499  64.604  55.392 
108.324  65.143  55.675 
108.316  65.370  57.180 
108.408  65.647  58.583 
108.192  67.407  59.237 
107.834  67.158  58.051 
108.372  68.288  58.732 
107.535  68.891  58.346 
108.208  70.114  55.836 
108.146  70.407  58.032 
107.499  72.350  57.371 
107.261  71.864  56.040 
107.918  72.038  56.686 
107.820  73.124  57.935 
107.114  74.500  57.215 
106.782  74.786  58.257 
106.896  77.661  57.440 
106.165  76.053  56.211 
106.879  76.484  57.564 
106.911  77.440  58.418 
105.256  79.661  53.272 
104.201  80.790  51.428 
102.943  83.537  53.918 
104.743  83.101  62.467 
104.907  79.835  51.133 
104.601  81.657  54.370 
100.780  88.511  55.550 
101.029  88.990  58.915 
103.950  83.412  63.154 
100.436  90.199  57.637 
100.200  88.175  50.535 
102.946  85.031  53.667 
101.581  87.933  55.950 
99.945  88.821  50.071 
101.089  88.781  53.828 
99.823  90.951  62.931 
97.728  92.589  55.932 
98.328  92.896  54.763 
103.087  86.183  62.074 
100.744  88.100  53.149 
101.063  87.906  64.580 
94.075  95.554  65.545 
94.854  95.870  55.040 
100.170  89.952  61.621 
93.673  96.497  56.951 
97.540  92.020  52.088 
97.556  93.947  57.892 
93.669  97.981  60.290 
93.284  96.224  51.831 
100.379  89.604  63.798 
97.299  93.034  63.770 
92.021  97.073  67.151 
93.136  97.516  54.873 
90.342  99.818  62.596 
93.775  97.653  61.482 
91.390  99.280  61.336 
92.185  97.876  60.002 
93.792  97.147  53.273 
87.366  102.016  57.429 
83.610  104.490  54.108 
87.800  100.345  64.659 
93.448  95.787  65.050 
91.239  99.469  62.500 
86.813  102.430  55.270 
91.953  99.128  62.097 
84.770  103.196  60.176 
82.313  104.358  52.077 
89.373  100.312  61.254 
81.653  104.727  61.791 
79.036  105.882  59.909 
82.968  104.926  54.888 
78.058  106.615  58.261 
84.231  103.888  52.645 
73.756  107.500  51.760 
77.105  106.476  58.934 
83.420  104.196  52.648 
75.198  107.185  59.059 
74.917  107.214  59.932 
76.571  106.896  51.735 
73.842  107.579  53.180 
72.141  108.607  57.090 
68.867  107.584  52.365 
68.781  108.240  54.138 
70.900  108.072  54.464 
74.150  108.630  57.508 
66.740  109.149  56.523 
67.448  109.323  55.324 
67.627  108.815  56.790 
68.471  108.896  56.747 
65.956  108.301  57.128 
64.527  109.489  56.885 
62.778  109.407  56.481 
63.263  108.939  56.879 
62.908  109.753  56.874 
60.080  109.990  60.772 
61.955  109.846  58.461 
59.835  109.440  54.013 
60.719  109.691  64.741 
53.869  108.958  53.275 
58.875  110.230  60.208 
58.114  110.154  59.830 
56.997  110.284  58.933 
54.419  109.195  51.529 
53.447  109.038  58.908 
49.515  108.026  56.559 
51.890  108.133  52.179 
51.240  108.732  57.728 
55.185  109.027  51.663 
50.956  108.765  58.331 
45.720  106.753  59.149 
46.583  106.989  59.318 
49.649  108.334  55.682 
45.136  106.064  57.477 
48.181  107.743  57.864 
49.772  108.235  59.866 
43.704  106.057  59.662 
44.243  106.305  60.263 
42.468  105.417  57.774 
41.323  105.147  57.513 
39.897  104.829  60.615 
39.859  103.992  57.516 
39.323  104.499  58.449 
38.017  103.913  59.005 
37.669  103.994  58.137 
35.450  103.183  58.648 
36.234  103.270  58.876 
36.093  102.744  55.762 
31.889  101.723  59.756 
29.020  99.676  56.002 
27.140  97.849  56.997 
29.622  100.077  57.841 
32.661  101.527  58.639 
32.462  102.040  61.494 
35.639  103.226  59.453 
27.772  98.447  64.858 
30.685  100.637  58.414 
24.614  95.124  68.680 
28.920  99.454  62.872 
24.771  95.557  61.844 
23.135  94.463  61.800 
30.392  100.046  66.159 
23.405  92.958  68.045 
23.868  95.375  59.826 
22.156  94.131  60.264 
27.084  97.978  64.509 
23.028  94.553  65.455 
30.809  99.972  54.313 
19.770  90.914  62.271 
20.455  91.674  56.435 
27.596  97.600  51.915 
22.194  92.779  52.688 
23.676  94.865  59.210 
20.376  92.114  54.673 
24.579  96.139  56.599 
18.730  88.162  57.917 
21.719  93.930  56.516 
18.645  87.874  56.230 
19.417  88.924  55.715 
18.848  88.534  56.170 
19.331  90.663  59.454 
17.921  86.712  59.768 
18.117  88.573  61.456 
18.040  87.897  60.330 
15.425  81.954  59.222 
16.334  82.009  59.505 
15.232  81.511  59.776 
15.767  81.463  59.148 
15.746  80.522  59.571 
14.938  79.640  59.887 
14.863  80.182  60.067 
14.470  78.908  59.424 
13.582  77.424  59.622 
13.896  78.452  62.127 
13.985  77.592  62.146 
13.306  76.441  61.794 
12.430  74.592  61.195 
13.689  75.556  64.388 
12.706  75.127  61.598 
12.847  73.755  56.257 
11.699  71.772  60.545 
12.502  71.052  54.911 
11.669  65.877  66.917 
11.625  71.849  65.328 
10.939  69.304  64.189 
12.366  70.368  54.119 
10.529  69.660  61.177 
11.028  65.908  61.821 
11.132  65.017  66.658 
13.182  72.936  57.725 
12.360  70.224  56.750 
11.333  68.013  62.987 
11.523  69.592  55.952 
10.449  62.718  61.973 
10.366  60.785  63.915 
10.269  63.642  59.743 
10.867  58.649  56.377 
11.037  59.196  55.575 
10.872  61.636  67.616 
11.037  63.556  54.626 
10.766  55.197  60.344 
10.622  60.475  57.796 
10.842  56.311  57.927 
11.628  52.906  56.964 
12.371  50.667  49.219 
11.148  55.041  62.471 
10.798  56.266  56.191 
