74.274  82.674  18.252 
73.431  83.072  18.706 
73.621  84.744  19.211 
72.890  84.609  19.576 
72.112  84.789  19.231 
71.159  85.409  19.679 
69.873  85.106  18.750 
68.591  84.684  18.631 
70.177  85.510  18.727 
68.263  85.086  18.599 
66.192  84.873  17.677 
60.280  83.830  15.514 
60.133  88.319  17.856 
64.756  85.660  17.206 
64.702  87.644  18.447 
64.000  84.839  16.390 
66.071  87.238  18.716 
55.980  81.249  15.154 
64.674  84.090  16.714 
62.024  89.546  19.482 
59.538  88.711  17.777 
52.444  81.944  14.943 
53.101  88.955  18.213 
56.159  87.892  18.001 
59.369  89.295  18.353 
59.540  85.271  16.865 
49.728  84.920  17.191 
54.352  87.668  17.435 
56.802  89.456  19.018 
50.317  84.341  16.852 
53.056  90.182  19.743 
44.743  83.345  17.420 
51.600  85.950  16.607 
49.302  89.331  19.963 
44.663  83.381  18.267 
50.099  84.249  15.988 
47.461  81.500  16.260 
43.639  80.430  17.305 
44.963  81.046  16.624 
44.808  83.917  17.691 
43.804  82.243  17.379 
42.332  81.211  18.192 
41.970  81.866  18.186 
41.621  81.215  17.955 
41.553  82.473  18.747 
39.779  81.467  19.259 
38.972  81.393  19.796 
39.011  81.159  19.264 
37.943  80.054  19.769 
36.509  77.076  17.971 
34.065  76.242  20.478 
38.870  80.269  19.106 
36.185  73.006  17.292 
39.535  76.582  16.711 
37.333  72.159  16.269 
32.860  74.387  21.492 
35.325  75.272  18.985 
32.764  67.070  18.339 
30.723  69.373  21.068 
43.088  74.878  14.957 
30.642  67.180  21.254 
35.589  62.779  16.632 
35.984  70.839  17.323 
30.344  64.517  20.691 
38.206  67.923  15.805 
30.430  66.386  20.480 
30.431  70.064  21.485 
31.621  63.053  18.678 
30.016  62.096  20.638 
29.455  66.009  21.425 
32.426  60.487  18.514 
33.890  67.105  17.569 
33.214  60.176  18.329 
30.273  67.104  21.697 
30.858  62.554  19.211 
30.892  62.205  19.816 
33.740  57.239  17.929 
32.339  57.299  18.273 
32.973  56.604  18.308 
29.775  58.799  20.509 
35.560  60.043  16.995 
31.657  56.441  18.966 
34.989  56.353  17.750 
33.692  52.356  18.256 
32.162  57.161  19.057 
31.642  50.098  20.339 
29.737  52.317  21.228 
35.573  52.774  17.342 
34.822  51.855  17.928 
34.994  52.519  17.735 
36.492  45.686  18.064 
32.859  52.856  19.837 
35.995  49.955  18.314 
32.127  46.627  21.006 
35.793  47.695  18.047 
31.501  47.374  20.615 
36.494  41.274  19.903 
35.939  46.092  17.911 
40.785  39.171  18.577 
42.741  40.676  16.096 
34.625  44.598  19.491 
43.485  42.360  15.185 
43.282  41.481  16.202 
42.682  46.817  15.096 
34.636  47.386  18.606 
45.929  42.510  15.079 
37.145  45.560  17.344 
46.360  37.163  17.192 
59.788  39.174  13.729 
46.149  41.573  14.973 
47.836  37.058  17.212 
52.154  33.896  17.421 
48.156  35.226  17.622 
53.838  33.964  17.292 
47.874  33.730  18.756 
46.372  34.403  19.246 
50.626  33.285  18.558 
48.770  32.908  18.570 
53.084  40.519  14.315 
47.992  28.470  23.391 
49.387  30.148  20.905 
54.162  37.377  15.817 
58.885  40.931  13.665 
47.562  33.424  19.549 
57.328  39.505  14.580 
59.986  42.679  12.615 
59.044  34.101  16.916 
60.279  35.000  16.127 
62.520  35.112  16.783 
55.728  40.324  13.566 
59.661  39.889  13.484 
57.821  35.667  15.926 
59.471  35.925  16.172 
60.687  30.394  19.577 
65.354  38.933  14.333 
64.050  34.681  16.689 
60.694  36.797  15.351 
63.814  41.344  13.853 
65.285  30.337  19.576 
66.563  40.427  14.558 
68.746  42.428  13.702 
72.813  39.678  15.627 
65.031  26.287  23.355 
62.905  40.637  13.347 
69.361  30.603  19.939 
67.887  37.963  14.948 
71.147  36.982  16.437 
72.850  40.559  15.274 
61.355  39.552  13.601 
68.958  37.109  15.861 
74.487  39.450  16.822 
79.873  31.885  23.333 
71.879  41.523  14.871 
78.905  46.135  15.574 
72.371  42.607  14.874 
78.284  46.498  15.902 
80.323  40.721  19.205 
78.851  40.455  18.467 
78.836  41.378  17.745 
78.238  45.203  15.590 
79.859  45.807  16.706 
80.486  45.373  16.941 
81.351  47.256  16.876 
80.851  45.787  17.052 
82.777  49.030  17.347 
81.389  49.377  16.513 
81.611  49.604  17.294 
86.158  51.838  18.440 
84.078  49.884  17.927 
84.967  53.134  17.421 
92.042  58.266  21.600 
79.786  50.909  14.647 
88.151  53.938  19.301 
84.043  52.173  16.825 
88.853  53.405  19.681 
79.438  53.411  13.800 
87.355  55.384  18.331 
89.493  54.129  20.576 
88.533  51.412  20.999 
89.969  57.271  19.570 
89.342  58.422  18.941 
88.289  66.085  18.626 
91.488  50.583  22.311 
83.424  60.120  15.671 
75.211  67.067  13.820 
93.068  53.452  22.915 
78.764  60.821  14.327 
79.417  55.402  13.711 
82.031  60.324  14.589 
80.888  66.921  14.426 
84.969  74.568  18.976 
85.706  72.696  19.000 
81.860  66.588  15.318 
87.287  76.218  21.349 
86.537  66.821  17.938 
89.689  67.730  20.992 
80.654  77.645  16.976 
75.175  70.651  13.888 
82.634  78.387  18.824 
81.624  77.219  17.961 
79.519  78.681  17.663 
80.657  73.486  16.410 
83.933  82.290  22.599 
78.362  82.780  21.274 
74.227  73.773  14.276 
77.149  76.286  16.319 
76.654  82.985  20.309 
75.502  83.809  19.827 
77.360  83.324  20.284 
74.669  81.585  18.037 
73.068  82.281  18.542 
74.664  75.531  14.703 
77.427  82.349  19.854 
75.771  82.102  18.430 
73.769  82.367  18.009 
72.650  83.786  18.970 
71.689  84.381  18.413 
72.030  84.387  18.785 
71.670  85.101  18.765 
70.837  84.935  18.587 
69.120  84.806  18.749 
68.788  84.063  18.082 
67.973  84.574  17.861 
67.785  84.861  18.338 
66.141  84.016  17.043 
68.253  83.044  16.851 
62.374  85.358  16.282 
57.724  92.780  21.501 
53.844  85.761  16.288 
67.842  82.020  16.284 
64.710  89.261  20.977 
61.775  84.478  15.806 
54.128  84.579  16.348 
60.128  90.644  20.250 
47.743  85.604  18.174 
52.653  82.604  15.475 
54.526  86.790  16.970 
58.766  89.154  18.901 
49.439  78.786  14.852 
50.389  77.622  14.515 
53.027  76.571  14.056 
50.296  87.448  18.818 
53.852  86.288  17.401 
52.876  85.225  16.486 
55.887  87.160  17.580 
50.406  86.744  17.508 
50.932  81.431  15.028 
47.920  92.652  23.489 
46.748  87.665  19.620 
48.955  84.628  16.700 
50.873  90.400  20.780 
43.483  81.273  17.503 
42.715  81.905  17.786 
43.371  81.792  17.834 
42.625  81.177  17.730 
40.535  81.652  19.261 
40.288  81.005  18.852 
40.170  82.276  19.345 
39.602  80.578  19.093 
38.174  79.593  19.044 
39.443  79.214  18.267 
38.070  78.363  18.081 
36.214  78.430  19.130 
32.561  70.127  20.175 
35.521  77.590  19.269 
31.373  74.630  22.650 
39.131  69.990  15.052 
34.485  74.645  19.708 
36.422  73.852  17.582 
30.802  71.625  22.243 
38.863  65.122  16.114 
36.495  71.418  16.695 
43.891  74.979  14.729 
34.231  66.670  17.220 
32.906  68.390  18.721 
29.863  64.148  21.500 
36.947  72.645  16.941 
33.686  70.114  18.809 
31.551  64.824  19.519 
33.002  70.242  18.694 
30.229  63.022  20.841 
30.846  70.584  21.088 
38.326  66.125  15.563 
31.960  61.656  18.547 
35.008  57.773  17.786 
30.438  62.379  19.977 
31.581  59.477  19.177 
30.903  61.221  20.143 
34.045  58.745  17.611 
35.654  58.352  16.445 
29.786  55.169  20.291 
33.522  59.199  18.526 
31.147  55.335  19.814 
33.611  61.925  17.026 
34.176  60.404  17.220 
33.652  52.907  18.753 
33.155  53.093  18.481 
33.936  53.278  18.037 
36.314  53.590  17.074 
36.589  52.873  17.559 
36.053  51.873  17.278 
28.118  47.012  24.189 
34.009  51.704  18.314 
36.200  51.688  17.702 
36.377  49.180  17.839 
32.871  47.534  20.194 
39.096  43.096  17.297 
31.201  46.545  21.592 
43.509  45.160  15.290 
33.779  50.821  18.741 
35.344  49.396  18.973 
38.577  46.265  16.542 
42.838  46.011  14.792 
35.959  48.833  17.767 
46.724  44.887  14.215 
41.048  42.479  16.991 
46.171  40.932  15.519 
45.648  46.629  13.712 
46.281  40.236  15.460 
47.870  41.174  14.938 
40.658  44.648  16.207 
47.221  32.222  19.798 
51.193  39.628  15.096 
60.807  32.295  18.402 
49.736  40.345  15.765 
54.300  35.325  16.713 
55.537  37.599  15.006 
51.745  39.996  14.759 
51.980  40.964  14.545 
49.540  36.206  16.986 
53.742  29.733  20.826 
52.213  30.244  20.170 
53.408  32.890  18.452 
55.206  33.608  17.234 
50.105  36.001  16.741 
56.526  34.575  17.294 
58.715  36.471  15.745 
59.570  31.364  19.403 
58.731  35.893  15.698 
65.235  39.882  13.840 
57.923  41.489  13.928 
63.577  40.522  13.482 
64.889  34.119  16.921 
66.895  26.287  22.737 
63.631  36.765  15.159 
65.494  41.985  13.468 
63.759  35.205  16.073 
71.942  37.363  16.711 
61.491  38.832  14.028 
56.114  35.438  16.881 
62.502  46.034  11.312 
71.452  33.718  18.317 
70.488  34.915  17.646 
60.630  38.798  13.976 
66.245  37.769  14.656 
71.013  30.341  21.097 
75.454  36.268  18.237 
71.896  38.370  15.669 
67.731  37.381  15.537 
69.085  41.587  14.220 
70.087  46.783  12.408 
74.616  33.894  19.808 
76.466  43.432  16.161 
74.336  45.913  13.641 
74.229  42.234  15.239 
77.058  44.192  15.331 
73.821  42.954  14.622 
77.842  42.411  16.662 
79.665  43.540  17.671 
80.607  42.646  18.083 
81.850  47.898  17.170 
80.045  51.445  14.953 
82.090  47.183  17.487 
80.933  47.102  17.289 
83.062  54.441  15.392 
82.311  53.746  15.269 
88.265  52.330  20.032 
84.130  50.250  17.603 
82.393  56.904  14.895 
86.352  52.685  18.666 
84.106  51.163  17.794 
86.028  50.389  19.481 
87.562  52.323  19.536 
83.918  52.623  16.659 
84.292  57.266  17.002 
80.150  52.432  14.536 
88.921  55.179  19.838 
81.059  51.193  15.354 
82.117  63.892  14.945 
88.758  58.136  18.606 
91.528  55.293  21.214 
89.188  61.876  19.404 
87.286  54.044  19.350 
78.861  60.488  13.681 
78.917  58.320  13.614 
76.416  62.991  13.363 
84.294  66.419  16.550 
79.534  67.638  14.625 
80.437  61.064  14.353 
78.909  65.901  14.375 
83.096  71.245  17.225 
87.099  73.787  19.978 
88.260  69.184  19.772 
84.245  72.455  18.413 
82.791  73.743  17.406 
78.359  66.326  14.197 
80.384  74.203  16.317 
84.175  64.928  16.519 
86.415  71.979  19.930 
73.259  80.583  16.577 
72.878  78.078  15.008 
83.196  79.821  20.469 
80.769  71.131  15.829 
77.627  78.782  16.807 
77.832  83.213  20.668 
77.663  81.936  19.179 
84.423  79.011  20.685 
75.652  80.386  17.267 
75.609  78.058  15.642 
77.621  82.711  19.525 
80.463  79.334  19.008 
75.313  81.962  19.126 
73.604  83.291  18.299 
74.329  81.863  17.748 
72.407  82.522  17.821 
72.245  83.219  17.937 
72.393  83.868  18.192 
71.264  84.640  19.021 
69.977  84.573  18.595 
69.262  84.500  18.140 
68.913  83.879  17.642 
65.582  82.970  16.068 
59.746  86.213  16.722 
65.729  84.007  16.715 
58.983  80.699  14.985 
67.334  80.457  15.876 
69.585  81.195  16.716 
56.448  83.886  15.361 
64.860  86.522  17.788 
59.415  83.481  15.604 
59.796  82.360  14.991 
54.448  88.145  17.681 
51.140  87.595  17.894 
51.203  84.381  16.015 
57.843  82.601  14.772 
52.960  87.021  17.241 
48.912  85.107  16.878 
46.449  85.916  18.123 
49.003  82.213  15.186 
53.810  87.686  18.160 
49.935  83.750  15.771 
45.745  82.215  16.628 
46.596  88.840  20.286 
49.156  82.876  16.038 
44.324  85.761  18.977 
43.201  90.288  23.110 
43.682  78.387  15.979 
49.012  86.204  18.232 
46.240  85.152  18.090 
50.945  79.536  14.364 
44.436  80.292  16.709 
42.782  80.400  17.414 
42.017  80.617  17.670 
41.212  80.122  18.254 
40.239  80.165  18.822 
38.100  78.652  19.110 
39.171  79.572  19.284 
44.490  76.884  14.696 
32.760  72.039  20.017 
33.314  84.083  25.035 
39.462  72.387  15.262 
36.028  75.286  17.933 
43.397  70.533  14.417 
34.748  74.029  19.140 
34.307  83.349  23.974 
37.234  69.227  16.060 
38.529  73.231  16.012 
35.400  65.408  16.949 
31.661  70.689  20.517 
32.225  65.109  18.428 
38.002  68.876  16.094 
34.026  68.765  18.007 
30.812  68.797  20.681 
39.336  67.915  15.191 
29.763  67.277  21.870 
32.086  66.777  19.078 
31.160  66.672  20.067 
32.132  63.740  18.102 
29.727  66.625  21.298 
34.353  65.443  16.871 
35.427  65.997  17.413 
30.531  65.428  20.368 
32.066  66.301  19.747 
33.753  59.955  18.197 
29.486  57.378  20.367 
33.794  55.459  17.891 
33.299  54.780  18.588 
35.833  56.974  16.857 
31.391  57.652  19.900 
35.520  58.530  17.207 
34.206  55.759  17.642 
32.489  58.359  18.373 
34.248  56.159  18.037 
34.035  54.329  18.577 
33.102  52.307  19.014 
35.518  54.241  17.277 
37.089  53.419  17.106 
36.464  52.670  16.931 
35.719  51.923  17.682 
36.565  51.753  16.994 
36.958  48.247  17.359 
32.679  46.664  20.451 
35.513  50.631  17.815 
35.223  49.370  18.427 
35.257  48.524  18.214 
40.472  41.854  16.869 
40.808  48.927  15.358 
43.115  50.285  14.644 
37.752  47.728  16.565 
43.350  47.553  14.150 
39.529  42.741  17.090 
42.777  42.770  15.699 
47.543  42.083  14.607 
46.800  36.662  17.236 
46.116  38.771  16.696 
47.654  39.871  15.782 
54.393  40.101  14.298 
50.166  32.037  18.977 
53.845  38.645  14.686 
46.928  30.436  21.767 
56.715  38.238  14.550 
47.918  32.620  19.784 
52.409  32.770  18.721 
46.094  29.521  22.807 
52.796  34.792  16.887 
51.576  32.742  18.531 
47.153  31.530  21.236 
51.719  31.177  19.368 
49.899  34.281  17.934 
55.079  34.228  17.136 
50.996  33.846  17.939 
59.763  33.279  17.670 
53.775  35.044  16.397 
63.140  37.771  14.916 
61.607  41.279  12.912 
60.765  42.217  12.493 
58.018  33.609  17.463 
65.675  36.099  16.397 
58.988  43.733  12.367 
67.806  34.864  17.215 
60.273  37.619  14.866 
58.542  35.367  16.077 
63.126  44.049  12.316 
65.085  28.582  21.068 
73.218  36.555  17.482 
69.451  34.915  17.208 
70.684  42.560  13.801 
67.376  33.097  18.225 
69.718  36.893  15.917 
76.718  35.304  19.477 
70.564  41.559  14.737 
76.410  42.537  16.313 
69.860  30.613  19.531 
63.354  37.306  14.869 
73.859  37.196  17.207 
77.251  35.791  19.520 
69.097  42.164  13.500 
71.169  44.986  13.363 
71.845  39.983  15.947 
75.411  45.191  14.311 
77.133  43.047  16.359 
72.162  48.925  12.724 
76.997  45.215  15.194 
79.857  45.359  16.535 
80.486  46.289  17.146 
81.409  45.655  17.836 
77.081  53.765  13.834 
81.790  48.682  17.462 
83.509  51.003  16.858 
82.781  50.992  16.213 
82.951  50.259  16.881 
77.730  52.865  13.858 
82.588  49.804  16.876 
85.898  53.786  18.025 
86.563  51.427  19.408 
77.013  57.550  13.390 
82.139  58.920  14.621 
78.826  50.211  14.563 
79.387  59.121  13.647 
81.673  52.956  15.167 
83.150  56.812  15.464 
79.516  64.382  13.780 
83.186  52.195  16.183 
82.595  60.818  15.642 
83.751  53.550  16.849 
84.354  60.382  15.984 
82.846  59.211  15.048 
86.288  59.113  17.268 
83.794  63.465  16.122 
76.134  63.894  13.182 
80.276  58.072  13.855 
78.042  63.555  14.192 
83.700  72.017  17.146 
83.373  63.600  15.266 
86.328  72.910  19.350 
81.286  67.451  15.154 
85.158  69.681  18.417 
90.148  70.749  21.252 
81.098  63.460  14.888 
82.871  70.089  16.734 
83.008  65.453  15.278 
84.278  74.267  18.768 
70.171  73.178  12.959 
81.787  68.877  15.865 
74.257  70.374  13.285 
80.765  80.255  19.486 
69.896  79.399  15.317 
80.481  80.052  19.841 
78.443  78.447  16.840 
80.716  85.056  22.548 
80.990  84.285  22.222 
78.657  84.246  21.455 
75.173  81.599  18.162 
75.055  74.468  14.210 
74.722  79.571  16.315 
75.777  72.632  14.368 
80.082  84.197  22.057 
78.815  79.721  18.893 
72.696  83.073  18.166 
71.641  83.599  18.132 
70.903  83.226  18.278 
70.642  84.128  18.312 
69.823  84.012  17.900 
69.019  83.335  17.628 
67.353  84.300  17.520 
60.807  87.980  18.252 
67.426  85.004  18.045 
64.149  84.271  16.320 
66.239  85.508  17.728 
63.515  85.344  17.079 
57.423  83.875  15.807 
64.456  85.943  17.825 
53.732  87.253  17.497 
58.182  83.754  15.495 
64.602  87.518  19.215 
52.808  80.333  14.943 
63.020  80.609  14.304 
58.569  91.807  20.674 
47.873  83.266  16.275 
57.484  89.039  18.700 
49.021  79.381  15.062 
53.783  91.347  21.182 
48.346  79.792  15.149 
47.917  80.438  15.120 
44.951  87.533  20.596 
50.486  80.247  14.714 
49.137  87.502  18.995 
43.955  81.052  16.910 
51.317  82.834  15.671 
46.531  82.431  16.375 
41.401  77.555  16.335 
46.324  89.249  20.447 
44.629  86.405  19.506 
44.461  78.662  16.207 
49.174  86.713  18.328 
40.576  80.395  18.090 
41.288  80.231  17.408 
39.911  79.932  18.166 
39.496  79.817  18.687 
40.979  76.093  15.880 
39.150  73.797  16.262 
35.901  78.759  19.717 
35.748  74.194  17.573 
36.261  69.986  16.699 
41.178  73.275  15.388 
39.934  77.288  16.375 
41.188  73.989  15.270 
46.144  72.100  14.430 
43.369  75.713  15.176 
32.754  68.745  19.023 
31.669  70.071  20.133 
36.364  72.648  18.190 
31.573  65.542  20.062 
32.079  69.300  19.959 
38.930  72.488  15.970 
32.743  67.543  18.469 
32.219  69.782  19.674 
41.155  70.131  14.523 
31.632  68.718  20.146 
37.139  63.199  15.909 
31.520  62.049  19.096 
34.755  62.970  16.657 
37.391  62.260  16.332 
39.872  65.788  15.071 
35.018  58.505  17.171 
30.831  63.014  19.860 
32.751  61.791  18.452 
35.788  59.399  17.411 
36.317  58.880  17.053 
33.118  55.651  18.416 
30.618  56.203  19.494 
31.941  54.257  19.331 
30.287  51.564  20.852 
34.520  55.389  17.759 
32.361  55.984  19.238 
33.579  55.053  18.208 
34.851  54.099  18.000 
37.834  54.963  16.126 
34.556  53.377  17.525 
37.727  52.268  16.851 
37.591  51.484  16.418 
38.042  53.043  16.710 
37.429  49.542  16.682 
36.575  49.864  17.065 
40.266  50.428  15.642 
36.039  50.819  17.946 
38.247  46.060  16.914 
34.897  48.070  18.946 
38.748  43.846  16.917 
36.590  48.177  17.689 
31.848  49.052  20.371 
44.046  41.113  16.198 
44.543  52.621  13.769 
42.057  43.349  15.718 
47.794  40.898  15.722 
42.391  46.270  14.946 
45.038  40.710  16.615 
49.315  37.915  16.455 
48.366  39.740  16.439 
46.591  43.045  15.323 
48.842  39.335  15.435 
51.308  40.463  14.755 
45.593  41.232  15.371 
48.325  25.219  26.321 
52.093  32.799  18.310 
50.284  35.272  17.185 
54.476  31.581  18.820 
52.462  37.607  15.737 
50.665  35.738  16.887 
56.056  32.630  18.028 
53.517  36.514  16.843 
57.094  37.702  14.986 
55.204  41.637  13.606 
57.974  36.127  15.816 
58.271  44.099  12.324 
58.139  41.032  13.136 
54.629  38.524  14.918 
64.395  40.611  13.610 
66.234  44.210  12.354 
73.646  36.226  17.907 
58.703  37.235  14.469 
63.722  37.224  15.396 
58.477  34.839  16.113 
66.236  36.476  15.871 
59.497  42.428  12.904 
61.504  36.702  14.940 
66.466  34.592  16.763 
63.738  35.899  16.276 
67.510  39.830  14.084 
68.708  38.043  14.926 
70.074  41.915  14.083 
72.528  43.961  14.047 
77.018  41.223  16.941 
76.328  41.026  16.570 
73.929  38.217  16.357 
71.572  37.874  16.035 
74.213  41.460  15.415 
73.624  47.833  13.133 
75.849  41.819  16.157 
73.012  37.365  16.872 
77.731  44.684  15.306 
71.125  39.847  15.168 
74.508  47.748  13.135 
75.970  39.675  16.746 
79.879  44.668  17.035 
80.377  44.876  17.880 
81.372  46.261  17.045 
79.793  47.748  15.468 
80.391  48.484  16.485 
82.148  49.557  17.039 
81.905  53.704  14.941 
84.917  51.402  17.777 
88.597  55.873  19.284 
84.981  54.493  17.187 
89.756  55.405  20.259 
87.255  55.097  19.020 
88.176  57.065  19.267 
85.191  57.411  16.717 
83.554  52.944  16.267 
81.306  55.270  14.894 
79.003  57.092  13.543 
86.522  53.978  18.373 
80.096  53.670  14.189 
82.425  61.284  14.816 
80.777  58.718  14.102 
79.607  56.644  13.992 
76.285  61.344  13.279 
81.842  54.533  15.173 
82.956  55.745  15.343 
88.978  56.428  19.853 
87.306  62.448  17.637 
79.576  63.672  14.266 
77.510  60.301  14.061 
75.373  69.742  13.603 
81.544  76.138  17.480 
75.316  71.600  13.934 
85.766  66.337  17.578 
82.298  71.303  16.696 
84.002  70.830  17.593 
82.491  66.752  15.728 
79.230  73.227  15.874 
81.331  77.535  17.650 
79.947  70.850  15.319 
78.436  73.576  15.299 
76.949  79.141  16.994 
81.363  73.005  16.927 
83.155  78.894  20.183 
69.920  81.593  16.755 
75.941  83.090  19.785 
78.101  82.029  19.812 
76.598  83.589  20.497 
79.688  82.184  20.328 
73.951  80.266  16.666 
73.898  81.641  17.518 
73.161  79.040  15.991 
81.809  80.552  20.955 
74.019  82.247  18.409 
74.707  80.709  17.630 
71.331  82.242  17.370 
74.006  75.594  14.075 
70.987  83.032  17.852 
69.928  83.818  18.340 
69.736  82.801  17.690 
70.059  80.921  16.092 
65.767  86.335  18.953 
58.441  78.449  13.434 
66.949  82.009  16.172 
64.949  85.320  17.592 
60.993  84.620  15.641 
69.628  79.872  15.659 
60.545  82.952  15.929 
62.737  88.405  18.693 
57.466  78.926  13.526 
64.108  81.226  15.305 
59.604  87.800  17.497 
56.078  81.334  14.541 
65.262  80.033  14.825 
55.798  82.523  15.319 
57.556  79.249  14.153 
55.395  83.196  15.382 
50.150  78.038  14.643 
53.121  81.680  14.872 
51.266  78.729  14.183 
47.942  82.265  15.890 
46.648  84.260  18.048 
54.233  88.677  18.257 
48.859  78.553  14.579 
44.629  74.787  14.788 
46.617  86.440  19.178 
40.378  78.921  18.218 
48.435  84.882  17.695 
44.415  88.635  21.400 
37.875  77.004  17.079 
42.605  79.207  16.606 
42.185  79.821  16.956 
41.377  79.412  17.732 
38.450  79.045  18.528 
40.735  78.862  17.453 
40.587  79.582  17.782 
39.208  77.311  17.522 
34.832  78.031  20.200 
33.677  72.448  18.904 
39.095  71.719  15.615 
37.836  72.884  16.522 
35.169  76.047  18.819 
34.762  67.943  17.283 
32.480  68.076  18.903 
38.963  67.914  15.841 
31.456  69.529  20.423 
34.213  78.928  21.375 
32.168  67.708  20.352 
37.872  66.134  15.832 
35.588  68.506  16.990 
34.351  69.050  17.576 
36.622  72.127  16.870 
35.214  68.245  17.738 
31.314  67.691  20.182 
36.316  62.929  16.177 
28.722  64.660  22.103 
32.664  64.374  17.989 
37.021  65.969  16.145 
37.182  61.810  15.740 
31.023  61.566  19.018 
36.389  62.260  16.392 
33.711  63.131  17.040 
30.748  59.252  19.684 
33.102  64.035  18.079 
34.681  57.343  17.249 
34.411  62.206  16.738 
37.011  60.168  15.858 
35.167  56.427  16.855 
30.249  54.182  20.026 
34.628  53.485  18.130 
35.174  55.286  16.910 
38.734  54.214  16.378 
36.684  53.875  17.624 
37.452  53.835  16.435 
36.524  51.062  17.252 
37.084  52.262  16.583 
38.036  46.848  16.573 
38.532  45.276  16.671 
36.618  50.460  17.245 
38.726  49.506  15.561 
37.755  46.788  17.487 
38.458  45.972  17.388 
33.588  44.525  20.498 
38.875  50.296  15.648 
41.570  48.492  15.375 
44.147  45.602  14.225 
39.541  50.732  15.836 
39.879  45.016  16.199 
43.901  43.584  15.420 
42.937  40.001  16.754 
43.933  41.888  15.620 
45.961  45.541  13.914 
49.382  39.073  16.045 
52.163  40.307  14.602 
47.322  30.934  21.292 
51.249  42.453  14.138 
53.536  39.874  14.748 
53.207  40.687  14.740 
51.916  38.043  15.037 
53.614  34.284  16.952 
58.238  39.854  13.798 
51.845  33.531  17.704 
55.825  36.389  15.853 
49.754  31.555  20.158 
55.846  35.743  15.970 
60.473  40.013  13.382 
60.524  39.804  14.067 
60.959  41.742  13.177 
57.697  38.802  14.316 
58.936  39.189  13.773 
63.246  39.427  14.303 
69.143  40.587  14.515 
61.887  39.010  13.771 
64.361  38.469  14.417 
63.786  43.179  13.126 
64.566  45.329  12.053 
72.041  33.819  18.476 
68.730  35.604  16.278 
65.503  45.324  11.900 
64.108  38.529  14.934 
70.258  37.576  16.366 
69.809  38.856  14.907 
61.999  37.450  15.027 
66.710  39.529  14.904 
74.637  41.888  15.769 
75.999  38.234  17.738 
77.661  39.683  17.731 
73.409  42.103  14.751 
70.681  40.927  14.382 
73.092  39.039  16.063 
76.279  44.196  15.350 
79.608  33.777  22.465 
71.137  46.892  12.888 
74.838  37.000  17.808 
77.559  46.371  14.736 
73.046  47.306  12.812 
77.214  50.273  14.185 
80.130  43.433  18.262 
80.338  46.527  16.671 
76.321  47.396  13.723 
79.872  47.432  16.270 
78.869  48.451  14.788 
80.165  47.878  16.081 
81.290  50.369  15.733 
82.663  52.062  16.352 
83.852  51.372  16.725 
80.177  49.571  15.252 
85.537  52.430  17.681 
84.894  58.880  16.105 
80.525  51.678  14.929 
75.145  51.863  13.314 
79.715  54.582  13.475 
82.928  57.655  15.275 
76.267  48.278  14.310 
76.962  59.685  13.661 
77.310  58.581  13.633 
82.468  58.614  15.363 
78.706  66.801  13.944 
78.190  60.391  13.595 
82.820  63.252  14.746 
79.466  59.815  13.720 
84.709  69.539  17.850 
81.119  69.372  15.350 
80.145  69.360  15.426 
81.039  71.234  15.377 
83.531  72.695  17.658 
81.547  72.137  17.124 
76.928  75.910  15.896 
77.747  68.789  14.307 
84.533  70.199  17.837 
78.822  77.166  16.674 
77.452  70.148  14.680 
73.952  69.976  13.417 
81.522  66.084  15.077 
78.844  74.329  15.950 
78.119  76.611  16.550 
72.310  72.208  13.133 
72.837  74.346  14.264 
77.051  77.535  16.295 
77.302  75.384  15.445 
69.277  80.759  15.774 
81.082  70.258  15.403 
81.295  70.720  15.227 
72.423  80.347  16.261 
69.331  82.044  16.780 
71.382  75.861  13.781 
71.303  81.145  16.109 
76.091  82.476  19.602 
68.369  76.207  13.277 
72.148  82.157  17.734 
72.403  81.308  16.812 
71.281  82.492  18.132 
70.118  82.168  17.361 
65.120  80.545  14.640 
68.021  83.842  17.383 
62.874  81.003  14.690 
65.973  83.266  16.409 
71.672  80.014  16.105 
71.798  77.411  15.032 
68.288  76.768  13.783 
61.458  84.172  16.069 
61.364  82.450  15.804 
59.969  80.117  14.461 
59.112  86.536  16.871 
60.963  83.284  15.456 
52.981  80.688  14.316 
58.262  87.062  17.005 
50.987  89.498  19.863 
54.988  81.514  14.785 
59.977  79.610  13.975 
59.641  84.350  15.655 
52.152  83.627  15.381 
54.417  79.606  14.277 
49.666  80.134  15.178 
45.993  78.657  15.426 
49.183  82.162  15.800 
50.897  85.070  16.629 
46.338  92.261  22.896 
53.746  85.704  16.768 
44.902  77.869  15.141 
45.915  80.784  15.797 
49.042  85.764  17.277 
47.506  82.785  16.919 
46.374  76.242  14.591 
44.372  78.604  15.424 
39.785  77.932  17.626 
39.843  79.064  17.592 
38.563  77.888  17.649 
37.273  77.603  18.155 
38.981  78.487  18.137 
35.723  75.750  19.050 
41.818  71.835  14.531 
37.815  77.707  17.484 
38.484  77.394  17.083 
35.109  78.401  20.437 
37.008  73.406  16.655 
39.538  71.449  15.030 
36.992  69.630  16.190 
33.454  68.615  18.718 
40.593  74.972  15.534 
36.146  67.604  17.226 
32.152  66.034  18.795 
32.506  59.812  18.573 
36.426  70.470  16.459 
39.592  66.577  15.653 
38.459  65.640  15.613 
32.736  65.771  18.754 
34.071  61.515  17.305 
32.713  62.593  17.974 
36.246  65.904  16.375 
34.107  58.981  18.102 
37.415  66.761  15.895 
35.278  59.030  17.117 
36.404  60.688  16.431 
34.195  57.702  17.893 
29.513  68.256  21.757 
34.564  63.560  16.705 
37.960  58.250  16.191 
36.018  59.208  16.592 
36.122  57.507  16.993 
34.398  58.378  17.572 
32.755  55.285  18.591 
34.739  54.396  17.660 
36.832  54.221  16.852 
35.364  53.346  17.428 
37.536  53.592  17.215 
39.336  53.903  15.783 
37.564  53.027  16.504 
38.200  51.406  16.000 
38.849  52.559  16.321 
39.558  45.993  16.529 
38.642  38.460  19.396 
37.881  50.636  16.121 
39.868  48.805  15.712 
37.290  50.572  16.707 
39.055  46.653  16.475 
40.712  49.642  15.372 
42.222  48.246  14.898 
46.411  44.494  14.379 
33.400  42.111  21.195 
50.657  40.404  15.541 
43.550  46.851  14.407 
46.481  34.973  18.665 
46.976  38.859  16.067 
42.148  42.181  16.425 
47.513  43.976  15.109 
50.777  39.995  14.905 
51.043  40.871  14.902 
53.320  37.451  15.646 
48.062  34.549  18.073 
47.440  38.182  16.206 
51.510  35.400  16.887 
52.897  33.968  16.824 
55.554  34.930  16.164 
61.982  40.902  12.971 
60.736  31.351  18.501 
56.937  44.328  12.554 
52.862  36.887  15.931 
55.398  38.577  14.659 
56.794  41.399  13.342 
58.250  42.124  13.096 
55.479  39.137  15.211 
59.318  33.575  17.608 
63.466  42.109  12.764 
66.790  48.497  11.345 
62.941  42.789  12.687 
68.469  43.095  13.113 
67.576  38.640  15.279 
63.344  33.513  16.878 
64.208  44.229  12.435 
64.543  36.785  16.197 
66.145  35.949  15.877 
63.051  40.079  13.692 
75.187  33.697  19.644 
71.228  38.153  16.297 
75.930  35.278  19.002 
69.170  36.584  16.562 
66.149  37.159  15.507 
74.015  39.660  15.944 
70.988  46.277  13.381 
74.810  44.352  15.256 
70.734  36.054  17.243 
66.839  47.966  11.233 
70.239  44.154  13.498 
78.876  42.146  17.533 
70.390  42.894  14.460 
75.603  47.892  13.905 
79.123  47.883  15.777 
72.828  45.206  13.803 
77.874  45.817  15.397 
75.785  46.617  14.521 
80.918  49.042  16.916 
78.759  54.876  13.420 
78.686  49.578  14.894 
81.709  50.133  16.605 
79.693  51.767  14.778 
78.496  53.218  13.674 
77.243  55.770  13.306 
80.678  52.996  14.054 
79.345  52.369  14.249 
75.159  56.240  13.578 
75.902  59.263  13.528 
90.721  52.679  21.758 
77.985  57.113  13.490 
80.650  54.264  14.383 
80.113  64.834  14.349 
78.960  59.910  13.805 
85.968  57.920  17.066 
85.255  56.408  16.955 
77.186  59.168  14.393 
82.561  59.678  15.318 
83.561  67.412  16.542 
79.553  68.116  15.119 
83.683  74.075  17.817 
86.400  64.780  17.502 
85.297  60.815  16.639 
81.977  74.475  17.819 
84.268  78.544  20.618 
80.569  72.894  15.902 
76.797  73.435  14.725 
80.848  75.540  16.920 
73.572  73.971  13.736 
75.625  76.288  15.124 
83.970  69.847  17.375 
70.628  68.479  12.040 
74.055  68.761  12.962 
70.742  80.434  15.785 
77.737  71.469  14.584 
69.920  79.030  14.705 
73.704  77.813  15.006 
75.176  80.946  17.560 
76.790  83.024  19.749 
73.006  75.408  14.071 
75.676  77.138  15.501 
72.325  68.545  12.881 
71.487  77.384  14.470 
74.272  77.021  15.188 
76.109  80.448  17.421 
73.046  82.825  17.899 
73.587  78.601  15.676 
72.737  81.180  17.717 
70.289  82.622  17.929 
66.832  80.934  15.506 
70.484  79.238  15.329 
68.521  81.425  16.059 
72.737  77.362  14.749 
69.037  81.847  16.432 
64.813  83.168  15.918 
64.127  80.516  14.630 
54.355  94.068  22.447 
58.975  81.670  14.805 
55.861  91.821  21.029 
58.498  86.023  17.299 
51.737  84.963  16.819 
53.982  83.013  15.404 
59.278  84.766  16.007 
46.811  78.196  14.648 
51.923  78.207  14.051 
63.004  77.804  13.668 
58.284  79.104  13.690 
53.325  79.970  14.069 
48.290  83.568  16.475 
50.590  88.927  19.661 
49.908  82.308  15.298 
45.866  78.492  14.894 
52.415  84.316  16.627 
45.154  82.714  16.930 
41.302  78.868  16.936 
44.925  81.828  16.698 
50.824  85.759  16.774 
48.045  78.608  14.512 
44.017  77.550  15.405 
46.602  81.247  15.606 
47.989  78.146  14.197 
45.271  83.222  17.452 
40.704  73.076  15.318 
41.324  75.276  15.335 
36.329  75.568  17.569 
36.818  78.850  19.620 
39.144  75.164  16.866 
35.614  76.871  18.677 
35.900  70.818  16.793 
46.900  75.994  14.368 
36.049  76.311  17.888 
46.804  77.453  14.249 
36.375  73.960  17.036 
35.628  73.146  17.855 
45.647  74.073  14.355 
35.419  66.883  17.141 
43.360  71.924  14.031 
37.182  65.728  16.559 
37.070  71.120  16.861 
33.361  65.976  18.142 
37.404  67.040  16.578 
30.022  65.868  20.915 
40.099  73.030  15.604 
33.769  63.699  17.088 
34.724  64.533  16.479 
33.307  61.850  17.958 
35.288  60.854  16.521 
36.828  62.235  15.945 
31.329  60.715  18.945 
33.325  58.008  17.798 
34.092  65.427  17.694 
37.700  61.233  16.330 
37.755  60.126  15.762 
37.459  59.357  15.951 
36.510  58.470  16.665 
35.926  55.462  16.907 
34.939  53.762  17.285 
37.406  55.755  16.576 
38.054  53.828  16.365 
36.470  55.785  16.909 
36.681  55.904  16.428 
37.384  54.445  16.454 
38.750  53.229  15.865 
38.263  52.500  16.126 
37.358  51.456  16.918 
39.949  49.317  15.541 
37.162  49.717  17.184 
39.654  51.589  15.606 
40.140  43.884  16.985 
38.342  48.926  15.880 
33.602  45.292  20.027 
37.194  42.276  18.288 
46.711  51.033  12.634 
37.888  43.362  18.346 
40.320  45.873  16.146 
42.929  42.169  15.885 
42.899  35.093  19.737 
40.677  45.652  15.839 
44.609  40.463  15.898 
46.674  44.001  14.506 
45.569  43.123  15.606 
48.901  42.075  14.695 
48.421  42.711  14.532 
53.565  36.728  15.991 
48.634  37.591  16.300 
56.682  36.444  15.213 
55.103  36.007  15.668 
53.081  36.095  16.237 
53.633  41.227  14.240 
51.123  38.217  15.546 
52.049  37.055  16.231 
63.304  44.565  12.168 
58.043  45.162  12.295 
62.550  43.263  12.501 
59.656  37.399  14.417 
57.244  41.118  13.708 
55.731  39.255  14.362 
57.589  36.560  15.085 
62.497  38.125  14.547 
52.433  39.923  14.881 
68.138  38.685  14.817 
68.575  41.171  14.743 
65.995  41.450  13.615 
64.561  37.573  14.627 
72.507  40.855  15.083 
77.083  39.632  17.249 
68.923  39.843  14.622 
69.690  41.062  14.273 
78.692  44.017  16.475 
73.398  37.837  17.232 
75.771  44.709  14.884 
66.555  39.768  14.097 
71.583  49.324  12.438 
61.671  37.865  14.714 
68.085  36.039  16.754 
74.081  42.253  14.749 
68.240  41.431  13.747 
78.798  48.744  14.373 
76.822  48.060  14.205 
76.348  44.593  15.041 
76.757  45.905  14.885 
74.799  46.830  14.364 
79.053  53.060  13.714 
73.069  43.132  15.145 
76.185  43.459  15.371 
79.236  46.570  16.059 
80.676  46.744  16.964 
82.189  52.492  15.757 
81.832  50.538  16.211 
76.676  51.986  14.424 
76.216  50.486  14.209 
76.767  52.466  13.691 
82.168  55.932  15.335 
84.875  55.596  16.593 
78.099  56.163  13.720 
78.672  51.982  14.714 
81.488  52.600  15.856 
78.102  57.888  13.527 
79.822  60.526  14.253 
84.309  64.229  15.917 
76.467  62.154  13.482 
81.375  63.822  14.707 
74.674  67.808  13.428 
88.054  56.998  18.022 
78.734  67.762  14.318 
88.317  64.917  18.067 
73.757  71.007  13.809 
80.293  61.079  13.844 
76.856  63.595  13.544 
77.430  65.855  13.523 
83.103  67.084  15.862 
71.393  65.314  12.475 
74.106  66.978  13.634 
74.163  66.078  12.928 
69.749  71.567  12.145 
81.295  75.678  18.098 
75.622  67.677  13.443 
73.583  72.287  13.309 
77.797  79.561  17.284 
76.981  81.263  18.506 
75.823  78.673  17.404 
76.510  75.815  15.281 
75.845  77.647  16.459 
81.198  76.435  17.316 
73.375  73.141  13.682 
75.741  75.445  15.025 
68.637  77.367  14.093 
74.589  81.125  17.827 
74.704  77.075  15.686 
74.149  78.230  16.076 
76.299  82.088  19.213 
73.409  79.711  16.418 
72.517  80.717  16.828 
69.439  81.299  15.992 
70.808  81.458  17.212 
76.113  75.994  15.739 
70.690  80.771  16.594 
60.637  76.856  13.204 
70.649  78.166  14.268 
66.932  83.104  16.874 
56.182  78.531  13.832 
63.497  84.166  15.565 
65.635  85.435  17.391 
61.648  79.739  13.953 
50.086  83.111  15.373 
54.630  85.703  16.511 
62.622  84.319  15.495 
55.044  79.289  14.307 
57.191  78.230  13.392 
56.591  82.508  15.143 
54.899  83.367  15.759 
51.341  87.536  18.930 
50.325  78.488  14.097 
45.871  84.141  17.644 
45.664  80.588  16.303 
53.220  79.420  14.144 
51.242  83.657  15.746 
49.762  85.448  17.282 
52.401  86.717  17.856 
51.913  74.339  13.435 
43.849  79.056  15.919 
46.254  82.739  16.897 
42.066  80.408  17.246 
50.453  81.722  14.891 
42.853  80.268  16.878 
34.796  72.842  18.234 
41.885  76.356  15.485 
47.952  77.103  14.207 
40.944  78.058  17.280 
48.794  77.699  14.236 
40.276  74.022  15.615 
47.612  79.404  14.770 
36.166  69.633  17.473 
34.521  69.810  17.854 
38.625  71.510  15.340 
44.732  67.468  14.137 
31.611  71.637  20.964 
31.422  72.170  21.895 
46.011  73.436  14.826 
29.403  68.746  21.817 
41.653  67.945  14.598 
38.105  67.429  15.977 
36.557  67.670  16.391 
38.522  76.017  16.816 
31.863  63.473  18.498 
35.763  69.366  16.830 
38.641  69.193  15.653 
33.141  65.107  17.861 
36.867  64.872  15.935 
33.908  60.768  17.067 
38.272  64.218  15.487 
33.846  61.529  16.837 
32.698  59.230  18.431 
34.639  65.051  17.122 
38.362  60.862  15.990 
31.166  65.690  19.824 
36.737  59.261  16.103 
37.210  56.686  16.847 
33.322  58.886  18.090 
34.443  54.980  17.453 
35.318  54.756  17.655 
36.111  54.400  17.201 
37.084  55.076  16.621 
37.253  55.432  16.274 
39.025  54.485  15.678 
38.576  51.759  16.439 
39.529  52.480  15.879 
36.913  47.734  16.917 
43.281  51.334  13.838 
42.882  43.784  15.277 
38.960  51.145  15.450 
48.886  40.183  15.530 
40.938  48.915  16.115 
44.216  39.994  16.505 
40.603  50.597  15.014 
46.062  39.523  16.682 
39.749  50.729  15.317 
35.655  44.134  18.521 
43.733  50.784  14.410 
40.828  47.445  15.632 
39.178  45.623  16.348 
46.576  46.040  13.818 
49.324  44.146  13.639 
50.294  40.742  14.910 
48.810  38.448  15.758 
44.411  43.149  14.929 
56.284  37.239  14.958 
47.069  37.044  16.660 
55.075  35.233  16.089 
54.741  42.405  13.874 
52.706  42.089  13.869 
47.089  33.881  19.023 
52.988  39.044  15.070 
64.693  41.932  13.443 
58.786  42.967  12.909 
56.679  40.278  14.260 
61.009  46.564  11.352 
65.852  42.899  13.418 
58.794  46.663  11.865 
57.626  37.003  14.457 
66.166  41.247  14.152 
60.929  43.675  11.989 
56.723  38.976  13.878 
67.343  42.830  13.578 
63.793  39.057  13.753 
67.723  35.489  16.525 
71.201  39.777  14.692 
66.954  41.915  13.529 
68.281  47.938  11.809 
63.378  41.351  13.155 
63.118  36.488  15.262 
67.778  41.592  13.430 
78.269  46.014  15.164 
69.618  35.672  16.636 
68.907  38.530  14.952 
70.875  42.089  14.118 
73.037  46.140  13.533 
74.715  38.462  16.832 
77.902  48.940  14.072 
70.387  50.257  12.602 
68.220  46.059  12.268 
74.774  43.298  14.505 
68.824  41.152  13.991 
75.512  42.422  15.790 
76.793  49.979  14.408 
77.093  46.888  14.354 
78.241  48.369  15.424 
79.690  48.737  15.217 
79.916  49.342  15.890 
77.331  48.159  14.155 
80.751  53.693  15.022 
83.189  53.758  16.244 
78.311  51.218  14.344 
84.386  54.711  16.853 
79.029  47.485  15.010 
79.022  54.332  13.649 
74.248  48.898  13.667 
84.459  51.687  17.298 
82.255  53.060  15.914 
81.655  70.222  16.701 
76.734  65.047  13.410 
79.790  53.348  13.439 
77.585  63.411  13.747 
72.304  68.257  12.474 
77.931  55.408  13.568 
79.384  62.181  13.838 
87.331  68.462  18.963 
79.357  69.677  15.338 
77.358  62.097  14.072 
82.067  72.320  16.669 
84.568  61.155  16.576 
80.412  76.348  16.955 
72.547  69.279  12.586 
80.571  72.083  15.861 
79.273  76.256  16.935 
70.690  72.276  13.179 
67.605  74.095  12.694 
74.745  72.396  14.140 
72.139  75.647  14.230 
68.418  80.500  15.449 
70.595  73.030  13.599 
76.308  77.241  15.746 
71.864  81.049  17.376 
70.978  71.639  12.701 
68.066  74.575  12.892 
74.046  71.381  13.169 
65.096  75.717  12.932 
67.869  79.481  14.437 
76.518  72.505  14.655 
67.549  79.889  14.889 
73.367  78.089  15.421 
64.803  82.050  15.224 
70.979  76.683  14.223 
68.418  79.896  14.899 
65.891  81.629  15.904 
67.718  82.617  16.664 
68.402  82.739  17.354 
62.996  82.512  15.508 
66.035  77.140  14.104 
69.684  82.479  16.847 
66.877  77.158  13.501 
64.133  79.576  14.460 
61.802  85.694  16.863 
55.138  86.847  17.535 
63.942  85.589  17.055 
54.764  88.962  18.118 
58.736  79.560  13.536 
55.397  81.332  14.610 
53.726  82.353  15.104 
52.596  78.544  14.403 
55.015  76.896  14.026 
52.984  87.636  17.444 
54.197  83.706  15.579 
46.950  83.467  17.344 
53.584  83.232  15.597 
48.587  82.670  16.526 
53.793  73.599  12.962 
48.597  85.975  18.059 
45.242  80.052  15.641 
45.552  81.451  16.350 
49.727  75.654  14.281 
48.393  79.083  15.184 
45.058  79.959  16.305 
47.587  80.110  15.529 
45.889  71.041  14.349 
42.175  72.568  14.444 
38.562  74.446  16.204 
39.891  74.273  16.374 
41.960  78.313  16.223 
42.304  75.907  15.640 
38.656  76.772  16.694 
43.410  74.249  14.299 
44.107  73.440  14.158 
44.192  75.700  15.004 
38.013  75.223  16.692 
36.601  78.325  18.782 
32.475  71.776  21.131 
34.585  74.849  19.051 
35.863  67.513  16.464 
43.040  71.392  14.738 
35.816  63.207  17.029 
37.594  70.912  16.038 
35.712  62.269  16.476 
39.134  70.456  15.413 
38.190  72.243  15.898 
42.099  70.043  14.824 
37.760  64.827  16.082 
36.644  61.405  16.079 
36.783  66.949  16.097 
32.026  62.309  18.188 
33.762  62.399  17.291 
34.660  64.437  16.937 
36.204  59.966  16.378 
37.658  61.504  15.933 
38.085  57.302  15.886 
37.060  58.536  16.118 
38.748  58.219  15.747 
37.175  57.263  16.186 
34.738  56.851  17.361 
35.521  56.886  17.543 
35.708  56.118  17.160 
39.876  54.237  15.911 
40.174  54.964  15.244 
39.996  53.099  15.407 
39.018  47.592  16.673 
40.541  51.970  15.187 
37.854  49.861  16.546 
38.451  47.054  16.776 
42.850  52.984  14.451 
42.010  44.428  15.772 
45.494  50.093  12.625 
39.958  49.811  15.791 
38.170  49.696  16.062 
39.734  41.984  17.375 
35.007  44.353  19.055 
43.217  48.432  14.874 
40.963  46.358  16.585 
41.947  53.073  14.434 
44.880  42.297  15.101 
48.248  44.786  14.248 
45.596  45.614  14.299 
51.083  41.340  14.584 
54.051  37.193  15.206 
49.610  42.397  14.250 
50.563  43.025  13.819 
50.574  42.662  14.722 
52.248  42.095  14.291 
60.140  41.297  13.114 
49.598  43.160  13.809 
57.588  39.486  13.836 
62.283  40.064  13.944 
54.352  42.748  13.410 
55.931  40.699  14.157 
62.742  42.106  12.720 
63.944  41.995  13.122 
62.568  44.386  11.866 
60.491  42.040  13.000 
61.534  42.827  12.533 
57.462  42.572  13.293 
66.083  43.557  12.853 
62.747  39.338  13.655 
59.419  44.749  11.871 
67.005  37.508  15.179 
67.235  36.065  16.490 
68.445  37.551  15.283 
63.700  38.606  14.118 
71.935  44.416  13.947 
70.669  36.189  16.593 
69.970  39.647  14.588 
68.578  39.251  15.263 
74.013  44.685  14.436 
67.661  43.041  12.867 
68.121  42.408  13.371 
70.886  45.395  13.164 
69.584  49.515  12.130 
71.482  43.375  14.259 
72.290  47.639  12.575 
67.930  46.406  11.972 
68.578  45.386  12.866 
71.367  48.958  12.136 
79.474  49.164  15.177 
81.484  51.100  15.651 
79.158  45.505  16.071 
79.660  49.985  14.800 
75.996  45.999  14.433 
80.674  49.105  15.958 
79.815  55.295  14.185 
75.840  48.101  13.472 
78.781  55.541  13.746 
73.986  53.425  13.180 
76.862  53.181  13.847 
77.334  56.945  14.036 
79.837  58.170  13.694 
85.819  57.514  17.220 
85.358  55.512  17.258 
84.448  55.458  17.416 
78.949  57.835  13.772 
83.504  57.939  15.866 
85.103  62.092  16.527 
82.092  73.820  16.968 
78.097  65.265  13.680 
81.581  59.544  14.470 
77.672  67.020  13.737 
82.466  69.891  16.434 
83.418  65.296  15.999 
78.607  72.849  15.034 
77.128  62.836  13.613 
76.190  71.822  14.319 
80.842  68.452  15.296 
67.015  74.823  12.618 
66.200  68.085  12.473 
79.506  78.729  18.305 
64.531  75.158  12.860 
76.162  70.422  14.577 
73.566  68.971  13.432 
74.624  71.679  13.537 
72.794  73.543  13.296 
73.998  72.835  13.978 
71.498  81.788  16.845 
68.402  73.292  12.282 
74.070  73.769  13.528 
73.634  75.483  14.686 
71.680  69.174  12.325 
79.559  74.573  16.190 
74.193  76.573  14.625 
78.434  70.072  14.994 
66.762  80.675  15.010 
75.158  78.348  16.077 
74.463  81.026  17.180 
67.768  78.604  14.239 
72.630  79.511  16.004 
60.960  81.947  15.124 
66.618  83.571  16.850 
68.789  79.416  14.478 
64.984  83.592  16.603 
63.197  83.333  15.691 
69.543  78.259  14.481 
60.744  85.221  16.138 
64.197  82.317  15.446 
64.529  80.964  15.505 
62.760  81.588  15.267 
65.120  81.396  15.142 
47.650  75.931  14.404 
64.657  77.864  13.931 
54.859  80.185  14.303 
51.082  86.508  16.960 
50.877  76.424  13.986 
51.825  77.284  14.482 
50.993  82.264  15.493 
51.495  81.963  15.335 
47.614  74.216  14.083 
41.942  78.675  16.888 
43.628  80.618  16.737 
44.856  78.275  15.421 
43.769  76.511  14.948 
45.476  75.859  14.534 
45.749  72.772  14.094 
46.582  79.072  14.807 
46.147  81.238  15.895 
46.856  80.495  15.214 
36.167  76.899  18.515 
44.905  72.613  14.655 
45.469  77.761  15.164 
36.277  79.092  19.579 
41.519  77.075  15.588 
45.238  71.683  14.563 
37.904  71.122  15.735 
43.518  71.503  14.660 
40.715  71.074  14.831 
31.221  63.681  19.113 
40.799  71.622  14.905 
44.702  74.616  14.356 
34.291  68.537  17.662 
36.796  74.752  17.971 
38.375  73.558  16.357 
40.331  71.938  15.150 
33.341  64.607  17.426 
33.628  65.978  17.390 
43.645  67.873  14.288 
41.419  66.494  14.245 
35.923  65.155  16.429 
32.746  66.575  18.590 
35.497  64.480  16.719 
32.034  64.452  18.552 
35.893  61.479  16.547 
38.803  62.058  15.138 
39.324  62.003  15.193 
35.151  61.819  16.676 
37.774  58.590  15.542 
37.966  63.536  15.612 
36.766  57.969  16.689 
36.723  56.728  16.889 
37.923  55.924  15.964 
38.099  56.417  15.745 
38.309  54.815  16.380 
39.603  54.641  15.425 
38.910  50.939  16.174 
39.740  52.103  15.549 
40.680  52.684  15.313 
41.865  50.978  14.799 
43.972  51.804  13.758 
41.151  44.403  15.816 
43.287  46.281  14.840 
44.270  46.531  14.599 
44.665  49.053  13.200 
42.265  41.694  16.372 
41.805  46.900  15.211 
38.277  50.337  15.939 
43.298  50.818  14.057 
39.751  44.262  16.336 
42.014  47.387  14.977 
40.991  43.364  16.052 
47.900  44.566  13.983 
45.091  46.110  14.228 
47.414  44.782  14.397 
51.451  44.945  13.050 
48.274  43.635  14.193 
47.690  43.209  14.679 
49.320  41.369  14.944 
51.100  41.840  14.842 
50.868  43.306  14.146 
54.805  40.648  13.883 
52.351  35.596  16.552 
54.189  39.262  14.928 
52.056  39.304  15.008 
54.337  41.570  13.884 
60.699  42.853  12.321 
58.734  41.482  13.090 
56.629  42.245  13.601 
65.754  39.256  14.060 
57.769  41.448  13.197 
62.916  43.593  12.320 
67.019  40.487  13.649 
72.594  38.749  16.347 
66.597  38.228  15.075 
60.127  46.537  11.354 
67.378  39.000  14.570 
64.315  42.514  12.758 
65.366  44.787  12.606 
69.234  48.063  11.737 
71.537  42.465  14.412 
68.379  46.934  12.054 
72.155  43.013  14.097 
76.619  46.804  14.483 
67.198  44.272  12.510 
70.100  47.272  12.187 
77.852  47.212  14.756 
68.663  48.918  11.680 
79.084  51.148  14.853 
70.216  44.939  13.169 
74.692  53.425  13.713 
76.950  43.747  15.774 
78.993  44.940  16.803 
78.005  50.412  14.425 
77.645  44.047  15.912 
82.557  54.233  15.252 
74.540  49.549  13.268 
80.567  50.273  15.157 
83.618  50.515  16.831 
76.570  56.568  13.521 
75.631  55.459  13.854 
76.115  57.080  13.347 
78.154  52.923  13.688 
78.582  59.570  13.644 
84.376  56.722  16.413 
77.226  55.006  13.587 
81.605  56.104  14.596 
80.519  61.872  14.298 
67.053  72.413  12.593 
78.293  56.782  14.216 
77.122  64.989  13.981 
77.376  68.020  14.606 
84.378  67.200  16.655 
80.493  63.626  14.339 
83.818  59.368  15.633 
84.606  69.112  17.516 
80.047  68.474  15.025 
73.598  68.864  12.830 
79.272  73.188  15.390 
77.924  67.927  13.898 
77.025  72.378  14.734 
73.767  67.687  13.533 
79.819  73.691  16.230 
73.321  66.278  12.941 
69.108  68.734  11.886 
76.645  79.998  17.469 
76.534  73.889  15.542 
75.010  79.135  16.607 
72.151  71.290  13.339 
74.222  75.000  13.946 
75.396  73.704  14.254 
67.309  77.948  13.926 
67.878  77.873  14.439 
69.354  75.435  13.319 
68.883  71.686  12.345 
76.992  77.767  16.893 
66.310  79.525  15.520 
71.351  78.197  14.855 
74.643  77.913  15.405 
72.912  71.692  13.375 
65.093  79.273  14.657 
73.364  75.087  14.252 
61.934  76.969  13.252 
68.613  82.347  16.569 
59.652  77.676  13.788 
62.745  83.187  15.824 
61.347  86.961  17.122 
53.186  82.630  15.095 
60.134  85.778  16.265 
57.320  83.101  15.109 
65.328  76.617  13.320 
53.266  86.580  17.348 
52.295  88.480  18.230 
58.010  75.173  13.355 
47.250  82.395  16.748 
54.908  84.363  16.068 
52.582  75.747  13.385 
57.913  76.957  13.159 
47.423  78.092  14.959 
49.904  77.367  14.842 
52.421  86.652  17.012 
50.253  75.659  13.692 
50.099  76.371  14.222 
46.154  82.096  16.214 
48.318  71.755  13.241 
43.533  69.294  14.032 
45.421  76.903  14.755 
46.367  72.269  13.949 
39.815  70.227  14.927 
40.893  74.598  15.490 
32.266  72.774  20.248 
40.303  69.178  15.052 
41.640  75.566  15.729 
33.243  73.074  19.358 
43.048  72.292  14.175 
43.315  76.865  15.153 
43.288  73.175  14.239 
39.375  65.182  15.411 
35.043  70.873  17.361 
37.792  73.769  17.219 
43.577  73.484  14.986 
36.800  68.305  16.975 
39.219  69.522  15.116 
39.176  65.715  15.457 
46.052  66.508  13.608 
40.732  67.588  15.499 
39.304  68.639  15.818 
34.568  61.326  16.893 
38.267  63.931  16.106 
38.367  69.627  15.449 
36.899  63.995  15.991 
36.371  64.029  16.359 
35.775  61.475  17.100 
38.892  63.558  15.778 
39.032  61.526  15.738 
38.027  59.848  16.031 
33.340  60.851  17.827 
34.818  55.930  17.163 
38.849  57.421  16.374 
36.734  57.183  16.644 
40.175  56.409  15.711 
38.127  55.797  16.455 
37.210  56.340  16.151 
41.018  55.418  15.354 
39.743  53.341  16.078 
40.700  53.489  15.679 
41.240  53.094  15.605 
40.953  52.536  14.791 
45.959  53.997  12.679 
44.811  46.027  13.815 
41.830  49.364  14.710 
39.096  48.797  15.992 
44.037  46.565  14.085 
42.525  49.685  14.808 
