79.807  56.050  105.410 
82.747  53.314  103.289 
79.577  48.946  103.729 
76.625  53.006  105.827 
79.811  53.793  104.220 
75.077  57.172  107.081 
71.061  57.613  107.444 
76.010  54.903  106.656 
71.579  54.338  107.967 
73.289  59.473  107.019 
72.263  61.184  106.311 
72.500  59.840  106.657 
73.771  61.204  106.027 
75.591  61.770  106.483 
71.894  62.068  107.366 
72.477  62.532  106.820 
71.513  62.243  107.116 
73.137  63.981  106.709 
72.300  64.007  106.389 
72.160  64.822  106.826 
72.706  64.723  106.883 
71.160  66.541  106.808 
70.634  66.788  106.464 
69.801  67.752  107.294 
70.016  68.004  106.896 
70.123  68.656  107.109 
69.228  68.833  106.853 
69.331  69.651  107.001 
67.556  70.787  106.873 
66.899  70.230  106.951 
66.780  71.069  106.781 
66.065  70.489  106.685 
65.868  71.543  106.857 
65.106  71.226  106.585 
55.367  79.564  105.374 
63.846  72.732  106.678 
62.802  70.933  107.911 
67.486  78.429  104.647 
57.858  71.510  108.271 
63.652  78.678  105.530 
62.607  73.713  107.309 
56.556  83.973  103.146 
58.571  71.894  108.169 
57.084  74.418  106.858 
56.860  75.214  106.527 
56.351  70.739  107.992 
55.410  69.826  108.077 
51.975  69.854  106.930 
51.514  70.665  107.291 
51.229  71.396  107.163 
51.068  69.686  107.252 
49.207  70.658  106.685 
49.476  69.699  107.518 
52.795  67.578  108.434 
45.374  65.992  107.511 
48.229  69.288  107.521 
52.400  62.559  109.134 
47.392  63.332  108.360 
42.421  62.681  106.486 
48.699  67.809  107.075 
49.184  62.809  108.122 
44.341  62.076  107.159 
39.482  60.742  105.564 
42.804  63.887  106.595 
44.571  59.599  107.605 
43.332  64.257  107.349 
50.866  55.319  108.239 
48.019  57.590  108.712 
44.595  60.522  107.767 
42.016  65.627  106.776 
52.613  53.325  108.273 
43.381  55.319  106.073 
39.552  57.595  105.639 
46.948  55.457  107.574 
43.181  57.523  107.283 
45.421  56.253  107.699 
45.632  52.935  106.407 
46.859  50.427  106.709 
46.600  50.951  106.747 
52.144  53.297  108.671 
53.765  53.174  108.864 
49.033  51.001  107.376 
58.042  50.371  108.681 
50.445  47.742  107.106 
57.852  45.668  107.364 
52.626  49.071  107.816 
62.900  45.349  107.257 
53.502  43.365  106.064 
55.383  44.420  106.868 
57.843  40.199  105.663 
57.752  43.247  106.980 
64.118  38.365  105.068 
61.690  47.242  108.058 
65.290  46.134  108.006 
66.105  45.959  107.981 
60.582  36.416  104.869 
66.088  52.821  108.672 
64.810  45.404  108.017 
62.425  47.570  108.095 
72.237  48.984  106.651 
71.762  46.555  105.649 
63.474  44.833  107.570 
67.998  44.493  107.098 
70.173  44.175  105.742 
71.718  52.772  108.035 
71.532  48.218  106.612 
68.519  47.202  107.560 
72.058  49.594  106.793 
71.474  50.319  107.665 
70.688  50.151  107.795 
70.919  51.405  108.493 
74.570  55.132  107.009 
73.365  44.807  104.561 
75.957  52.499  106.613 
72.373  47.713  105.725 
65.178  47.570  107.818 
75.940  51.816  105.655 
72.388  50.292  107.315 
73.269  58.061  106.995 
75.306  50.690  106.321 
74.223  58.401  107.037 
73.114  58.587  107.421 
70.975  56.883  107.622 
78.928  59.142  105.395 
76.534  56.913  106.184 
73.296  60.620  106.849 
74.235  60.332  106.588 
73.250  63.232  105.937 
73.282  62.349  106.315 
72.266  63.998  107.012 
75.123  64.316  106.484 
74.067  63.946  106.508 
72.899  65.353  106.642 
72.258  66.118  106.773 
72.089  65.351  106.735 
71.983  66.533  106.719 
70.162  66.903  107.380 
70.598  67.919  107.269 
70.746  69.079  106.738 
69.649  68.925  107.108 
69.216  69.788  106.471 
68.753  70.073  107.048 
68.226  70.424  106.374 
68.116  70.681  106.966 
66.770  71.604  106.190 
65.902  72.610  106.588 
65.508  72.938  106.341 
66.866  77.497  105.559 
64.289  70.744  107.526 
61.414  72.446  107.593 
62.340  72.999  107.215 
63.501  74.671  106.812 
64.821  80.534  104.263 
57.686  75.078  106.784 
56.912  80.261  104.957 
55.477  72.107  107.486 
57.255  76.849  106.541 
53.354  70.782  107.025 
61.582  75.244  107.020 
54.807  69.913  108.161 
53.654  73.167  106.807 
56.843  71.470  107.821 
52.837  71.983  106.952 
54.989  67.400  108.448 
50.540  71.700  106.921 
50.265  69.981  107.402 
50.894  70.565  107.484 
47.838  71.510  106.286 
49.873  69.547  106.831 
53.784  58.257  109.078 
52.992  57.800  109.286 
51.116  63.539  108.287 
47.506  69.731  107.148 
47.897  59.736  108.571 
46.467  60.875  107.872 
48.666  61.590  108.289 
49.258  60.726  108.256 
40.850  64.143  106.348 
50.137  64.544  108.456 
40.110  62.498  105.546 
44.722  56.485  107.180 
46.681  62.021  107.750 
48.593  53.766  107.918 
40.617  57.831  105.777 
44.547  64.170  107.718 
43.154  54.881  106.186 
44.101  56.002  106.012 
49.489  54.099  108.393 
45.056  56.572  107.520 
43.705  54.399  106.505 
44.814  54.561  106.592 
46.285  51.315  106.457 
43.848  55.327  106.294 
47.125  48.880  106.160 
46.281  60.111  107.958 
51.328  53.936  108.973 
47.248  49.744  106.886 
46.568  52.260  106.884 
52.880  50.660  108.338 
52.593  47.234  107.572 
49.930  50.666  107.479 
57.139  47.502  108.177 
53.833  53.703  108.492 
61.996  47.919  108.448 
58.658  45.439  107.663 
57.295  40.730  106.320 
59.911  38.578  105.905 
61.556  46.441  107.860 
54.001  44.978  107.100 
61.638  40.309  106.283 
65.036  42.729  107.176 
69.753  44.225  106.109 
69.188  50.874  107.978 
65.640  46.815  107.861 
69.134  45.809  106.416 
63.908  41.565  106.923 
65.049  53.549  109.074 
64.753  46.286  107.881 
72.065  47.775  106.160 
69.142  47.131  107.076 
65.938  49.324  108.422 
70.156  41.625  105.287 
67.689  50.845  108.374 
74.756  46.571  104.548 
69.334  55.497  108.376 
73.814  44.152  103.444 
71.706  51.790  108.300 
72.483  47.061  105.842 
81.088  49.985  103.792 
79.572  52.652  104.292 
75.250  46.275  104.109 
75.453  53.732  106.869 
72.658  53.760  107.431 
78.125  52.828  105.901 
75.404  45.243  103.889 
78.166  53.820  105.682 
78.079  55.448  106.112 
70.928  54.895  107.850 
76.272  53.396  106.372 
73.650  59.075  106.946 
72.663  57.745  107.605 
75.430  51.737  106.447 
81.920  56.038  104.580 
74.306  59.172  106.918 
75.534  60.790  106.391 
75.053  60.185  106.525 
72.820  62.639  106.468 
73.667  63.726  106.408 
74.153  64.850  106.174 
74.729  63.400  106.367 
73.636  64.712  106.797 
73.694  65.928  106.717 
72.935  65.837  106.310 
72.438  66.496  105.971 
71.208  67.163  107.004 
71.152  67.866  106.437 
70.956  68.601  106.821 
70.888  69.830  106.500 
70.230  69.509  106.905 
69.259  70.539  106.581 
68.923  70.889  106.789 
68.403  71.293  106.623 
68.201  71.923  106.530 
67.047  72.454  106.168 
66.394  72.674  106.549 
64.990  72.447  106.633 
66.224  73.649  106.481 
65.393  73.438  106.817 
63.168  73.724  107.246 
62.320  75.722  106.205 
55.912  67.723  108.000 
54.306  70.785  107.256 
61.370  77.740  106.294 
56.322  77.942  106.174 
61.268  77.913  106.776 
65.960  81.330  104.898 
56.836  81.076  104.820 
57.698  78.504  106.063 
52.908  72.847  106.617 
54.604  75.779  106.393 
56.043  75.276  106.497 
51.975  71.474  107.192 
51.639  72.241  106.866 
52.019  73.096  107.043 
49.997  70.704  107.405 
50.650  72.198  107.000 
50.366  71.196  107.189 
49.167  70.647  107.186 
49.375  70.176  107.326 
50.092  69.110  107.532 
48.721  64.063  108.618 
47.969  69.868  107.082 
47.243  68.816  106.601 
43.053  64.777  107.422 
47.838  61.637  108.657 
45.790  66.629  106.819 
44.256  63.546  107.439 
44.651  61.656  108.002 
45.875  59.582  107.532 
42.357  59.495  106.540 
44.619  67.731  106.170 
50.248  57.658  108.782 
40.433  55.752  105.029 
49.367  51.520  108.105 
42.905  60.537  107.049 
48.446  57.397  108.413 
41.739  54.807  104.950 
51.566  58.564  108.947 
48.553  54.454  107.577 
55.095  51.254  108.809 
51.313  53.225  108.815 
47.162  52.576  106.565 
45.525  50.784  105.895 
45.405  50.223  106.103 
50.648  53.716  108.991 
53.764  49.701  107.870 
48.125  53.256  107.284 
58.158  52.268  109.177 
50.598  45.812  106.670 
50.655  52.003  108.577 
59.841  40.806  106.720 
52.163  45.016  106.439 
59.159  36.649  104.608 
52.360  41.249  106.206 
56.009  43.819  106.906 
62.343  43.618  107.429 
59.746  39.300  106.108 
59.532  46.640  108.236 
62.114  44.858  107.832 
59.072  48.517  108.029 
64.502  39.231  106.353 
65.564  38.537  104.463 
61.548  43.145  106.489 
67.694  37.639  103.384 
60.452  40.065  106.362 
67.210  40.028  105.692 
68.295  48.040  107.388 
70.708  53.378  108.280 
63.712  52.309  109.390 
65.333  43.413  107.519 
74.123  42.697  102.502 
68.477  43.568  106.415 
72.690  45.222  105.011 
76.365  48.845  104.960 
69.226  49.912  107.748 
73.690  47.815  105.571 
73.660  50.801  106.883 
75.472  53.102  106.477 
76.691  46.217  103.320 
70.690  43.039  105.061 
78.418  43.198  101.793 
72.164  45.913  105.914 
79.045  53.973  105.589 
79.537  58.151  104.974 
75.790  58.578  106.497 
78.187  51.083  105.314 
82.102  53.545  103.885 
80.305  49.957  104.057 
76.973  57.484  106.911 
80.761  56.448  105.208 
72.787  58.853  107.199 
72.660  56.879  107.821 
78.722  62.149  105.786 
74.965  58.839  106.697 
71.947  57.497  107.522 
77.290  56.675  105.987 
75.254  54.657  107.150 
74.868  61.844  105.978 
72.431  61.667  106.945 
74.552  62.735  105.936 
75.263  63.063  106.157 
73.810  61.445  106.697 
74.291  65.164  106.621 
74.969  65.429  106.237 
73.662  65.420  106.432 
74.187  66.465  106.550 
73.001  67.489  106.660 
72.321  66.944  106.575 
71.765  68.264  106.464 
72.005  68.350  106.053 
71.512  69.280  106.592 
70.599  70.346  106.668 
70.203  70.156  106.935 
69.811  70.687  106.760 
69.290  71.450  106.789 
69.144  72.179  106.554 
67.430  72.195  106.639 
66.597  71.867  106.789 
61.958  74.240  107.557 
55.697  74.775  106.643 
59.919  76.756  106.962 
64.532  72.079  106.997 
67.223  73.455  106.392 
60.254  68.272  107.720 
61.413  78.449  105.802 
59.557  74.576  107.129 
60.323  77.498  106.844 
54.127  75.385  106.205 
64.789  82.663  103.916 
58.890  72.640  107.743 
60.482  74.051  107.547 
57.201  78.101  105.881 
58.445  75.232  107.193 
55.099  74.975  106.668 
51.663  67.771  108.154 
54.617  72.141  107.303 
52.370  72.242  106.905 
51.547  71.896  106.471 
50.513  72.559  106.433 
50.467  72.956  106.689 
49.581  71.447  107.017 
48.337  71.915  106.537 
49.050  71.961  107.002 
47.427  71.092  106.457 
49.344  63.410  108.687 
53.607  67.680  108.982 
41.705  65.075  106.608 
50.850  68.021  107.860 
46.967  68.461  107.198 
48.133  67.248  107.527 
42.548  67.765  105.611 
49.771  64.275  108.564 
42.712  56.999  106.319 
48.048  58.957  108.923 
44.976  66.196  106.643 
43.488  59.493  107.319 
43.256  62.063  107.011 
46.682  59.509  108.490 
51.591  54.625  109.342 
41.850  63.943  106.111 
42.786  58.172  107.070 
48.957  57.877  108.737 
42.265  57.704  106.591 
39.935  54.403  105.039 
44.228  55.035  106.287 
45.343  52.481  106.241 
45.154  51.640  106.060 
52.450  40.427  105.761 
47.549  50.614  106.730 
47.962  48.308  106.264 
54.773  51.143  108.522 
61.022  49.673  108.745 
46.013  54.210  106.602 
56.788  41.463  106.062 
49.642  47.299  106.871 
59.500  41.624  106.386 
57.469  45.906  107.732 
56.741  44.054  106.805 
51.160  47.360  107.514 
54.781  45.209  106.823 
51.116  49.321  108.020 
59.336  44.041  107.187 
52.750  43.233  106.174 
51.670  44.291  106.385 
59.352  45.690  107.937 
62.290  42.772  106.932 
58.276  44.440  107.033 
64.897  37.363  104.475 
59.199  44.523  107.398 
61.443  37.133  105.163 
63.545  44.562  107.158 
66.917  43.023  106.725 
66.154  44.116  107.571 
72.647  54.476  107.996 
63.933  43.528  107.206 
66.330  52.157  108.938 
74.368  48.781  105.806 
74.449  47.314  105.008 
76.771  53.863  106.011 
80.336  46.067  101.665 
68.445  42.706  106.209 
70.681  50.786  108.012 
71.871  41.075  103.939 
70.687  43.567  105.470 
78.678  46.898  103.440 
80.372  51.991  103.916 
73.700  47.164  105.358 
74.698  41.710  102.374 
79.819  48.256  103.094 
70.896  46.058  106.322 
74.221  47.798  105.057 
73.791  52.481  107.490 
78.884  51.244  104.493 
75.939  42.235  102.562 
75.080  55.219  107.130 
77.559  54.178  105.828 
77.999  47.181  103.574 
82.376  52.375  103.440 
74.373  53.664  107.086 
78.627  58.676  105.929 
82.005  53.771  104.486 
74.138  57.527  106.725 
75.007  48.023  104.299 
75.810  55.382  107.156 
79.322  47.208  103.135 
74.935  59.499  105.914 
76.014  61.975  106.239 
76.285  60.051  105.982 
75.422  62.467  105.957 
74.688  62.351  106.324 
74.885  64.570  106.021 
75.645  63.733  106.296 
75.437  65.282  106.291 
74.274  65.898  105.998 
73.313  66.596  106.384 
71.919  67.576  106.415 
73.453  68.066  106.211 
72.991  68.597  106.621 
72.235  68.963  106.442 
71.855  69.724  106.616 
70.513  71.082  106.880 
70.718  71.205  106.155 
69.856  71.396  106.561 
69.683  71.731  106.109 
68.332  72.359  106.325 
66.468  73.024  106.224 
65.895  71.861  106.179 
65.545  73.851  106.256 
64.621  73.818  106.913 
65.117  74.336  106.506 
61.433  73.787  107.647 
63.452  77.155  106.520 
62.235  80.491  105.419 
63.124  75.428  106.852 
60.253  74.763  107.352 
61.196  74.587  107.318 
58.795  76.151  106.830 
54.535  76.213  105.867 
66.401  80.046  104.446 
54.168  77.582  105.615 
62.269  76.724  106.504 
56.334  72.617  107.471 
61.540  79.802  105.847 
54.105  76.916  105.501 
52.406  73.687  106.731 
52.219  72.868  106.547 
51.295  72.773  106.893 
51.115  73.361  106.515 
50.394  73.831  106.437 
49.866  72.427  107.025 
48.925  72.538  106.761 
48.314  72.804  106.352 
46.275  71.306  105.708 
48.448  70.418  106.741 
46.100  70.941  106.216 
47.916  70.628  106.666 
47.396  63.542  107.607 
44.496  62.428  107.943 
49.456  67.975  107.698 
54.414  67.810  108.865 
45.837  68.045  106.695 
49.770  57.289  108.780 
46.721  68.081  106.747 
38.470  64.487  105.516 
41.810  58.920  106.507 
47.224  64.187  107.651 
41.300  64.736  106.168 
44.149  61.416  107.776 
47.217  57.891  108.425 
38.065  64.167  104.716 
39.426  54.066  104.410 
44.253  57.631  107.447 
41.980  58.109  105.737 
47.223  57.246  107.654 
44.463  54.162  106.223 
44.567  55.404  106.964 
42.746  54.172  105.390 
46.450  53.759  107.241 
44.120  50.847  105.804 
43.774  53.653  106.022 
55.748  56.427  109.398 
60.218  43.622  107.027 
49.776  52.184  108.337 
59.876  47.558  108.121 
54.614  45.787  106.898 
50.410  50.633  108.037 
55.091  49.769  108.577 
48.306  51.236  106.763 
51.374  51.940  108.200 
58.782  41.611  105.713 
56.356  37.102  104.989 
49.249  48.440  106.573 
59.791  42.967  106.286 
54.439  53.662  109.072 
62.656  41.423  106.369 
60.202  44.468  107.470 
59.337  40.762  106.673 
61.026  43.385  107.229 
67.727  39.921  104.964 
63.653  38.617  106.030 
56.986  38.371  105.318 
67.230  41.717  106.013 
64.484  40.088  106.841 
61.497  33.190  102.945 
59.521  37.883  104.883 
64.657  39.009  105.422 
71.469  51.145  107.587 
73.533  43.275  104.043 
65.557  45.344  107.786 
71.516  42.219  104.136 
71.539  49.601  106.716 
63.203  40.447  106.632 
76.695  50.489  105.528 
68.400  45.157  106.418 
78.097  57.081  106.157 
74.684  42.578  102.906 
72.841  51.017  107.175 
75.275  48.933  105.625 
68.416  43.199  106.030 
78.692  53.438  105.192 
77.018  49.386  104.946 
74.331  52.427  106.763 
76.212  43.485  102.590 
81.240  53.869  104.323 
74.412  50.202  106.466 
78.015  51.961  105.852 
83.166  52.942  102.512 
72.346  44.776  104.821 
74.226  46.268  104.129 
80.125  53.116  104.522 
74.125  55.468  107.173 
75.095  57.097  106.590 
75.539  47.739  104.733 
74.851  58.664  106.260 
73.662  54.805  107.709 
74.175  59.824  106.153 
75.213  59.374  106.713 
82.817  60.293  103.978 
75.058  57.984  106.608 
75.180  61.153  106.413 
76.485  62.075  106.055 
76.916  62.971  105.669 
74.107  62.183  106.458 
76.861  61.875  105.581 
76.391  65.653  105.503 
75.167  66.158  106.202 
74.703  66.470  106.382 
73.701  67.305  106.430 
73.432  67.637  105.906 
72.677  68.070  106.409 
72.989  69.561  106.544 
72.326  69.991  106.390 
71.586  70.220  106.693 
71.273  70.799  106.744 
71.779  71.175  106.529 
71.155  71.677  106.766 
70.447  71.994  106.553 
69.022  72.824  106.244 
68.240  72.461  106.786 
68.254  74.600  105.708 
67.716  73.992  106.072 
66.182  74.019  105.594 
68.233  76.477  105.375 
53.842  72.858  107.124 
64.339  75.225  106.362 
68.743  78.223  104.780 
63.281  75.794  106.397 
64.009  73.605  106.677 
56.404  74.361  106.581 
63.155  81.059  104.271 
57.992  74.494  107.178 
58.104  77.775  106.341 
59.764  78.041  106.304 
66.131  80.359  105.014 
55.784  76.262  105.804 
52.217  69.739  107.377 
55.932  71.924  107.535 
53.749  73.617  106.647 
54.206  71.846  107.023 
52.767  73.368  106.501 
52.200  74.007  106.130 
51.325  73.263  106.104 
50.858  74.095  106.363 
50.106  73.402  106.183 
49.293  73.014  106.372 
48.230  73.445  106.028 
48.418  71.255  106.399 
47.504  72.264  106.378 
47.604  72.954  105.951 
46.989  71.810  106.184 
47.429  67.726  107.161 
45.916  61.428  107.702 
47.471  70.116  106.518 
45.628  65.035  107.554 
43.062  70.678  105.562 
49.242  68.953  107.453 
51.668  65.278  108.514 
42.670  66.361  107.002 
45.273  68.049  106.766 
46.988  60.669  108.211 
42.591  61.221  106.589 
45.011  66.755  106.925 
42.011  64.746  106.937 
44.117  68.988  106.417 
41.348  60.532  106.459 
43.594  54.481  105.852 
40.503  53.781  105.115 
39.704  53.701  104.836 
40.148  54.014  104.612 
44.282  53.300  105.845 
42.534  55.483  106.030 
43.213  53.171  105.185 
45.181  52.448  105.769 
43.914  52.334  105.506 
51.248  38.198  104.994 
47.877  52.188  107.666 
44.577  50.051  105.708 
41.858  57.267  106.174 
50.823  58.771  108.477 
54.336  52.497  108.717 
47.334  45.286  104.932 
49.599  48.960  107.404 
51.941  47.302  107.386 
47.063  43.628  104.567 
49.507  45.008  105.904 
59.434  46.366  107.799 
52.626  48.305  107.968 
55.151  47.878  107.888 
51.438  46.168  107.069 
58.747  49.208  108.724 
49.966  41.436  105.582 
62.443  51.868  109.220 
58.225  43.014  106.980 
57.696  39.354  105.695 
66.140  40.630  106.209 
52.223  43.840  106.242 
66.765  41.139  105.664 
68.244  38.720  104.355 
66.558  37.895  103.898 
63.111  37.777  105.720 
69.977  47.449  106.842 
65.352  36.809  103.793 
65.848  48.068  107.658 
64.618  37.669  104.782 
67.446  46.589  108.098 
73.054  48.232  105.574 
70.462  44.912  105.246 
69.394  51.595  108.373 
65.815  43.415  107.282 
67.448  43.567  106.415 
74.251  49.562  106.100 
73.958  44.343  104.244 
66.474  45.339  107.631 
69.714  41.102  104.842 
70.146  45.518  105.606 
75.706  43.877  102.976 
71.347  39.765  103.547 
77.203  48.138  104.284 
79.364  47.059  102.279 
81.697  53.026  103.816 
76.131  44.754  102.832 
75.395  44.298  102.946 
80.252  48.722  103.426 
84.061  52.690  102.344 
82.959  51.026  102.462 
76.308  48.240  104.607 
79.413  56.639  105.116 
83.679  54.253  102.755 
72.564  55.530  107.799 
79.006  58.565  105.586 
75.595  46.924  104.236 
72.049  56.128  107.874 
77.548  59.132  106.386 
82.487  61.472  103.975 
77.939  60.021  106.010 
73.959  56.198  107.448 
76.827  60.402  106.156 
77.192  57.463  106.442 
78.244  61.421  105.611 
76.132  59.398  106.655 
75.829  62.692  106.142 
76.445  64.116  105.831 
76.064  63.486  106.012 
76.950  63.703  105.542 
75.895  65.466  106.039 
75.205  67.118  106.087 
74.141  67.315  106.238 
74.213  68.141  106.313 
73.457  68.604  105.925 
73.061  69.353  106.072 
72.965  69.967  105.812 
72.627  71.125  106.171 
71.363  71.496  106.317 
71.456  72.303  106.232 
70.564  72.221  106.130 
70.193  74.859  105.160 
68.905  72.942  105.787 
70.243  73.485  105.992 
67.552  72.670  106.139 
67.954  74.179  105.282 
66.743  73.744  106.340 
68.051  75.260  105.417 
64.911  76.206  106.188 
69.442  78.278  104.829 
64.784  76.874  106.020 
64.797  80.948  104.990 
66.656  75.057  105.931 
60.123  79.316  105.166 
59.347  75.466  107.047 
59.095  73.410  107.853 
65.523  79.413  105.140 
57.984  77.205  106.318 
62.754  77.434  106.120 
57.355  75.858  106.790 
57.217  77.819  106.357 
54.596  74.173  106.507 
53.455  75.344  105.921 
52.664  75.160  105.770 
56.801  77.262  105.979 
52.407  74.715  106.045 
52.008  74.846  106.352 
51.760  74.117  106.229 
50.450  74.681  105.990 
49.747  74.127  105.769 
49.157  73.857  106.069 
48.692  73.621  105.914 
48.257  72.933  105.513 
48.321  72.212  105.970 
46.766  72.589  106.161 
46.527  71.624  106.212 
49.529  65.166  108.820 
46.414  69.850  106.060 
45.941  67.607  106.454 
46.919  69.370  106.934 
42.291  70.019  105.590 
49.234  65.843  107.889 
41.638  71.320  104.867 
40.967  69.881  104.734 
48.145  56.016  108.046 
41.378  73.241  103.824 
54.338  60.864  109.431 
43.666  66.398  107.114 
43.067  61.278  106.847 
37.222  59.487  104.564 
48.374  65.228  108.145 
39.969  63.645  106.075 
38.249  58.097  105.345 
37.269  60.108  104.221 
41.758  55.208  105.648 
42.550  53.487  105.493 
41.487  53.624  105.412 
43.924  52.636  106.021 
44.123  51.159  105.287 
41.843  52.784  105.224 
44.157  51.669  105.922 
46.712  49.649  106.609 
44.920  51.115  105.887 
50.938  54.669  108.767 
50.124  49.343  107.734 
47.872  49.055  106.871 
52.523  46.552  107.542 
49.187  50.387  107.407 
59.379  42.453  106.819 
47.702  47.723  106.204 
49.857  48.553  107.384 
60.830  48.793  108.955 
50.636  48.241  107.675 
50.082  45.862  105.972 
51.893  40.136  105.596 
51.088  44.499  106.321 
56.604  45.472  107.408 
50.215  44.597  105.870 
61.735  42.022  106.978 
57.459  44.216  107.256 
58.028  36.824  105.454 
53.546  42.980  106.399 
64.423  46.307  107.096 
59.345  34.139  103.628 
64.555  35.900  103.589 
61.115  35.428  104.625 
65.911  44.645  107.163 
64.349  36.330  103.811 
63.590  40.787  106.607 
66.819  42.182  106.594 
61.077  44.421  107.163 
65.403  49.020  108.093 
70.786  51.755  108.115 
77.227  51.691  106.036 
68.649  51.275  108.430 
64.434  52.975  109.429 
71.591  38.784  102.881 
72.140  42.665  103.569 
72.459  40.908  103.427 
77.042  41.023  101.177 
76.369  49.225  105.879 
76.885  45.132  102.678 
74.898  53.645  107.086 
77.786  44.932  102.423 
69.588  44.840  105.619 
70.647  43.745  104.659 
74.407  43.748  103.672 
70.571  49.482  106.905 
73.332  46.097  104.317 
77.047  44.287  102.426 
80.215  51.096  103.932 
74.683  43.957  103.038 
73.025  50.512  107.169 
82.567  51.788  102.382 
81.344  52.779  104.164 
82.323  54.732  103.964 
74.809  45.643  104.014 
76.653  56.357  106.911 
81.552  59.821  104.894 
79.382  55.640  105.214 
76.007  57.737  106.602 
80.421  59.953  105.384 
75.088  52.375  106.731 
80.888  61.615  105.219 
80.055  58.253  105.434 
75.840  56.831  106.870 
73.044  55.882  108.001 
78.053  59.183  106.245 
79.141  62.559  105.129 
76.006  64.901  105.611 
78.823  60.033  105.851 
77.234  64.368  105.797 
77.387  63.698  105.842 
76.733  65.000  105.752 
78.421  68.650  105.181 
75.638  66.635  105.745 
74.715  66.723  105.957 
74.223  69.000  106.066 
74.968  69.022  106.367 
74.319  69.501  106.258 
73.397  70.370  105.735 
73.192  70.813  106.074 
72.263  70.552  106.374 
72.285  72.064  106.248 
70.583  72.846  106.148 
69.818  72.750  106.390 
69.359  73.624  105.942 
69.186  74.475  105.948 
68.943  75.269  105.292 
62.996  74.803  106.266 
71.860  80.512  103.660 
60.024  73.515  107.541 
53.403  75.665  105.128 
63.389  76.673  105.788 
65.890  79.938  105.163 
66.222  77.505  104.990 
58.798  74.399  107.550 
67.480  76.766  105.136 
64.255  74.328  106.370 
63.154  79.220  105.716 
68.168  80.853  104.512 
57.726  82.731  104.302 
53.908  74.472  106.773 
55.025  71.397  107.248 
58.478  78.628  106.266 
60.919  79.546  105.758 
61.760  78.997  106.113 
67.898  80.109  104.326 
54.200  73.756  107.174 
58.884  80.027  105.331 
53.235  76.848  105.528 
52.572  76.088  105.424 
51.112  75.043  105.750 
51.233  74.590  105.841 
50.126  75.015  105.737 
49.216  74.873  105.756 
47.941  73.838  105.719 
47.899  73.224  105.233 
46.751  73.336  105.802 
46.885  72.989  105.366 
46.200  72.467  106.387 
46.733  70.601  106.377 
45.461  70.321  106.224 
45.374  68.571  106.072 
45.878  70.567  106.466 
41.902  68.699  105.725 
40.377  70.041  104.919 
42.421  70.928  105.200 
43.066  71.522  105.408 
44.577  70.170  106.170 
42.758  70.117  105.381 
50.135  63.710  108.458 
39.622  62.827  105.802 
36.904  60.915  103.941 
46.468  68.206  106.166 
46.875  58.249  108.683 
41.852  70.949  104.639 
41.905  60.170  106.084 
45.911  57.910  108.287 
43.601  58.196  107.444 
45.502  57.085  107.265 
39.261  59.322  105.775 
42.054  54.344  105.789 
41.601  54.367  105.457 
41.917  51.540  105.003 
42.225  50.682  105.099 
42.614  51.622  105.474 
43.640  49.956  105.688 
46.208  48.209  105.893 
44.778  50.339  105.384 
44.473  49.567  105.588 
47.541  46.719  105.781 
47.072  47.846  106.014 
49.916  55.697  108.238 
46.595  48.811  106.300 
55.762  47.383  108.402 
49.202  48.115  106.937 
48.926  46.125  106.302 
49.141  47.379  106.610 
52.069  47.918  107.590 
50.433  41.814  105.657 
49.655  45.868  106.259 
52.237  36.402  103.778 
49.736  49.749  106.931 
59.257  40.033  106.545 
50.092  40.596  104.352 
57.486  48.306  108.384 
62.468  39.885  106.653 
48.665  31.231  99.656 
65.361  40.970  106.268 
66.887  37.524  103.657 
71.337  40.901  104.015 
68.099  38.619  105.128 
68.773  39.987  104.992 
68.208  40.386  105.216 
67.515  40.878  105.868 
64.105  43.334  107.773 
65.453  44.594  107.358 
63.004  48.573  108.193 
71.348  46.217  106.014 
70.750  48.520  106.506 
69.435  41.598  105.559 
67.313  46.789  107.329 
69.274  39.182  104.201 
67.866  38.074  104.367 
70.413  49.430  107.387 
76.793  41.625  101.126 
68.595  41.968  105.801 
70.178  48.264  107.026 
70.046  38.248  103.243 
75.639  42.964  102.816 
73.838  42.184  103.197 
75.488  41.135  101.338 
75.961  40.305  101.245 
73.108  44.406  104.535 
71.662  44.091  104.939 
76.032  46.634  103.980 
69.540  44.952  106.364 
80.193  44.221  101.269 
79.124  46.658  102.663 
78.843  43.753  101.248 
81.013  54.521  104.325 
82.324  49.853  102.561 
82.998  53.983  102.546 
77.028  48.605  104.652 
78.664  50.372  104.071 
81.740  56.759  104.110 
79.137  49.591  103.925 
73.241  50.122  106.657 
79.292  56.612  105.759 
82.965  66.720  104.174 
85.560  57.650  102.262 
83.009  56.150  104.055 
77.854  57.949  105.951 
83.710  62.504  103.358 
76.758  59.536  106.327 
77.116  60.123  105.728 
78.058  62.194  105.769 
80.639  57.652  105.310 
76.298  62.958  105.317 
79.911  63.275  105.114 
78.154  63.311  105.802 
77.249  62.073  105.841 
76.423  66.019  105.818 
80.321  65.162  104.791 
75.446  67.505  105.751 
75.042  68.044  106.224 
74.429  68.470  105.690 
75.760  69.055  106.026 
73.824  69.717  106.196 
74.542  70.020  105.614 
73.991  70.582  105.972 
72.042  74.663  104.900 
73.174  71.921  105.690 
71.955  71.546  106.237 
71.537  73.424  105.517 
69.814  73.712  105.750 
64.287  78.214  106.147 
71.207  73.093  105.973 
68.958  74.421  105.525 
67.141  74.166  105.691 
68.574  74.030  105.738 
60.691  71.663  107.822 
66.090  74.512  106.153 
72.594  79.984  103.099 
62.316  75.219  106.986 
55.828  81.103  104.617 
68.909  81.388  104.087 
67.712  77.720  105.476 
53.953  79.234  105.214 
64.843  86.470  102.294 
64.116  81.980  104.586 
64.384  84.339  103.540 
59.754  72.216  107.716 
60.637  78.320  106.320 
62.090  84.656  103.051 
53.673  78.793  104.602 
55.593  77.755  105.920 
57.476  81.082  104.211 
54.781  77.193  105.070 
53.036  74.133  106.622 
52.301  76.296  104.979 
51.952  75.305  106.005 
51.333  75.507  105.802 
50.439  75.569  105.677 
48.689  75.454  105.415 
48.442  74.467  105.883 
47.602  74.642  105.440 
47.702  74.059  104.922 
47.029  73.794  105.192 
46.331  73.641  105.889 
45.703  73.004  105.949 
46.085  71.971  106.273 
45.501  71.529  106.068 
42.647  64.670  107.093 
44.450  72.405  105.712 
43.821  71.135  105.691 
45.394  69.831  106.774 
45.320  71.039  105.971 
44.183  69.785  106.297 
43.507  66.794  106.783 
42.983  71.467  104.865 
51.245  68.336  107.682 
43.008  65.451  106.708 
37.087  64.778  103.662 
48.320  68.260  107.386 
40.422  61.277  106.082 
45.243  62.221  108.025 
38.226  60.333  105.075 
38.788  61.008  104.884 
39.734  58.962  105.576 
41.956  56.229  105.970 
38.583  65.616  104.531 
41.261  52.289  105.118 
40.084  51.981  104.301 
43.227  51.391  104.890 
44.327  51.992  105.635 
40.842  50.564  104.795 
46.424  50.760  105.905 
42.112  49.672  105.007 
43.862  50.132  105.222 
41.760  50.077  104.886 
45.084  48.481  105.191 
50.113  48.014  106.823 
47.368  49.491  106.482 
47.004  46.739  105.311 
45.419  49.533  105.384 
48.794  45.744  105.597 
49.468  46.603  106.509 
46.597  47.594  105.582 
49.811  46.365  106.866 
48.526  48.741  106.147 
47.715  42.205  104.625 
49.769  44.132  106.166 
55.880  45.910  107.467 
51.712  46.657  107.497 
55.011  38.478  105.526 
58.857  43.850  106.930 
55.586  37.471  105.027 
60.067  33.349  103.338 
63.802  39.401  106.095 
64.150  45.232  107.772 
56.074  44.848  106.735 
63.797  36.862  104.862 
63.152  39.449  106.156 
62.632  40.866  106.898 
64.768  38.893  105.863 
63.109  36.999  105.292 
64.257  41.058  106.848 
70.982  39.782  103.849 
70.811  40.635  104.068 
65.235  39.251  105.059 
67.450  39.148  105.022 
69.300  44.287  106.412 
68.158  45.603  107.129 
70.320  40.231  104.001 
70.067  47.406  107.377 
71.239  38.344  102.975 
66.466  38.588  104.507 
73.414  46.969  105.755 
73.160  39.794  102.392 
71.520  38.018  102.027 
71.156  45.672  105.665 
79.191  45.365  101.472 
69.594  48.609  107.608 
78.237  43.997  101.703 
79.961  46.967  102.755 
77.667  43.502  102.237 
77.511  41.273  100.794 
79.514  51.955  104.821 
74.082  45.818  104.366 
73.548  46.934  104.924 
80.550  48.145  102.670 
76.355  46.599  103.452 
75.870  45.643  103.444 
77.407  49.422  104.546 
80.945  53.075  104.394 
81.434  50.891  104.255 
81.449  56.523  104.818 
84.723  55.624  102.491 
81.046  57.940  104.663 
81.550  51.962  103.931 
82.476  57.594  104.156 
76.986  58.421  106.148 
80.187  61.093  105.416 
76.378  55.596  106.556 
79.286  60.816  105.769 
75.943  56.147  106.896 
84.205  61.891  102.813 
76.425  61.154  106.151 
80.000  62.048  105.297 
78.878  62.756  105.738 
79.707  60.140  105.893 
79.264  63.724  104.657 
77.932  61.596  105.954 
81.199  64.530  105.153 
78.621  68.110  105.028 
75.476  64.701  105.636 
76.065  66.307  105.699 
77.051  66.483  105.728 
75.750  67.413  106.180 
75.740  67.812  105.559 
75.418  68.297  106.063 
74.948  73.615  104.451 
76.332  70.206  105.689 
72.365  72.482  105.818 
72.835  71.584  105.808 
72.132  73.034  105.866 
74.581  71.606  105.649 
72.430  73.332  105.575 
74.289  72.799  105.284 
70.613  73.774  106.116 
69.860  74.437  105.770 
72.842  72.821  105.382 
70.512  74.236  105.884 
68.588  76.723  105.477 
70.365  79.551  103.755 
67.376  74.894  105.826 
62.445  80.814  104.650 
70.251  78.192  104.596 
73.293  82.594  101.946 
65.433  75.634  106.265 
70.656  79.889  103.431 
59.271  71.550  108.065 
68.670  81.109  103.695 
65.642  74.689  105.994 
57.671  81.986  103.756 
62.650  79.348  106.097 
55.341  82.390  104.211 
63.327  78.034  106.204 
54.922  80.285  104.273 
58.318  81.258  104.488 
60.295  82.649  103.666 
56.431  76.116  106.481 
53.130  76.423  105.789 
52.642  82.940  103.169 
53.332  74.885  106.218 
52.686  77.143  104.976 
51.136  76.303  105.609 
50.284  75.761  105.213 
49.514  75.505  105.664 
49.191  75.467  105.052 
48.008  75.925  105.414 
47.958  75.214  104.776 
46.942  75.092  105.221 
46.726  74.242  105.343 
46.264  74.362  105.219 
45.754  73.999  105.508 
45.389  72.389  105.463 
44.843  71.801  105.400 
43.828  71.045  105.068 
44.355  72.126  104.936 
46.278  68.914  106.758 
42.513  69.528  105.438 
44.940  70.869  106.402 
41.903  66.652  106.835 
46.040  62.488  107.932 
43.154  70.335  105.158 
43.419  63.285  106.949 
42.428  69.248  105.859 
41.719  61.096  106.117 
44.045  64.577  107.572 
45.679  63.740  107.527 
36.314  58.171  104.552 
39.357  63.562  105.656 
45.146  61.231  108.060 
38.406  55.608  104.294 
38.281  56.878  104.569 
43.416  65.296  107.006 
37.447  57.844  104.968 
38.869  56.089  105.341 
40.162  52.462  103.864 
42.925  57.420  106.413 
38.416  52.965  104.170 
42.939  53.385  105.857 
43.370  51.147  105.649 
43.304  52.047  105.790 
43.063  50.705  105.684 
43.445  49.156  105.390 
44.143  48.824  105.735 
46.120  52.044  106.746 
47.386  52.211  107.258 
46.286  50.380  106.475 
48.792  46.711  106.100 
56.900  43.516  107.201 
51.503  41.098  105.627 
47.427  48.005  105.589 
48.445  50.428  107.100 
48.371  47.659  106.027 
58.833  42.561  106.551 
51.058  42.306  105.771 
55.216  46.422  107.675 
52.289  42.336  106.156 
57.368  38.206  105.594 
57.650  47.354  108.293 
54.765  45.621  107.371 
54.469  42.199  105.931 
60.828  42.320  107.022 
60.743  42.106  105.973 
63.841  36.644  104.375 
61.290  35.602  104.230 
60.172  34.032  103.824 
62.634  42.100  107.064 
67.693  37.139  103.282 
70.497  39.326  103.317 
66.999  38.075  104.619 
66.218  38.235  104.748 
67.965  39.908  104.419 
66.658  38.941  105.336 
71.216  41.493  103.638 
72.098  41.711  103.366 
70.705  47.787  106.859 
69.620  42.618  105.387 
69.295  43.387  106.244 
68.347  37.075  102.697 
68.473  36.590  102.882 
71.233  36.849  101.330 
67.912  36.078  102.245 
78.249  42.870  101.184 
74.415  44.471  103.837 
76.458  43.959  102.300 
68.631  49.123  107.950 
76.226  42.741  102.273 
74.168  40.905  102.228 
74.199  42.920  103.516 
72.880  42.229  103.040 
73.258  43.266  103.281 
76.996  43.240  102.429 
75.915  50.399  105.822 
78.008  51.535  105.135 
73.940  44.864  104.517 
80.989  49.616  102.886 
76.939  50.480  105.995 
79.357  54.751  105.464 
77.510  50.303  105.047 
75.771  44.799  103.555 
83.817  55.237  102.913 
80.585  52.342  104.645 
83.671  51.763  102.545 
78.898  57.895  105.720 
80.571  57.449  104.445 
72.833  56.456  107.452 
82.663  56.435  103.722 
83.593  58.185  103.099 
76.717  59.092  106.054 
84.977  60.350  102.607 
81.312  57.242  104.888 
79.101  61.842  105.569 
78.957  57.057  106.248 
77.336  61.533  105.888 
83.729  61.102  102.702 
81.956  65.497  104.161 
79.463  65.393  104.681 
81.679  59.702  104.118 
75.987  60.967  106.068 
78.117  63.558  105.349 
83.364  72.330  101.733 
87.039  73.010  100.871 
78.747  66.495  105.040 
77.381  66.391  105.388 
75.868  68.630  105.408 
75.488  69.980  105.799 
74.589  70.836  105.495 
74.895  70.624  105.852 
73.778  71.141  105.381 
73.515  72.686  105.281 
73.196  73.131  105.298 
72.904  72.203  104.994 
73.675  79.732  103.102 
75.896  72.417  104.845 
71.209  74.372  105.372 
69.890  72.790  105.903 
73.976  73.535  104.320 
69.078  77.371  105.263 
70.715  76.767  105.140 
69.254  76.634  105.380 
65.754  75.329  105.980 
72.025  81.320  103.094 
63.426  73.164  106.568 
81.315  78.349  100.919 
69.937  80.213  103.391 
70.316  76.855  104.927 
67.478  84.459  102.622 
54.580  74.981  106.514 
61.001  83.253  104.211 
65.809  77.619  105.376 
58.338  80.698  105.170 
58.335  73.573  107.414 
62.783  81.595  104.773 
53.948  80.645  104.170 
60.248  80.566  104.916 
50.861  80.056  104.159 
56.870  82.772  104.196 
60.309  78.807  105.885 
54.895  74.268  106.897 
56.354  80.072  105.209 
53.913  74.966  106.546 
52.738  77.928  104.363 
51.326  76.105  105.154 
50.913  76.973  105.049 
49.898  76.358  105.583 
49.709  76.524  104.848 
49.099  76.293  105.287 
48.381  75.893  105.067 
47.152  75.622  105.302 
46.743  75.820  105.143 
46.297  74.748  104.758 
44.875  73.964  105.541 
45.013  73.161  105.632 
44.297  73.200  105.477 
43.458  72.651  104.931 
43.700  73.958  104.395 
42.628  72.404  104.638 
43.766  70.341  105.618 
40.254  72.670  103.590 
46.352  66.772  107.470 
40.259  71.452  104.255 
40.626  63.550  105.778 
40.701  62.087  106.298 
40.877  66.363  106.400 
44.527  65.832  107.205 
43.962  63.930  107.113 
43.661  56.234  106.270 
44.564  67.570  106.711 
44.474  66.746  106.917 
38.847  59.862  105.554 
41.484  63.169  106.051 
38.876  55.707  104.467 
40.341  58.615  105.967 
42.570  63.418  106.475 
39.368  55.941  105.201 
41.081  53.171  104.979 
39.606  50.506  104.112 
40.745  51.878  104.398 
40.922  54.158  105.124 
43.090  52.175  105.264 
41.495  50.868  105.152 
42.461  50.219  105.396 
41.318  49.173  104.722 
42.909  49.864  105.400 
45.401  48.229  105.601 
44.387  48.066  105.514 
45.064  47.439  105.387 
45.918  49.222  106.010 
45.844  47.588  105.367 
46.321  49.690  105.826 
48.627  45.168  106.109 
46.645  46.276  105.577 
48.566  42.697  104.731 
48.908  38.086  103.189 
56.713  40.079  106.004 
50.488  45.322  106.392 
50.331  46.467  106.571 
53.361  40.453  105.587 
60.767  47.304  108.432 
60.028  42.601  106.895 
59.344  38.401  105.795 
57.948  37.594  105.360 
52.436  39.860  105.113 
52.626  45.071  106.231 
56.929  39.110  105.845 
64.786  39.621  106.559 
60.349  34.802  104.103 
62.441  40.598  106.479 
63.270  34.912  103.453 
62.073  35.866  104.304 
57.766  36.330  105.411 
69.764  37.260  102.939 
64.950  34.372  102.433 
68.280  38.140  103.815 
64.838  40.521  106.773 
66.567  41.478  106.498 
65.660  42.811  106.542 
68.753  45.893  106.851 
73.230  40.775  102.689 
69.147  38.620  103.426 
69.134  40.543  105.251 
66.923  42.474  106.127 
67.868  42.479  105.708 
71.364  49.871  107.388 
68.327  35.719  102.010 
68.097  41.746  105.845 
67.058  45.625  107.788 
74.288  40.155  102.134 
69.860  40.815  105.348 
74.779  44.564  103.527 
80.176  41.296  100.408 
80.612  46.882  101.491 
71.754  42.916  105.033 
72.507  40.740  102.935 
77.955  44.436  102.302 
69.440  46.034  106.078 
73.629  43.485  103.591 
77.203  47.301  104.184 
75.474  43.162  102.240 
80.094  46.153  102.093 
83.067  57.820  103.906 
80.791  53.645  104.255 
83.016  51.676  102.670 
83.909  53.578  102.550 
78.902  50.387  104.542 
81.928  49.709  103.167 
78.148  56.554  106.228 
84.228  57.652  102.907 
75.374  56.093  107.160 
78.358  60.774  105.915 
84.576  62.683  102.777 
82.287  58.879  103.766 
80.728  59.309  105.168 
77.232  59.223  105.617 
79.657  62.490  105.470 
78.525  59.367  105.913 
83.843  55.923  103.399 
83.587  63.337  102.938 
82.390  66.636  104.191 
82.200  63.118  104.516 
78.992  64.056  105.443 
81.583  60.551  104.902 
83.431  63.476  103.544 
77.489  62.257  104.990 
78.613  64.895  105.485 
80.573  67.548  104.184 
77.934  70.325  104.882 
76.612  66.881  105.777 
77.115  68.344  105.542 
76.351  68.528  105.669 
75.395  71.441  105.597 
73.831  71.229  105.909 
77.780  77.050  102.452 
75.281  69.419  106.292 
77.363  76.024  102.984 
73.924  71.987  105.595 
78.341  76.667  102.986 
76.742  77.164  103.312 
78.647  75.702  102.608 
77.940  71.453  103.662 
77.117  82.775  100.965 
71.306  74.363  105.888 
75.586  83.534  101.550 
66.487  76.820  105.494 
71.424  77.811  104.286 
72.823  79.188  103.310 
71.754  78.538  104.008 
72.712  80.908  102.704 
71.676  75.945  104.789 
60.910  76.808  106.531 
79.752  80.346  101.012 
59.160  73.636  107.114 
64.571  77.862  105.476 
68.859  75.827  105.329 
56.776  72.032  107.607 
57.962  79.881  105.480 
59.079  81.153  104.794 
59.479  86.127  102.378 
56.262  80.865  104.997 
55.408  85.337  101.841 
55.493  80.361  105.089 
53.059  77.678  104.924 
56.734  73.570  106.767 
52.966  80.344  104.316 
57.446  79.363  105.941 
51.396  77.994  104.745 
59.777  75.968  107.313 
52.903  78.816  104.619 
51.910  76.793  105.378 
51.044  77.567  104.830 
50.197  76.540  105.236 
49.217  77.025  104.694 
48.287  76.898  104.932 
48.343  76.253  104.687 
47.488  75.763  104.831 
46.314  76.028  104.901 
46.006  73.968  105.061 
45.073  73.803  105.115 
44.375  74.706  104.991 
44.077  73.980  105.246 
43.415  73.089  104.180 
39.612  72.390  103.307 
42.227  67.377  106.318 
43.427  72.164  104.964 
41.285  72.396  104.092 
41.688  68.065  105.176 
36.969  62.831  103.710 
42.713  66.633  106.485 
36.681  66.241  103.397 
48.189  66.853  107.808 
52.367  65.887  108.679 
39.436  65.002  105.613 
46.538  67.608  106.968 
49.094  64.963  108.553 
39.639  65.200  106.039 
37.792  60.835  104.355 
41.061  54.925  104.901 
40.807  56.563  105.104 
38.957  57.163  105.222 
37.925  58.618  105.244 
39.361  64.044  105.503 
37.797  54.171  104.143 
37.312  58.975  104.828 
39.251  52.085  104.111 
40.657  51.473  104.802 
39.073  50.182  103.560 
42.053  51.896  104.785 
42.544  51.060  104.952 
39.556  49.779  103.878 
42.305  48.890  105.077 
42.889  49.001  105.220 
44.952  49.096  105.724 
43.745  48.038  104.529 
43.764  48.650  105.219 
45.100  47.867  105.049 
45.328  46.887  105.424 
44.925  46.593  105.134 
45.963  47.362  104.945 
48.663  49.693  107.173 
50.830  41.315  105.268 
48.338  44.887  105.135 
49.148  43.549  105.954 
48.444  44.277  105.694 
51.320  48.917  107.780 
50.878  38.417  104.634 
50.237  40.260  104.763 
53.179  39.952  105.724 
57.694  42.499  106.548 
59.893  37.453  105.162 
50.078  42.480  105.812 
66.727  39.606  104.955 
50.181  47.142  107.087 
51.445  39.043  105.168 
58.369  46.222  107.985 
61.310  41.729  106.664 
61.562  33.144  102.062 
62.133  33.039  102.584 
64.024  34.613  102.292 
61.207  39.420  105.916 
70.885  41.201  104.829 
67.103  44.281  107.042 
72.119  42.369  104.337 
74.838  50.696  105.988 
67.353  38.666  104.641 
64.728  32.940  101.439 
69.596  39.826  103.936 
63.637  45.878  107.315 
67.704  42.699  106.525 
67.411  45.053  107.434 
64.774  34.168  101.541 
70.030  46.770  106.370 
69.640  36.449  102.681 
73.133  37.137  101.354 
68.587  46.502  107.041 
72.685  42.935  104.086 
76.316  41.962  101.931 
72.723  39.092  102.408 
75.350  40.336  101.693 
78.312  41.506  101.049 
79.736  42.568  100.819 
77.540  42.662  101.912 
78.613  46.515  103.158 
78.245  45.805  102.469 
77.460  46.880  103.580 
79.616  45.662  102.051 
69.178  42.220  105.949 
79.848  42.205  100.438 
81.412  49.280  102.894 
77.057  54.782  105.957 
82.925  54.326  103.393 
83.380  54.488  103.013 
82.219  50.646  102.477 
84.517  53.306  102.128 
78.848  46.163  101.941 
83.116  55.153  103.576 
78.075  48.425  104.067 
79.620  60.449  105.482 
81.315  55.911  105.296 
81.017  50.421  104.370 
80.523  54.843  104.638 
84.218  58.632  102.293 
86.702  58.420  101.683 
82.153  62.339  104.431 
83.022  61.759  103.373 
82.911  63.801  103.145 
79.621  56.919  105.630 
80.501  64.610  105.124 
81.978  67.402  104.016 
81.656  68.241  103.721 
83.066  67.502  103.594 
79.066  64.750  105.307 
78.241  64.405  105.151 
77.548  62.905  105.631 
77.830  67.043  104.820 
77.534  64.723  105.163 
80.309  72.371  103.418 
83.310  70.679  102.957 
77.133  67.269  105.367 
76.651  69.413  105.284 
76.685  70.945  105.061 
74.606  73.771  104.872 
77.078  69.636  105.386 
75.097  73.037  105.100 
75.414  71.770  104.847 
74.831  71.934  105.240 
75.658  72.318  104.435 
77.498  75.031  103.302 
77.546  71.244  104.638 
75.084  72.387  105.235 
77.635  78.701  102.337 
70.854  74.974  105.612 
71.373  75.622  105.267 
66.288  78.465  105.414 
70.562  75.531  105.372 
68.131  76.078  104.841 
72.699  75.763  104.773 
69.763  75.829  105.565 
73.959  86.310  99.835 
67.693  83.044  103.030 
61.228  75.540  107.172 
68.463  77.626  105.275 
69.763  77.511  104.553 
55.231  83.945  102.973 
58.076  72.631  107.201 
60.672  80.791  104.870 
65.171  80.217  105.050 
48.831  82.431  102.511 
63.348  84.269  103.667 
60.031  82.376  104.545 
55.429  81.127  104.875 
60.361  81.312  104.380 
53.646  77.651  105.493 
53.706  81.641  104.174 
49.582  84.266  101.600 
54.774  82.235  104.081 
54.728  77.554  105.765 
59.479  80.275  104.637 
57.983  79.280  105.964 
52.575  79.489  104.235 
51.960  78.632  104.520 
50.094  77.345  105.048 
50.181  77.306  104.353 
49.190  77.970  104.574 
48.431  77.403  104.735 
47.669  77.703  104.437 
47.469  76.380  104.948 
45.282  74.762  104.342 
46.106  75.317  105.107 
45.105  75.212  105.022 
43.665  74.505  104.650 
42.801  73.213  104.537 
40.663  70.663  104.732 
44.219  72.627  104.642 
42.669  72.493  104.111 
42.443  66.831  106.859 
40.299  65.810  106.023 
45.745  69.514  106.393 
37.840  65.000  104.717 
38.337  66.970  104.480 
39.807  66.497  105.157 
49.023  66.475  107.547 
38.651  58.887  105.740 
47.206  66.580  107.523 
49.202  63.908  108.460 
44.503  68.357  106.639 
43.816  67.166  106.512 
37.517  55.208  104.139 
32.112  55.123  101.340 
34.201  54.869  103.044 
39.115  57.681  105.824 
36.233  57.955  104.072 
35.546  56.105  103.591 
36.519  60.066  104.037 
37.683  53.532  104.181 
38.288  54.817  104.456 
35.384  50.993  101.649 
40.050  52.640  104.406 
38.724  51.016  103.247 
38.596  53.814  104.072 
41.477  50.396  104.581 
40.314  49.868  104.286 
42.159  48.854  104.576 
43.649  48.919  104.766 
42.788  48.245  104.840 
43.360  47.137  104.382 
44.500  47.376  105.004 
45.022  46.510  104.633 
44.451  46.097  104.810 
45.835  46.368  104.938 
46.349  45.578  105.045 
47.218  45.685  105.231 
51.882  36.047  103.693 
52.158  39.112  105.268 
47.799  45.314  105.619 
56.877  43.035  107.020 
51.165  43.615  106.430 
51.435  39.728  105.347 
56.347  40.861  106.359 
51.008  46.299  106.915 
52.938  41.841  105.900 
48.167  42.584  105.041 
60.484  38.941  106.003 
54.428  42.865  106.477 
50.575  43.138  106.093 
54.833  44.427  107.047 
58.908  32.755  102.854 
62.745  37.260  105.065 
61.450  44.107  107.461 
62.624  38.030  105.565 
63.047  36.562  104.601 
62.014  41.278  106.772 
64.202  34.219  102.544 
68.688  37.539  103.231 
65.018  36.111  103.248 
63.750  34.718  103.112 
67.249  34.528  101.465 
67.505  36.902  102.537 
68.432  33.588  101.202 
65.957  39.981  105.335 
62.120  35.563  103.515 
67.085  36.111  102.771 
69.406  35.895  102.218 
64.416  36.700  104.149 
70.432  35.172  101.493 
73.073  41.678  103.317 
72.906  46.507  105.404 
74.141  41.804  102.610 
77.955  39.710  100.552 
79.019  47.678  103.288 
78.640  47.782  103.573 
68.485  44.154  106.076 
75.454  39.596  100.850 
72.893  41.519  102.888 
77.407  37.924  99.933 
71.605  47.522  105.987 
78.065  41.138  100.362 
75.134  42.003  102.608 
79.493  49.217  104.145 
76.767  42.544  102.259 
79.717  45.422  101.656 
78.149  50.031  104.704 
81.233  43.973  100.403 
82.004  56.777  104.553 
81.888  51.448  103.289 
78.383  47.330  102.832 
85.365  54.454  102.243 
72.466  45.808  105.311 
77.541  53.203  105.756 
79.648  47.984  102.611 
85.208  58.414  102.463 
83.469  55.928  103.066 
81.960  50.457  103.439 
85.236  57.200  102.404 
81.729  54.552  104.600 
85.187  63.989  101.748 
83.547  58.686  103.199 
84.255  60.595  102.250 
81.462  62.802  104.658 
83.119  65.154  103.606 
82.099  55.240  104.519 
82.554  63.073  103.836 
83.514  60.086  103.374 
82.425  60.543  103.718 
82.921  61.110  103.786 
79.834  59.340  105.461 
78.719  67.027  104.566 
78.350  65.231  105.199 
76.976  65.670  105.137 
81.733  63.598  105.048 
77.479  73.871  103.364 
76.717  73.735  103.993 
79.974  66.231  104.471 
81.583  69.876  103.916 
76.016  71.112  105.135 
77.301  73.617  104.085 
79.673  77.165  102.242 
81.062  77.665  100.922 
80.862  76.369  102.007 
76.490  72.016  104.051 
75.641  75.458  103.815 
80.017  73.625  103.749 
73.409  75.545  104.524 
79.048  72.199  103.778 
76.665  74.133  104.278 
75.935  73.640  104.485 
69.418  75.086  105.465 
71.956  75.206  105.175 
72.234  81.118  102.626 
74.048  81.079  102.926 
72.045  79.366  103.974 
71.671  74.805  105.323 
68.514  78.683  104.805 
66.944  84.546  102.581 
66.849  76.026  105.443 
68.754  82.108  103.322 
72.074  83.716  101.808 
61.585  83.386  103.342 
71.435  77.009  104.588 
66.440  82.628  103.940 
62.553  80.088  105.529 
