84.546  21.892  43.279 
85.179  22.680  43.754 
84.513  22.349  42.521 
84.781  22.697  43.480 
85.881  22.624  44.995 
85.851  22.925  44.006 
86.282  23.069  44.330 
87.130  23.283  45.380 
87.044  23.955  45.116 
88.116  24.760  44.797 
88.832  25.579  42.946 
89.359  24.958  45.447 
88.851  25.631  43.754 
89.968  26.382  43.591 
90.350  26.375  44.082 
90.866  27.151  43.895 
91.523  28.730  42.378 
92.464  28.752  44.748 
93.659  30.688  43.893 
92.483  29.490  43.796 
92.748  28.704  45.207 
96.145  33.700  43.727 
96.323  33.080  43.845 
95.371  34.108  42.093 
95.363  31.705  44.705 
96.811  35.107  42.243 
95.468  32.813  43.640 
95.564  32.978  42.875 
99.787  35.558  45.710 
98.761  35.120  44.452 
99.133  36.281  45.396 
99.317  33.345  48.336 
99.172  38.496  43.320 
101.238  36.553  47.302 
99.564  39.252  43.061 
98.934  36.882  42.719 
100.313  39.582  42.891 
100.638  39.617  43.585 
101.921  41.449  45.290 
101.277  39.876  44.803 
102.791  43.712  44.505 
101.451  42.668  44.775 
103.358  43.767  46.460 
103.793  44.505  46.338 
103.598  44.606  45.585 
104.240  45.495  46.462 
104.877  46.730  47.012 
104.856  47.259  46.344 
105.376  47.953  47.132 
105.476  48.268  47.598 
105.272  49.099  45.978 
105.159  49.103  46.842 
105.908  49.838  47.228 
106.144  51.145  46.384 
106.070  50.955  47.994 
106.490  52.345  47.631 
106.695  52.938  47.253 
107.031  59.467  45.351 
106.160  54.017  45.326 
108.586  56.796  51.873 
107.122  52.509  50.912 
106.242  53.370  46.068 
105.763  58.538  42.063 
106.765  65.527  45.665 
107.570  62.785  48.654 
105.943  64.728  43.043 
106.274  61.089  45.219 
106.179  68.067  46.659 
104.564  65.137  40.502 
106.001  70.117  49.097 
107.070  65.128  50.441 
104.943  63.564  41.703 
107.473  57.487  47.193 
106.278  66.915  44.958 
105.873  70.359  44.908 
106.033  71.030  44.849 
105.289  72.534  45.480 
102.958  69.252  38.103 
104.678  67.432  42.071 
105.292  63.858  40.929 
105.644  69.222  44.074 
101.535  78.968  40.158 
105.404  71.174  47.126 
104.564  78.883  48.255 
105.774  75.748  51.069 
105.504  75.552  48.963 
102.069  82.670  46.116 
106.130  74.061  50.440 
103.770  74.855  44.203 
100.889  79.535  39.640 
102.219  75.841  39.499 
105.837  74.849  51.527 
104.205  77.248  44.223 
102.131  78.761  42.496 
103.510  77.887  43.987 
97.492  86.888  41.934 
100.054  85.190  46.180 
100.956  85.431  49.755 
104.164  78.540  47.604 
95.913  91.843  47.195 
102.395  85.759  54.351 
93.430  93.992  48.265 
96.392  89.442  43.808 
97.841  90.285  50.286 
100.047  81.550  39.715 
96.124  93.075  51.230 
91.898  94.868  46.168 
96.633  90.701  47.815 
91.093  96.212  47.003 
90.977  96.016  46.070 
96.712  88.605  44.072 
92.426  90.672  40.584 
91.164  95.039  46.167 
90.492  93.048  41.454 
86.442  100.267  49.370 
88.293  98.108  49.855 
93.918  92.492  45.687 
90.027  94.518  43.666 
90.407  94.798  42.939 
88.463  95.637  42.170 
88.423  97.125  44.057 
88.001  97.056  45.176 
85.418  100.983  48.310 
87.698  98.900  48.866 
88.682  99.988  54.421 
85.451  98.950  44.392 
85.985  98.125  45.463 
85.592  101.265  50.421 
79.175  105.614  51.847 
85.629  98.760  44.879 
82.742  99.440  43.124 
81.473  101.328  44.415 
79.123  102.072  42.617 
82.078  102.431  47.201 
72.628  104.386  43.211 
79.347  102.560  44.717 
80.618  104.771  51.744 
76.137  105.612  47.813 
75.000  106.051  49.992 
73.517  106.974  51.579 
72.671  105.527  45.847 
69.800  106.483  47.681 
66.737  105.472  42.363 
67.457  105.997  45.677 
70.356  105.095  44.070 
70.513  105.010  42.761 
78.373  102.398  42.763 
74.539  105.162  48.231 
73.633  101.010  35.207 
63.642  106.628  45.880 
62.229  107.500  47.539 
63.244  106.930  47.305 
62.725  107.259  47.498 
65.947  105.943  45.680 
62.477  106.969  48.483 
63.332  106.148  46.281 
63.555  106.258  44.504 
56.985  107.191  46.263 
58.986  107.329  46.500 
55.839  108.252  48.894 
57.378  107.146  45.479 
58.582  108.965  51.662 
54.064  106.378  45.144 
58.544  108.484  50.879 
57.172  107.706  47.934 
49.304  107.550  50.430 
51.943  106.606  46.188 
53.298  105.901  45.404 
53.939  105.810  45.825 
54.483  106.883  45.869 
50.603  105.482  45.548 
48.089  105.051  46.439 
49.007  106.073  47.989 
48.493  106.540  50.512 
48.274  105.697  49.230 
47.938  105.450  50.176 
48.254  105.552  48.528 
46.308  105.334  49.792 
44.458  104.914  51.341 
45.092  104.747  49.064 
41.247  104.116  50.267 
43.922  104.726  50.748 
38.794  102.653  48.004 
40.289  102.863  48.117 
39.849  102.956  48.935 
44.292  103.095  45.765 
39.114  102.233  47.540 
38.865  101.966  46.503 
40.448  103.400  49.421 
35.987  101.828  48.793 
42.489  102.206  45.754 
38.494  100.888  43.571 
36.134  101.164  45.894 
27.448  96.107  46.375 
37.780  100.100  41.317 
27.692  94.746  42.905 
36.550  100.518  44.915 
33.868  102.255  51.468 
22.445  92.082  48.469 
24.267  91.568  43.103 
28.473  98.549  50.712 
26.704  93.855  43.476 
26.815  95.903  46.970 
34.917  98.115  40.462 
25.404  96.261  51.200 
25.162  95.566  52.766 
25.702  97.846  55.591 
31.177  97.041  43.744 
21.908  93.592  55.267 
22.987  90.552  43.598 
21.163  91.593  51.745 
22.583  88.122  43.091 
20.119  89.839  52.999 
20.344  92.321  59.238 
22.006  89.170  46.139 
22.411  88.404  43.851 
19.519  87.547  50.717 
18.578  85.370  48.482 
20.150  85.963  45.148 
19.845  85.616  47.569 
20.510  85.983  46.116 
17.936  84.805  50.391 
18.200  84.616  48.665 
18.416  84.927  49.286 
17.038  83.273  49.324 
17.397  83.504  48.961 
16.968  82.272  49.119 
16.631  81.465  48.468 
16.201  81.208  49.504 
16.296  80.533  49.303 
15.845  79.333  50.316 
15.565  78.139  49.694 
15.361  77.382  47.992 
15.711  78.321  47.917 
15.450  75.523  46.649 
15.124  75.081  47.285 
14.706  75.427  48.824 
15.120  75.168  48.133 
14.494  75.004  49.116 
13.413  70.463  50.479 
14.564  73.764  49.742 
13.681  71.581  48.030 
13.978  71.670  46.972 
14.012  71.977  47.475 
13.679  69.362  47.393 
12.775  69.387  48.532 
12.882  67.835  49.214 
12.151  66.439  49.513 
12.377  66.894  48.092 
12.547  66.409  48.813 
12.145  65.499  49.712 
11.952  64.436  50.428 
12.429  63.896  49.655 
12.002  64.722  49.636 
11.895  61.944  50.597 
10.781  62.825  53.243 
11.681  62.861  48.440 
11.338  61.216  51.476 
11.640  60.903  49.723 
11.758  58.830  45.436 
11.409  56.526  47.893 
11.488  56.026  47.528 
13.178  53.401  44.065 
12.064  51.718  48.109 
13.304  51.220  44.753 
11.156  54.246  50.471 
10.729  56.591  52.002 
13.393  48.572  46.583 
13.911  52.765  43.433 
10.539  56.172  54.502 
10.528  59.518  51.284 
12.132  45.228  57.049 
14.687  48.675  43.655 
14.612  47.051  44.972 
15.107  46.908  45.053 
15.522  46.382  44.925 
15.912  45.280  45.596 
15.591  44.497  45.141 
15.991  43.959  45.833 
16.043  42.666  46.212 
15.987  42.459  45.608 
16.515  41.223  45.316 
16.949  40.870  45.100 
16.927  40.040  46.151 
17.234  39.582  46.004 
17.525  37.438  49.797 
16.133  37.722  51.186 
18.734  38.441  46.630 
19.226  37.787  45.231 
18.808  37.519  46.985 
22.196  32.625  44.840 
22.478  34.465  43.913 
19.582  35.319  46.815 
23.251  32.146  43.255 
22.526  33.021  44.965 
23.050  32.857  42.906 
24.452  32.230  41.405 
21.464  31.494  48.706 
24.244  30.182  43.535 
21.907  33.968  44.299 
23.095  31.836  44.117 
27.128  29.463  38.610 
27.266  28.816  40.243 
28.378  25.267  44.126 
30.042  25.407  41.710 
31.291  24.045  44.058 
21.127  29.660  50.531 
24.802  24.900  53.617 
20.825  30.586  49.419 
25.594  28.486  42.734 
25.398  26.350  46.823 
28.039  28.554  38.904 
30.047  23.990  44.855 
29.742  22.721  46.849 
32.623  21.309  47.070 
34.154  20.844  46.630 
34.428  21.199  46.085 
34.714  20.424  46.138 
35.791  19.950  45.909 
37.532  18.827  45.410 
37.820  18.871  46.638 
39.027  18.720  45.558 
38.521  19.084  44.600 
36.878  19.373  45.207 
38.258  19.212  45.009 
39.871  19.119  43.080 
40.398  19.456  42.150 
40.301  18.701  44.444 
42.753  17.705  42.756 
42.427  18.918  40.665 
43.177  19.124  41.357 
44.485  17.856  41.180 
46.995  17.061  41.794 
47.330  16.456  42.291 
50.187  14.782  43.408 
47.733  14.523  44.954 
46.044  16.491  43.120 
48.309  15.454  44.258 
43.902  16.050  45.998 
50.942  15.120  42.149 
47.948  14.751  45.595 
55.811  10.809  51.679 
56.139  14.449  41.540 
51.680  14.805  43.765 
53.667  11.901  49.564 
52.996  11.602  52.616 
52.400  13.355  44.555 
53.435  14.209  43.198 
50.356  13.637  47.363 
63.021  14.159  41.608 
60.602  14.417  40.200 
56.479  16.885  36.627 
59.947  12.020  47.032 
55.405  11.861  49.177 
52.893  12.044  49.818 
67.549  13.176  44.530 
60.302  14.332  41.177 
67.293  14.051  42.973 
67.172  14.478  42.106 
60.127  11.501  48.223 
64.435  12.630  45.101 
66.972  14.999  40.737 
65.138  12.748  45.312 
70.383  14.774  43.016 
69.061  14.662  42.405 
71.343  15.195  41.085 
70.299  14.178  44.804 
77.201  17.202  41.950 
70.501  15.270  42.257 
75.774  16.374  42.268 
72.870  16.102  40.763 
73.539  16.170  41.047 
69.749  14.313  42.807 
76.022  15.771  45.983 
78.377  17.852  42.761 
78.015  20.283  35.862 
78.512  18.091  44.457 
82.529  20.508  43.602 
80.823  20.004  42.937 
82.224  20.874  43.407 
81.908  20.339  42.876 
83.397  20.646  44.072 
83.903  21.053  44.816 
83.626  20.461  45.474 
83.765  21.449  43.087 
84.188  20.919  45.557 
83.176  21.253  42.425 
83.072  21.516  42.023 
85.623  23.546  43.714 
85.008  22.808  44.571 
86.305  23.384  43.478 
86.428  24.088  44.079 
87.109  23.583  44.451 
87.767  23.957  44.459 
88.617  24.615  44.718 
88.758  25.190  43.592 
89.984  27.075  43.343 
89.130  26.237  44.240 
89.702  27.165  42.195 
90.540  27.058  43.355 
90.859  28.016  43.379 
90.473  27.333  42.261 
91.372  27.783  43.510 
92.138  29.008  43.143 
92.703  30.314  44.463 
94.473  30.945  44.972 
95.252  32.070  43.956 
94.813  33.149  42.609 
94.973  33.285  41.274 
97.609  35.151  42.434 
96.718  33.385  44.695 
97.664  33.086  45.792 
99.272  32.581  48.839 
96.694  33.892  42.915 
98.137  33.860  46.189 
100.716  35.414  47.891 
99.363  37.593  44.130 
98.738  36.080  42.967 
100.157  39.543  41.901 
100.157  40.812  42.472 
99.738  40.028  42.537 
100.997  40.494  44.278 
99.393  40.609  42.809 
99.864  40.012  43.433 
102.031  42.104  44.705 
102.716  43.612  45.362 
103.405  44.626  44.460 
103.050  44.683  45.320 
104.076  45.457  45.631 
103.943  46.098  44.592 
103.329  46.833  44.655 
103.891  46.429  45.523 
104.391  47.107  46.643 
104.633  47.772  45.751 
104.669  48.147  46.043 
105.021  48.637  45.973 
105.742  51.180  46.069 
105.935  50.264  46.391 
105.957  52.452  46.164 
105.936  53.015  45.442 
106.321  51.648  46.718 
106.564  54.515  46.887 
107.456  54.295  50.737 
105.855  60.194  43.405 
105.617  68.541  43.528 
105.567  54.653  43.759 
107.185  56.508  46.433 
106.508  60.130  45.178 
106.560  65.119  46.916 
105.079  66.238  43.155 
106.170  69.764  45.614 
107.167  63.830  48.854 
107.960  62.364  49.347 
107.547  58.557  49.163 
102.242  67.398  36.755 
105.938  60.968  44.203 
105.601  60.351  42.977 
106.155  66.335  45.018 
105.759  65.688  42.992 
105.264  67.744  43.607 
103.678  71.534  40.361 
102.819  67.283  37.267 
105.337  70.621  43.567 
104.887  70.171  42.863 
104.381  68.825  41.940 
106.367  73.505  51.314 
104.793  81.278  53.011 
103.596  80.186  48.213 
103.588  80.715  46.880 
105.937  71.996  46.010 
106.039  75.277  51.778 
98.626  85.754  43.368 
103.043  80.263  44.608 
103.954  78.146  45.748 
104.196  75.563  44.209 
105.429  74.068  46.767 
105.468  78.096  51.951 
97.384  88.002  42.443 
100.036  81.921  40.164 
94.651  92.747  46.285 
99.466  85.528  43.928 
101.305  84.329  45.955 
97.810  89.001  47.420 
95.273  93.172  47.979 
97.764  89.108  46.724 
92.356  95.720  47.767 
94.311  92.176  45.830 
93.623  93.349  45.845 
96.647  92.469  50.857 
95.864  89.625  44.911 
95.398  89.541  43.688 
97.045  91.190  49.030 
90.788  97.170  49.155 
97.275  86.442  41.153 
92.479  95.588  49.500 
96.312  85.551  37.846 
97.607  91.513  50.731 
94.040  93.300  47.283 
95.156  93.964  51.260 
92.755  92.719  44.360 
91.495  93.549  43.949 
93.034  96.181  49.789 
90.466  93.820  41.773 
87.564  96.746  42.165 
87.162  99.016  48.139 
85.805  99.193  45.146 
85.850  97.740  43.675 
88.013  96.884  44.347 
86.309  97.712  42.443 
84.620  100.166  46.461 
83.062  99.801  43.733 
86.931  98.078  46.436 
81.468  99.965  43.116 
82.217  102.311  46.629 
83.591  102.006  47.521 
83.697  102.585  49.803 
76.769  103.035  42.684 
78.119  104.829  47.301 
75.396  104.381  44.589 
82.550  103.611  51.377 
79.392  104.945  51.338 
74.662  105.272  47.300 
73.837  104.513  45.103 
72.447  106.378  50.313 
76.308  106.054  49.704 
76.774  105.794  48.411 
70.439  106.308  47.126 
70.640  105.961  46.191 
66.813  105.252  41.486 
70.135  105.796  45.494 
69.701  104.987  41.687 
63.885  105.852  44.658 
66.486  106.589  47.198 
68.030  107.184  49.913 
66.975  105.948  44.720 
65.327  106.097  45.815 
65.649  106.456  46.750 
62.733  106.456  44.645 
60.952  106.699  45.073 
63.763  107.334  48.335 
62.154  106.682  46.072 
61.188  106.287  44.092 
59.066  106.126  44.784 
57.767  105.848  44.868 
55.393  106.224  44.964 
54.984  106.549  46.528 
58.245  107.171  45.853 
55.636  106.641  46.017 
58.167  107.864  48.075 
56.960  108.253  48.617 
56.054  105.974  44.401 
50.121  105.001  45.987 
50.430  108.047  51.513 
51.705  105.250  44.502 
58.070  107.681  47.561 
47.215  104.674  46.816 
48.550  104.900  46.204 
46.737  103.726  46.138 
48.115  104.844  47.145 
46.828  104.954  48.426 
46.688  105.203  48.979 
46.026  104.847  48.330 
44.204  103.068  44.897 
44.354  103.582  46.506 
43.686  104.233  49.984 
39.563  102.451  47.749 
44.213  103.982  47.672 
41.627  102.239  45.600 
43.640  102.032  43.324 
44.814  103.890  47.164 
39.127  100.843  44.499 
39.371  102.605  50.332 
35.603  100.023  45.660 
36.654  100.814  43.352 
27.019  95.265  46.183 
33.503  99.387  45.243 
30.754  97.734  44.144 
37.476  101.471  47.236 
33.544  100.594  47.828 
35.196  98.533  40.343 
32.290  100.273  48.398 
36.788  101.040  44.201 
30.637  98.250  46.900 
40.013  100.231  40.489 
35.485  99.671  41.886 
22.872  92.322  46.513 
28.142  96.255  44.958 
28.262  95.365  43.429 
26.013  97.681  52.480 
27.405  98.140  54.742 
27.701  98.747  51.850 
24.200  94.325  48.221 
22.816  92.355  49.266 
23.354  93.963  51.679 
21.607  89.846  47.923 
24.058  95.539  55.270 
24.502  93.183  44.973 
21.158  87.461  44.776 
21.756  90.423  50.446 
22.069  90.219  49.503 
19.111  86.851  50.802 
22.312  90.969  49.095 
24.484  87.313  36.585 
18.763  84.682  48.003 
18.421  84.246  48.224 
17.811  82.795  46.963 
18.909  84.564  46.653 
18.793  85.916  48.792 
17.238  80.718  48.347 
17.480  82.816  48.775 
16.405  81.613  49.000 
16.424  80.736  50.012 
15.955  79.742  49.441 
15.912  79.015  48.308 
16.221  79.160  49.014 
16.154  78.177  49.313 
15.923  78.033  46.531 
14.942  76.818  48.374 
15.997  76.412  44.732 
15.060  75.666  47.419 
15.820  75.619  47.046 
13.331  70.932  48.524 
13.861  72.881  49.186 
14.325  73.869  47.617 
14.225  71.753  48.569 
14.305  70.224  46.373 
13.886  70.033  48.312 
14.128  68.697  46.048 
13.771  70.179  47.125 
13.175  67.645  48.883 
12.555  67.270  48.462 
12.683  65.715  48.988 
12.451  65.859  48.039 
12.160  65.027  48.965 
12.494  64.700  49.157 
11.947  63.822  48.221 
12.076  63.116  48.607 
11.846  63.478  47.856 
11.221  61.599  50.047 
11.800  60.879  48.667 
11.607  59.302  49.261 
11.065  56.946  48.577 
11.087  60.633  50.093 
11.504  57.341  47.595 
12.282  57.559  46.598 
11.442  56.274  49.636 
14.916  53.860  40.914 
12.771  52.789  47.333 
10.320  60.079  51.952 
10.551  55.710  57.067 
11.861  47.717  53.558 
12.983  46.299  50.462 
13.934  47.492  46.810 
13.428  56.435  42.846 
14.695  46.759  46.758 
14.132  49.565  44.369 
14.954  47.286  44.113 
14.918  46.686  44.418 
15.700  45.411  45.080 
15.720  44.145  44.413 
16.162  44.198  44.672 
15.660  43.637  44.733 
15.561  43.101  45.345 
16.417  42.583  45.395 
16.344  41.711  45.338 
17.454  40.931  45.223 
16.917  40.345  45.726 
18.055  39.594  45.614 
18.264  38.930  45.168 
18.119  39.529  44.081 
20.299  36.297  44.984 
17.924  38.665  46.139 
20.814  35.854  44.362 
23.218  31.430  43.657 
21.178  33.927  46.249 
18.050  37.112  47.344 
20.382  36.636  44.614 
19.340  36.401  48.527 
23.775  31.703  42.586 
21.992  33.548  44.742 
24.016  30.943  44.023 
28.901  29.426  36.180 
22.122  34.328  43.452 
21.460  34.295  44.917 
23.538  32.759  42.882 
29.109  23.206  46.060 
25.536  30.821  40.740 
30.348  27.092  39.822 
30.086  24.860  42.437 
26.777  25.384  48.036 
23.367  27.142  51.621 
26.634  27.291  43.126 
29.694  23.770  44.610 
29.737  26.158  41.855 
23.411  28.542  48.029 
31.118  25.723  40.957 
32.147  22.022  45.921 
33.354  20.931  46.905 
33.548  21.303  46.097 
33.678  21.530  46.563 
35.149  21.097  45.102 
35.239  20.426  45.478 
36.790  19.153  45.704 
36.081  19.536  45.684 
36.278  20.287  44.604 
38.139  20.116  44.016 
39.114  19.703  42.121 
39.044  19.747  44.363 
39.770  19.539  42.381 
40.990  19.610  41.587 
41.664  19.219  41.356 
41.355  19.013  42.850 
43.332  18.333  41.310 
45.224  18.118  40.044 
45.016  14.980  47.178 
46.820  16.350  42.531 
48.481  13.594  47.280 
43.754  16.702  44.095 
49.338  16.217  41.705 
45.662  16.799  42.763 
47.338  14.692  45.643 
51.673  15.787  41.991 
52.442  15.100  42.350 
49.910  14.740  43.885 
51.219  14.426  43.571 
48.989  13.428  46.522 
51.287  13.484  45.787 
60.808  11.562  47.477 
54.611  14.194  42.950 
53.659  12.645  46.966 
51.503  13.890  45.491 
50.314  13.415  48.006 
60.734  12.128  44.849 
67.506  12.497  45.765 
64.256  13.151  42.659 
67.715  12.236  48.240 
64.820  14.572  40.295 
66.347  14.588  42.910 
66.704  14.425  41.576 
65.630  13.520  44.223 
58.967  13.660  41.137 
72.894  13.747  46.429 
70.550  14.499  43.420 
67.609  15.233  39.046 
66.169  11.821  48.275 
65.665  14.574  40.656 
69.481  15.451  40.130 
68.942  14.890  41.429 
70.514  15.041  41.634 
71.857  15.712  42.265 
69.515  15.591  41.042 
74.703  14.875  45.338 
70.520  13.853  45.374 
75.926  15.939  44.101 
72.814  15.397  42.091 
73.527  13.776  46.737 
77.905  19.026  39.481 
78.011  18.068  43.176 
76.927  17.584  43.121 
81.580  19.219  45.233 
78.349  17.976  41.744 
82.069  18.701  48.264 
81.770  19.528  44.565 
83.299  20.946  43.662 
80.968  19.629  42.147 
82.524  20.956  42.627 
82.969  21.516  42.999 
83.880  22.166  43.541 
83.909  21.681  44.999 
83.975  21.964  41.912 
85.622  23.269  42.182 
85.939  24.463  40.541 
86.058  23.531  42.806 
87.330  24.784  43.229 
87.592  25.340  42.723 
87.355  24.177  43.724 
88.029  24.646  43.998 
88.294  24.970  43.192 
89.242  26.322  42.407 
89.174  26.103  43.348 
90.290  27.971  41.678 
88.937  26.230  41.497 
90.083  28.117  40.668 
90.967  27.906  42.071 
92.785  29.596  43.295 
93.139  30.181  44.070 
93.290  30.398  43.241 
93.701  31.225  43.546 
94.137  31.188  44.480 
94.939  32.491  43.043 
95.585  34.557  40.741 
96.587  35.070  41.399 
96.881  35.501  41.333 
96.949  33.693  43.700 
99.547  36.172  44.063 
100.363  36.545  45.907 
98.960  37.657  42.731 
98.364  36.471  43.188 
100.607  38.031  44.489 
99.269  39.090  41.501 
98.417  38.927  40.370 
100.262  37.329  45.534 
100.586  40.995  42.042 
100.305  41.068  43.037 
100.999  41.266  44.326 
101.239  41.694  43.610 
101.994  43.385  43.448 
102.303  43.424  44.231 
102.472  44.729  44.587 
103.110  44.609  44.088 
103.578  45.308  44.978 
103.383  45.500  44.518 
103.930  46.761  43.996 
104.170  46.793  44.981 
104.691  47.754  46.691 
104.421  47.540  45.109 
104.746  49.301  45.315 
104.968  49.457  45.798 
105.315  49.870  46.340 
104.649  51.085  44.709 
105.671  52.034  46.358 
106.078  58.420  44.242 
106.378  52.381  46.836 
106.345  53.210  46.528 
107.440  57.090  46.840 
106.948  52.664  49.207 
107.107  61.400  46.561 
106.439  61.599  44.421 
105.246  65.132  42.394 
105.676  63.140  41.323 
107.877  61.672  48.742 
104.120  68.194  39.942 
106.787  64.484  45.965 
106.277  59.318  43.105 
106.444  66.409  47.936 
108.390  58.305  53.929 
106.212  64.265  44.644 
103.850  64.109  39.319 
104.615  67.686  40.686 
106.364  66.899  45.865 
107.640  64.437  48.860 
104.538  68.167  41.347 
102.299  66.105  36.454 
104.200  76.997  44.838 
100.819  75.511  38.543 
104.117  66.639  39.974 
104.447  65.944  40.090 
104.902  71.176  42.877 
104.441  73.820  43.448 
105.344  75.493  48.246 
106.017  73.754  52.485 
104.190  70.579  40.989 
101.953  84.922  51.604 
102.682  79.257  43.173 
105.440  76.005  47.294 
104.683  76.621  45.940 
104.754  69.779  41.598 
97.888  87.742  45.590 
98.928  84.871  41.464 
105.934  73.500  47.994 
101.788  82.076  44.612 
97.859  87.638  42.971 
97.490  85.082  38.343 
98.395  86.250  41.730 
102.958  82.400  48.562 
96.208  90.395  45.498 
97.259  90.388  48.186 
99.632  86.692  47.492 
92.262  94.098  45.028 
92.380  94.570  46.815 
100.880  84.803  46.659 
99.018  85.707  45.815 
92.272  94.356  45.792 
97.065  89.294  46.418 
91.207  94.628  44.509 
89.564  99.266  52.632 
92.821  91.550  43.199 
94.951  93.880  50.335 
91.076  92.814  42.936 
95.060  91.881  46.814 
97.603  89.810  47.550 
89.453  96.178  44.001 
88.929  97.766  46.194 
91.227  94.372  43.760 
87.462  96.389  43.086 
86.843  97.092  42.123 
85.288  99.792  46.088 
85.213  100.084  46.973 
86.244  98.680  44.276 
87.789  97.492  44.607 
84.117  99.659  44.538 
84.784  99.412  44.072 
86.188  97.983  44.378 
83.752  100.622  45.292 
78.890  101.155  42.266 
77.517  105.198  48.660 
81.197  100.766  43.262 
79.218  104.012  46.367 
82.063  101.529  45.803 
74.863  103.816  43.766 
79.559  104.827  49.779 
77.053  105.833  49.769 
72.487  104.993  45.073 
73.477  104.343  42.031 
81.555  103.193  48.400 
72.986  101.214  36.714 
74.475  105.286  46.019 
75.586  105.321  46.985 
71.777  105.602  44.738 
71.329  106.017  46.165 
70.067  104.064  39.579 
68.573  104.558  40.365 
68.413  105.099  42.743 
64.372  105.576  43.326 
66.084  106.426  45.430 
71.880  105.367  46.325 
69.369  105.844  45.976 
67.188  105.093  40.107 
64.094  107.091  46.757 
59.867  106.193  44.868 
61.813  107.596  48.247 
62.636  106.323  44.100 
62.807  106.806  46.624 
59.404  106.040  44.096 
57.605  106.141  44.079 
59.515  106.673  44.965 
60.450  107.772  47.782 
59.046  106.784  47.388 
59.292  106.923  45.670 
56.466  105.632  43.797 
54.395  105.632  43.968 
56.918  106.181  44.709 
55.105  105.799  44.415 
54.074  105.686  44.891 
47.337  104.666  48.120 
48.938  105.894  48.772 
48.447  106.201  49.690 
47.632  105.082  47.422 
45.533  104.591  48.642 
48.406  104.197  44.699 
47.317  105.884  50.119 
46.972  103.992  45.380 
45.848  103.298  46.130 
44.163  103.486  47.541 
44.288  105.063  49.748 
39.577  102.840  49.431 
43.229  104.188  49.195 
44.099  102.700  44.487 
45.270  104.445  47.829 
43.266  103.393  46.284 
42.298  101.735  43.823 
37.264  101.820  47.618 
39.716  102.828  47.974 
41.769  101.195  39.929 
41.472  101.625  44.051 
39.697  102.144  46.575 
37.361  101.165  44.847 
36.528  101.289  46.539 
32.869  97.780  43.180 
37.927  100.198  43.399 
24.938  92.451  42.390 
32.748  99.323  44.022 
39.073  100.297  41.644 
22.673  90.064  44.493 
23.770  93.652  50.436 
34.258  99.714  44.043 
24.671  94.108  47.536 
25.796  97.009  55.344 
25.246  97.206  54.424 
23.469  92.743  48.142 
24.484  94.694  50.584 
25.474  95.169  47.973 
23.754  90.859  43.331 
29.355  97.627  47.159 
20.340  87.154  47.815 
23.478  95.641  59.601 
22.705  94.169  52.299 
23.040  88.850  39.613 
19.257  87.173  51.830 
21.939  87.345  41.530 
25.185  92.560  43.565 
21.736  87.403  44.041 
20.869  86.908  45.381 
19.603  84.827  45.797 
19.194  85.939  47.952 
20.303  86.862  46.980 
20.070  86.405  48.159 
18.230  85.363  49.259 
17.448  82.796  47.357 
17.273  81.637  46.171 
17.212  82.180  48.194 
16.847  81.311  47.397 
16.496  80.617  48.722 
16.619  80.121  48.579 
16.264  80.275  47.973 
16.105  79.921  48.699 
16.539  80.054  46.761 
15.678  78.622  49.153 
16.176  78.357  47.397 
17.699  72.540  37.340 
14.587  73.758  45.803 
13.418  70.279  47.499 
14.504  74.297  47.892 
14.861  73.201  47.353 
14.930  75.573  47.855 
12.864  70.171  49.110 
14.670  72.152  46.696 
13.814  70.759  45.948 
14.006  70.423  45.441 
13.301  69.497  47.830 
13.468  68.864  48.017 
13.541  68.017  47.639 
13.021  68.661  47.844 
12.583  66.586  47.719 
12.625  65.995  47.122 
12.255  64.873  48.188 
12.102  64.375  48.194 
12.215  64.400  47.471 
12.287  62.723  48.310 
11.641  62.900  50.001 
11.472  61.918  48.881 
11.468  59.552  48.588 
11.404  58.738  47.004 
11.870  57.054  46.169 
10.573  59.579  51.973 
11.207  55.652  53.890 
12.196  53.828  46.470 
11.590  53.503  48.157 
11.300  55.046  49.921 
11.619  47.052  55.189 
11.263  54.808  52.193 
11.866  53.595  47.690 
13.081  49.316  46.976 
14.097  50.716  44.062 
12.161  50.962  48.422 
13.217  60.796  43.357 
14.551  48.097  44.317 
15.056  47.679  44.429 
15.401  46.374  43.817 
15.691  45.899  44.521 
16.235  45.673  44.236 
15.811  44.481  43.691 
16.291  43.781  43.921 
16.508  43.326  44.934 
16.919  42.686  44.193 
16.387  42.097  44.739 
17.165  41.731  44.687 
17.624  40.406  45.066 
17.691  39.711  44.637 
17.816  39.295  44.988 
18.371  39.080  44.312 
18.779  38.561  45.896 
17.661  39.190  46.667 
18.604  37.722  46.385 
19.964  37.451  44.097 
20.708  33.946  46.846 
23.023  34.025  43.439 
18.829  37.169  47.417 
17.159  36.553  50.350 
22.875  34.041  41.643 
22.302  28.388  50.501 
25.812  31.621  38.194 
22.873  32.740  44.154 
26.746  29.218  40.918 
25.449  32.030  38.889 
29.400  28.075  39.673 
24.699  28.069  46.337 
23.704  30.485  44.236 
24.724  29.838  43.020 
27.533  32.180  34.051 
28.353  23.826  46.989 
28.057  25.818  44.498 
23.188  28.757  46.870 
28.240  24.076  46.118 
28.393  24.900  44.488 
25.647  27.267  44.898 
30.732  23.285  45.212 
32.052  22.685  44.123 
31.994  21.746  46.745 
32.801  21.402  46.333 
33.785  21.905  45.636 
34.721  21.060  45.392 
35.361  21.499  44.337 
35.788  20.676  44.791 
37.310  19.373  44.988 
37.983  20.412  42.219 
38.399  19.777  43.243 
38.371  20.166  42.442 
38.672  19.792  41.773 
40.649  19.438  42.721 
42.312  19.596  39.341 
41.882  17.970  42.824 
40.632  18.740  43.352 
41.188  18.616  43.145 
41.323  18.989  41.946 
46.799  16.648  43.280 
44.685  17.840  41.926 
45.275  18.231  39.198 
45.758  17.601  40.644 
47.691  16.106  43.388 
47.162  15.988  43.097 
46.858  15.974  43.940 
47.379  15.417  43.798 
50.663  15.560  41.329 
50.375  15.482  42.384 
50.102  15.815  42.676 
50.881  15.322  42.993 
55.623  14.693  41.661 
54.527  15.438  41.821 
54.185  12.472  46.066 
54.206  14.603  42.022 
60.986  11.903  46.265 
62.114  11.727  47.486 
58.205  14.352  40.212 
58.072  13.367  42.832 
56.652  12.853  44.035 
62.844  12.531  44.399 
67.600  12.544  46.636 
62.374  12.722  43.430 
65.937  15.054  39.964 
64.799  13.448  42.811 
75.315  14.399  49.179 
64.987  14.678  41.681 
63.952  11.472  47.979 
68.542  12.339  48.115 
66.461  16.110  38.285 
68.062  14.585  41.706 
72.361  14.822  44.095 
68.376  15.359  40.703 
68.565  15.025  41.728 
70.366  15.567  40.601 
72.048  15.455  41.509 
72.450  15.110  42.497 
72.097  15.367  43.071 
75.148  16.366  41.557 
75.793  17.027  41.032 
75.340  16.366  41.060 
78.230  18.590  39.753 
77.618  17.847  40.924 
78.666  18.096  43.412 
79.760  18.443  44.151 
80.214  19.211  41.597 
80.270  19.131  42.582 
81.164  20.684  40.751 
80.827  19.524  42.680 
81.811  20.693  41.325 
81.589  20.465  43.528 
83.780  21.805  42.316 
81.843  20.898  42.007 
82.509  21.691  42.202 
83.301  21.879  41.549 
84.629  21.955  44.165 
84.635  23.514  40.622 
86.037  24.577  41.112 
86.899  24.334  44.082 
85.972  23.835  41.906 
86.702  24.451  41.705 
88.018  25.057  42.681 
88.105  25.968  42.491 
87.246  25.201  42.068 
88.738  26.116  41.933 
90.493  28.107  41.000 
89.142  26.718  43.248 
90.754  28.385  42.365 
91.837  29.783  43.101 
92.718  29.996  42.985 
91.970  30.472  42.374 
92.806  31.126  42.489 
93.416  30.986  42.758 
93.804  31.676  43.864 
94.553  32.326  42.840 
94.386  33.189  41.890 
95.420  33.455  41.454 
97.828  33.771  45.292 
97.853  35.068  43.286 
98.523  35.465  43.557 
98.461  36.126  42.353 
99.102  36.446  43.506 
99.422  35.873  44.672 
98.405  38.309  42.495 
100.096  36.873  44.284 
99.478  39.896  41.430 
100.309  40.439  41.819 
101.026  40.028  44.015 
100.976  41.598  43.167 
101.068  42.186  43.810 
101.814  42.705  44.055 
101.606  43.766  42.749 
102.161  44.297  43.214 
102.176  44.117  44.089 
103.122  45.458  43.750 
102.800  46.132  44.206 
103.637  46.064  43.974 
103.394  46.459  43.421 
104.197  47.970  44.460 
104.203  47.125  45.725 
104.679  48.313  45.074 
104.549  48.987  44.464 
105.181  49.448  45.070 
104.844  50.201  45.088 
105.473  50.356  45.663 
105.166  51.715  45.425 
107.709  58.495  52.237 
105.751  54.991  43.160 
106.187  62.924  44.981 
106.576  53.855  48.184 
106.971  65.639  46.599 
107.560  57.616  48.481 
106.579  54.710  45.557 
106.254  65.726  45.116 
106.193  63.185  43.678 
105.508  67.086  42.629 
105.775  60.740  41.463 
99.570  58.039  29.988 
105.771  66.601  43.026 
105.564  64.066  42.499 
107.867  58.150  48.230 
108.133  60.764  50.131 
105.266  72.921  43.972 
105.026  68.312  42.128 
104.964  64.508  41.408 
103.234  68.424  38.252 
106.863  66.604  49.565 
105.254  75.003  47.541 
103.785  66.692  38.580 
104.287  77.913  47.075 
106.286  69.738  48.137 
105.744  71.611  44.365 
104.121  74.696  43.665 
101.993  79.425  43.616 
103.726  76.337  44.571 
103.677  76.033  43.612 
104.252  69.776  40.796 
103.401  81.695  47.492 
103.050  78.775  43.283 
102.001  77.920  41.135 
101.235  82.596  43.014 
99.263  78.625  37.413 
103.852  77.710  44.926 
94.415  82.776  33.519 
100.608  83.114  43.299 
101.549  77.199  40.927 
105.452  79.293  52.363 
92.048  95.332  47.696 
96.315  88.344  42.414 
99.225  84.386  42.274 
98.124  88.698  48.423 
101.264  82.508  43.757 
97.165  89.876  49.658 
99.524  85.924  46.490 
97.472  91.775  53.938 
98.431  88.038  46.219 
91.615  88.050  35.521 
97.391  90.486  49.064 
95.467  87.090  38.920 
92.496  90.740  39.616 
90.704  91.099  38.505 
92.621  93.444  44.527 
91.266  91.291  40.083 
93.059  91.789  44.042 
91.046  97.791  51.260 
93.574  93.929  47.391 
92.627  91.168  42.252 
92.995  93.354  45.048 
88.308  96.294  42.696 
89.101  95.409  42.983 
88.076  95.459  41.135 
87.546  95.863  41.849 
87.381  98.049  44.573 
84.226  97.870  42.292 
85.077  98.585  43.826 
85.307  98.363  42.856 
84.461  98.344  43.199 
85.172  99.156  43.880 
84.782  98.856  43.200 
82.501  102.626  49.008 
82.400  102.409  47.920 
83.257  100.976  46.165 
77.783  104.458  47.410 
78.955  105.182  49.276 
81.906  104.135  52.765 
75.500  105.854  49.241 
70.789  104.576  40.054 
79.749  101.889  43.243 
79.991  104.418  49.088 
74.809  103.702  40.917 
75.503  104.346  43.646 
73.827  105.058  46.929 
71.783  105.136  45.374 
68.816  104.394  38.989 
71.997  106.514  48.135 
66.864  104.962  40.721 
67.506  105.471  43.051 
66.199  105.796  43.095 
67.141  105.601  43.788 
70.434  104.683  40.372 
66.880  106.289  45.284 
66.896  106.697  46.939 
62.801  105.632  43.553 
62.736  105.778  44.030 
61.190  106.060  43.289 
61.054  105.739  43.703 
61.645  106.058  45.008 
60.946  106.483  46.685 
60.386  106.009  43.633 
56.705  107.527  48.205 
60.115  106.696  45.173 
56.606  104.902  43.203 
58.491  106.283  44.394 
55.608  105.627  44.354 
56.523  108.375  50.041 
52.720  106.962  46.620 
52.635  105.811  45.587 
54.725  106.139  45.475 
52.156  105.430  45.016 
53.689  105.283  43.595 
51.839  105.828  45.016 
48.206  105.545  47.771 
55.851  108.830  50.590 
48.895  104.897  44.638 
48.370  104.369  45.726 
46.173  104.394  47.983 
43.048  103.399  47.214 
47.454  103.710  45.083 
47.899  104.577  45.689 
43.686  103.444  45.971 
40.554  102.661  46.815 
38.794  101.755  45.754 
43.426  104.697  49.992 
43.809  104.184  48.452 
43.595  102.550  45.379 
31.535  99.110  46.966 
44.635  105.173  50.503 
38.422  100.648  42.721 
40.783  101.051  41.531 
41.057  101.933  45.230 
37.276  99.828  39.880 
29.063  95.311  43.188 
37.309  100.225  43.175 
29.537  95.565  41.661 
23.613  91.784  43.725 
25.512  94.456  47.306 
35.877  100.071  43.292 
28.044  95.603  44.091 
27.571  96.934  48.295 
23.058  93.632  50.341 
25.509  95.241  47.519 
21.983  93.047  52.592 
26.892  98.286  52.209 
24.879  95.568  49.599 
22.113  89.864  46.574 
23.240  93.477  49.278 
21.661  89.183  46.894 
22.679  91.924  47.171 
23.826  94.266  48.923 
22.378  91.412  47.898 
22.409  92.889  51.278 
20.376  87.420  48.204 
21.565  88.429  45.565 
25.335  92.790  41.850 
23.671  89.390  39.829 
21.311  87.707  45.257 
19.523  86.243  48.244 
19.809  86.220  46.416 
21.943  87.613  42.777 
20.027  87.120  48.561 
18.220  84.379  47.329 
18.979  85.499  47.819 
19.820  84.920  46.835 
17.194  82.251  47.332 
18.063  82.303  47.103 
17.423  81.501  46.945 
16.455  80.452  47.226 
16.918  80.968  46.767 
16.279  78.813  47.481 
16.364  78.562  48.394 
16.131  79.604  47.253 
15.754  77.982  48.384 
15.845  75.738  45.572 
15.700  77.510  47.541 
15.199  74.773  45.658 
16.570  74.992  41.335 
15.374  75.872  46.255 
15.973  76.324  45.691 
13.886  71.030  46.507 
14.578  74.970  48.126 
15.154  75.192  45.992 
13.312  69.398  47.084 
13.628  68.819  45.275 
13.422  68.790  46.620 
13.075  68.687  47.296 
12.849  67.382  47.520 
12.823  68.172  48.085 
12.861  66.809  47.330 
13.095  65.762  47.504 
12.709  64.828  47.657 
12.511  65.219  47.322 
12.090  63.635  47.186 
12.087  62.750  47.736 
11.628  61.316  48.480 
11.815  61.953  48.028 
11.868  60.181  47.988 
10.741  60.154  50.671 
11.753  57.971  45.965 
11.152  52.595  53.039 
11.778  58.440  48.416 
12.383  54.236  47.228 
13.947  50.410  45.343 
12.902  53.496  45.134 
12.403  48.892  48.845 
12.418  53.049  46.552 
12.505  57.142  43.096 
12.159  52.510  48.862 
12.712  57.716  43.677 
16.221  52.134  37.720 
12.945  47.649  48.778 
14.049  49.782  45.164 
14.190  48.741  45.077 
15.318  47.094  43.797 
16.029  46.528  43.623 
15.657  44.975  44.431 
16.073  44.952  42.968 
16.456  43.575  44.421 
16.288  42.946  44.411 
16.514  42.877  43.884 
16.660  41.588  44.619 
16.956  41.314  43.863 
17.174  40.527  44.314 
18.171  40.213  44.451 
18.982  39.105  43.349 
18.713  38.538  43.865 
19.541  37.135  44.591 
18.672  38.207  45.049 
19.115  38.538  45.382 
20.170  36.676  44.155 
20.970  32.810  47.645 
21.581  35.372  43.022 
19.153  35.002  48.817 
22.914  34.804  41.130 
20.687  35.892  46.310 
20.952  35.030  45.861 
24.245  31.315  42.973 
25.880  29.205  42.449 
24.735  30.197  41.999 
24.364  31.632  41.758 
25.036  28.693  44.202 
27.884  27.485  40.891 
31.568  27.425  36.276 
29.873  29.032  36.446 
29.599  26.293  40.891 
24.239  30.294  42.538 
27.010  26.129  44.769 
25.198  27.993  46.270 
30.425  27.427  38.918 
25.654  28.273  43.485 
31.528  22.700  45.928 
32.492  22.178  44.985 
31.225  23.033  45.229 
32.786  22.013  45.681 
33.886  21.477  45.235 
34.659  21.884  45.003 
35.279  21.328  43.192 
35.288  20.706  44.732 
36.102  20.287  44.113 
37.020  20.080  44.774 
38.426  20.316  42.898 
38.892  19.691  42.573 
39.104  19.899  43.395 
40.013  19.937  42.177 
39.915  18.892  43.662 
39.737  19.876  41.544 
41.692  17.576  43.607 
42.578  19.274  39.648 
43.156  19.663  38.553 
46.326  17.646  40.030 
44.542  18.740  41.005 
44.794  18.306  39.317 
47.169  16.835  41.127 
47.047  17.497  41.037 
48.428  17.566  40.785 
48.380  16.449  41.655 
49.751  15.651  41.840 
49.410  16.015  41.126 
46.381  14.740  46.308 
53.704  14.715  42.585 
52.470  15.240  41.709 
56.543  11.287  48.974 
55.926  15.141  40.776 
56.119  12.229  47.674 
57.324  13.146  42.640 
51.243  14.889  42.859 
61.828  13.159  41.763 
57.078  16.226  38.787 
61.400  11.620  48.111 
52.950  13.481  44.424 
63.910  14.480  40.670 
67.037  13.020  44.406 
56.451  14.581  40.629 
61.028  10.729  51.434 
65.879  15.435  40.442 
71.233  14.934  42.872 
61.741  11.763  46.937 
69.955  13.568  45.447 
67.728  11.047  51.940 
69.096  14.861  40.857 
68.272  14.782  40.690 
68.012  12.914  45.017 
69.385  15.494  39.630 
71.033  15.564  41.929 
71.050  15.560  41.135 
71.168  15.637  40.338 
72.164  16.564  40.354 
71.708  15.778  40.445 
74.153  15.140  45.393 
74.161  15.639  42.119 
74.452  16.774  40.564 
76.678  17.029  41.012 
77.952  18.115  40.413 
76.502  16.795  42.407 
77.244  16.866  43.326 
75.448  17.578  39.217 
81.713  20.444  42.129 
81.334  20.139  41.550 
79.019  18.899  41.631 
81.139  21.386  40.354 
81.592  21.726  40.099 
81.165  20.275  42.508 
82.979  21.785  40.649 
82.230  21.229  41.355 
85.188  23.677  41.857 
83.411  22.745  40.395 
80.712  23.784  33.605 
83.808  22.094  41.063 
83.677  22.673  41.346 
86.862  23.903  43.024 
86.403  24.759  42.032 
86.587  25.076  41.680 
88.320  26.546  41.063 
88.396  26.805  41.829 
89.299  27.022  39.884 
87.902  25.534  41.904 
90.193  27.467  41.602 
90.542  28.859  41.423 
91.907  29.731  41.606 
92.245  29.668  42.390 
92.910  30.616  42.073 
93.211  31.547  42.201 
93.483  32.224  42.028 
94.196  32.325  41.464 
93.928  31.711  42.696 
94.412  33.166  40.714 
95.139  33.699  40.619 
94.710  33.513  39.860 
96.624  34.201  42.522 
98.188  35.452  42.993 
97.769  36.612  42.146 
97.261  36.145  41.746 
98.579  37.292  42.728 
97.541  37.369  41.579 
100.140  37.482  44.752 
98.937  37.861  41.810 
99.715  40.600  41.051 
99.804  41.171  41.642 
100.389  41.217  41.333 
100.679  41.921  42.949 
100.951  42.352  42.748 
101.041  42.937  43.588 
101.327  42.964  42.906 
101.757  44.561  43.248 
102.558  45.102  43.276 
102.854  45.867  42.869 
102.587  46.016  43.344 
102.897  46.644  43.135 
103.587  47.047  43.800 
104.267  48.624  43.812 
104.534  48.309  44.566 
104.116  49.334  44.471 
104.819  50.360  43.512 
104.559  50.278  44.393 
105.384  52.499  45.534 
105.683  51.640  45.580 
106.579  58.051  44.422 
104.955  59.534  41.328 
105.665  55.522  44.345 
104.794  69.140  42.251 
106.553  60.621  44.423 
106.474  53.955  46.785 
105.875  54.699  44.594 
105.510  67.961  42.680 
105.169  62.990  41.331 
104.049  58.002  39.011 
104.902  58.108  39.805 
106.569  68.117  46.178 
102.223  63.553  34.457 
103.447  64.541  38.297 
106.338  69.832  46.648 
103.993  64.752  38.539 
101.719  61.949  33.662 
103.985  67.297  39.476 
104.045  65.776  38.811 
105.780  76.887  50.616 
101.972  67.338  35.909 
101.607  76.301  40.018 
105.318  70.110  44.237 
105.652  74.087  48.718 
104.793  67.114  41.357 
101.321  72.138  37.844 
101.084  76.264  37.878 
103.945  74.294  42.028 
105.904  72.474  45.867 
100.259  81.351  40.984 
102.474  74.750  40.450 
104.018  79.259  47.007 
103.403  76.518  42.793 
100.697  80.304  40.579 
100.943  73.228  37.193 
103.595  77.035  44.179 
102.121  81.341  44.340 
101.976  80.739  43.989 
98.720  87.212  46.335 
105.370  76.867  48.623 
96.787  85.316  39.833 
94.134  94.087  48.155 
96.178  91.118  47.239 
100.731  81.537  41.697 
98.154  86.095  41.081 
97.066  87.641  41.666 
91.759  92.998  43.029 
91.718  96.310  48.593 
96.600  90.225  46.409 
95.978  93.214  50.719 
93.308  90.928  42.614 
94.097  95.559  50.124 
88.592  98.438  47.721 
91.700  90.429  38.565 
93.549  90.719  41.972 
93.497  92.050  43.823 
94.622  93.432  48.698 
99.824  84.457  43.861 
90.456  92.395  40.010 
98.631  86.181  43.929 
91.068  91.683  40.523 
91.043  92.315  41.323 
88.910  96.051  43.382 
88.738  94.846  41.148 
86.410  97.167  42.827 
87.814  96.178  41.548 
86.798  97.294  43.342 
86.347  97.790  43.359 
83.473  99.060  43.377 
84.527  98.050  41.717 
84.005  98.775  42.630 
83.398  99.240  42.891 
80.956  100.684  42.562 
77.914  103.344  44.595 
76.630  104.995  46.326 
81.605  103.864  50.544 
73.348  104.242  43.685 
77.130  105.538  48.007 
78.840  101.908  43.363 
90.689  98.523  60.312 
75.639  103.722  42.435 
80.171  101.665  43.982 
82.212  100.799  44.670 
79.495  101.983  43.901 
78.475  104.567  48.062 
74.819  103.521  40.209 
71.808  102.901  37.643 
70.187  104.654  39.581 
72.413  103.414  40.343 
67.972  105.360  41.862 
69.051  105.165  42.710 
72.950  104.264  42.332 
64.516  105.305  42.555 
65.192  105.225  43.161 
63.529  105.810  43.191 
64.256  106.373  45.247 
63.555  106.152  43.605 
62.874  105.588  42.684 
64.476  106.560  44.808 
60.739  106.500  44.213 
60.783  106.206  44.962 
62.285  105.312  43.451 
60.411  105.778  42.879 
57.618  107.037  46.195 
58.639  106.814  45.103 
56.981  106.654  44.912 
57.679  105.296  42.733 
54.793  108.389  50.132 
59.642  105.324  43.878 
55.062  105.562  43.443 
58.491  107.413  46.788 
51.173  106.177  47.531 
55.605  105.220  43.952 
53.003  105.533  44.036 
51.005  105.590  44.677 
56.083  106.673  45.322 
50.569  105.444  44.480 
49.150  105.035  45.515 
45.066  105.456  51.130 
45.997  103.996  44.993 
46.750  104.383  44.126 
42.364  103.333  48.300 
44.156  104.087  49.061 
44.844  103.339  45.321 
42.273  103.195  46.594 
41.832  103.810  48.621 
42.785  103.280  46.067 
43.280  101.759  40.858 
42.134  101.029  39.614 
35.005  100.170  43.792 
40.301  102.582  46.233 
41.213  101.458  45.120 
37.549  101.394  46.589 
34.640  100.500  45.638 
39.940  100.767  43.921 
33.741  98.748  42.420 
25.843  94.681  45.828 
27.632  96.573  47.522 
25.957  91.493  39.008 
35.535  99.881  42.764 
27.116  97.164  49.704 
26.092  93.687  42.747 
31.133  98.458  44.364 
29.392  96.076  43.841 
30.781  99.237  46.577 
27.104  92.115  38.397 
25.563  95.553  49.050 
24.349  93.411  45.711 
24.842  95.227  48.650 
28.069  92.659  39.688 
25.333  93.674  47.187 
21.331  88.000  46.079 
21.704  93.336  54.035 
24.726  91.837  41.693 
21.217  89.971  49.899 
20.306  88.285  50.167 
21.146  85.838  41.783 
20.341  86.890  46.122 
22.406  90.237  46.008 
19.678  85.814  46.197 
18.908  84.964  47.050 
18.482  83.121  46.596 
19.844  85.679  47.122 
19.572  85.729  45.689 
18.458  82.866  45.033 
17.986  83.566  47.064 
17.178  81.670  47.954 
16.672  82.419  48.713 
16.511  81.049  47.705 
16.807  80.107  47.618 
16.374  78.532  45.672 
16.270  79.095  46.592 
17.057  78.821  46.444 
15.811  77.839  47.179 
15.618  76.588  45.938 
15.992  77.222  45.967 
15.132  76.602  47.643 
16.322  77.139  44.324 
14.757  71.152  42.667 
13.902  73.473  50.048 
15.325  74.432  46.635 
16.775  78.679  44.935 
14.948  73.034  45.951 
15.927  75.903  43.955 
13.964  71.129  47.364 
13.522  70.950  47.308 
13.543  67.795  46.468 
13.312  67.425  46.116 
12.973  66.894  46.753 
13.279  67.762  46.907 
13.458  66.088  46.739 
12.678  65.235  46.466 
12.501  64.315  46.079 
12.884  63.785  46.665 
12.577  63.428  47.228 
12.732  62.441  46.993 
12.120  61.200  46.861 
12.599  58.782  45.064 
11.667  61.292  49.418 
12.418  60.568  47.455 
11.884  60.995  47.696 
11.250  52.017  50.799 
12.835  55.096  44.119 
12.445  59.703  44.640 
12.188  56.081  44.453 
12.370  53.611  45.965 
11.431  58.818  46.336 
12.650  50.502  48.498 
15.143  53.028  40.678 
15.694  49.186  41.067 
12.552  51.441  46.982 
13.409  47.827  48.027 
12.892  53.008  44.863 
13.793  48.267  46.705 
15.679  50.560  40.798 
15.634  46.590  42.770 
16.200  45.790  42.910 
16.612  44.507  42.377 
15.933  44.940  43.439 
16.487  44.244  43.249 
16.658  42.763  43.403 
16.607  42.142  43.915 
17.049  42.188  44.096 
17.514  41.390  43.817 
17.741  40.884  43.109 
18.235  40.190  43.410 
19.719  38.374  44.339 
19.810  37.945  43.198 
19.204  37.885  44.415 
19.305  36.247  46.987 
21.029  36.529  43.599 
21.422  35.470  44.720 
18.851  36.447  47.667 
21.400  35.420  43.667 
21.690  34.956  44.042 
22.089  35.309  42.562 
22.312  34.127  42.656 
21.761  35.780  42.213 
22.375  31.748  45.140 
27.708  26.524  41.782 
21.322  33.459  46.127 
20.949  36.222  45.069 
26.227  29.719  41.731 
18.439  33.157  52.320 
25.079  25.340  51.207 
27.981  29.183  38.942 
31.005  25.255  41.643 
25.297  31.775  39.790 
29.880  27.915  38.393 
31.010  26.529  39.649 
29.940  26.428  39.847 
31.322  23.152  43.946 
29.448  24.615  43.311 
32.588  22.628  45.206 
33.197  22.490  45.037 
33.390  22.206  43.762 
33.739  22.439  44.536 
34.208  21.631  44.413 
35.312  20.775  43.785 
36.098  20.995  43.465 
36.272  20.467  43.642 
36.993  20.029  43.881 
38.234  20.957  40.432 
39.152  20.845  40.742 
37.197  20.951  41.826 
37.633  21.521  40.245 
39.628  20.818  40.277 
40.579  19.834  41.253 
41.594  19.949  41.073 
41.734  18.456  42.593 
41.906  19.363  40.114 
45.736  17.753  41.169 
43.367  19.161  40.540 
45.843  17.303  41.934 
47.978  17.108  40.070 
47.950  16.121  41.677 
48.603  17.001  40.209 
49.391  15.501  42.541 
48.329  17.147  41.124 
52.167  14.667  43.074 
51.893  15.049  42.475 
51.444  15.840  41.095 
52.736  14.704  43.104 
52.236  15.214  41.213 
62.409  13.020  43.883 
54.457  13.047  44.912 
55.654  13.828  42.783 
57.500  11.271  48.858 
53.088  12.496  49.080 
55.411  13.440  44.360 
59.821  15.707  36.698 
58.200  14.074  41.290 
62.775  12.222  44.899 
56.020  13.150  43.816 
57.513  13.356  42.116 
64.274  14.619  39.237 
63.655  14.550  41.106 
66.694  15.255  39.371 
69.504  13.897  44.670 
65.374  14.732  40.077 
66.462  15.174  39.922 
68.668  15.128  40.072 
67.382  15.184  40.445 
70.603  15.069  40.681 
70.436  15.254  40.245 
69.773  16.282  39.400 
70.746  16.539  39.693 
72.056  16.523  39.153 
73.052  16.686  40.599 
74.029  16.925  41.070 
74.064  15.783  41.296 
73.634  17.555  39.411 
77.289  17.615  40.375 
75.971  16.802  41.667 
74.784  15.445  43.009 
76.818  18.931  37.410 
78.643  20.757  37.617 
78.768  18.450  40.568 
79.280  18.790  43.375 
79.450  19.604  42.310 
79.447  19.902  38.919 
80.284  21.217  39.678 
81.985  21.168  42.717 
81.388  20.946  39.773 
81.561  21.537  41.085 
82.701  21.701  39.770 
82.448  22.070  41.353 
82.990  22.373  39.676 
83.659  22.157  42.791 
84.428  22.832  41.846 
84.849  23.878  38.516 
86.428  23.875  43.439 
86.563  24.048  42.229 
84.554  23.692  38.087 
87.889  26.788  39.344 
86.921  25.207  40.920 
89.988  26.705  42.659 
89.492  27.498  40.828 
89.861  28.783  39.400 
91.115  28.490  41.684 
91.886  29.919  41.146 
92.223  30.556  41.244 
92.629  31.170  41.214 
92.849  31.616  41.805 
93.479  31.882  41.311 
94.333  32.666  41.988 
93.720  32.672  41.164 
94.606  33.735  40.459 
97.188  34.886  41.932 
97.770  35.644  41.782 
97.958  35.787  42.607 
97.348  36.219  40.959 
98.395  36.783  41.868 
99.370  37.283  43.406 
97.963  36.615  41.571 
99.129  38.461  42.320 
98.405  37.379  41.855 
98.956  40.430  40.606 
99.758  41.527  40.923 
100.555  41.436  42.247 
100.509  41.977  42.009 
100.136  42.864  42.153 
100.750  43.186  42.420 
101.198  43.706  42.344 
101.393  44.837  42.050 
101.915  45.017  42.854 
102.532  45.580  43.095 
102.107  46.493  42.865 
102.794  47.099  43.027 
103.183  47.254  42.409 
104.176  47.678  43.764 
103.753  47.856  43.203 
103.942  48.509  43.150 
104.743  49.749  44.121 
104.973  50.767  43.712 
105.060  52.398  44.201 
104.788  50.785  45.447 
105.362  57.673  41.967 
106.518  53.192  48.038 
105.966  55.388  43.977 
106.611  56.330  45.412 
106.415  55.035  46.266 
106.211  62.230  44.502 
106.412  56.308  44.354 
105.678  61.678  41.183 
106.431  64.756  45.259 
102.877  68.198  37.811 
105.808  61.899  42.409 
105.330  64.685  42.938 
105.831  59.920  42.302 
104.236  62.739  38.549 
