13.249  73.489  70.631 
13.791  74.235  71.743 
15.354  70.244  81.573 
13.372  69.626  78.547 
11.738  67.543  71.099 
11.600  66.717  72.841 
11.789  71.223  68.162 
11.739  60.835  72.725 
11.427  62.795  72.634 
11.176  59.061  71.852 
10.724  63.704  68.042 
10.187  61.161  66.397 
12.249  59.887  74.285 
10.876  62.932  69.061 
13.154  54.092  77.483 
11.411  57.828  72.406 
11.722  63.750  74.949 
13.032  50.675  71.437 
12.097  52.245  70.943 
12.822  51.951  74.458 
12.519  51.352  71.341 
13.177  49.580  71.291 
16.702  52.984  84.759 
12.267  50.455  69.767 
11.811  50.619  68.690 
12.928  49.588  69.291 
12.110  49.989  69.021 
12.981  52.042  73.531 
13.315  50.981  76.817 
13.370  51.050  76.169 
12.536  47.583  67.759 
13.215  47.690  70.979 
14.160  42.847  68.313 
12.351  46.756  66.738 
14.712  42.367  67.416 
13.550  44.895  67.325 
13.940  45.319  69.612 
14.478  43.527  71.254 
15.580  37.179  63.593 
15.633  37.235  65.695 
15.244  38.792  63.273 
14.562  47.133  76.727 
15.434  42.135  72.132 
17.935  32.397  61.804 
15.478  36.882  62.785 
19.926  29.059  63.575 
20.133  29.583  55.962 
20.637  29.608  67.274 
17.278  33.495  61.155 
19.465  31.537  67.713 
16.188  40.584  71.771 
24.345  27.129  71.796 
18.335  34.294  68.682 
16.064  41.794  72.895 
20.048  33.117  73.938 
19.132  33.604  71.527 
18.041  32.687  66.513 
20.783  30.303  71.995 
23.255  26.643  65.243 
26.494  24.648  68.981 
25.147  26.218  71.309 
26.305  26.193  72.649 
27.196  23.446  66.829 
26.536  24.028  67.396 
28.117  22.791  66.620 
27.790  23.952  67.290 
30.528  21.850  68.153 
27.207  24.053  69.106 
30.513  20.989  68.408 
31.065  20.931  67.254 
30.588  20.680  67.177 
31.633  20.335  66.604 
31.773  20.056  67.498 
33.251  18.633  67.982 
33.342  19.121  67.773 
34.145  18.915  67.628 
34.576  18.425  67.282 
35.675  17.633  67.981 
36.023  17.632  68.797 
36.882  17.424  67.013 
36.700  16.862  66.726 
37.357  16.287  66.158 
39.447  15.769  68.112 
38.366  16.226  68.336 
38.804  17.208  70.502 
39.307  16.276  67.160 
40.701  14.862  65.459 
41.718  15.296  70.931 
47.909  15.258  80.008 
40.745  15.192  67.909 
46.267  12.487  63.409 
42.915  14.039  68.812 
46.362  12.943  71.115 
44.944  13.314  65.232 
46.441  12.398  65.650 
44.393  14.859  74.887 
40.383  15.886  69.455 
45.297  12.788  70.899 
54.014  11.282  71.576 
50.503  11.305  68.380 
53.221  10.377  67.092 
49.315  11.549  69.037 
59.714  10.199  57.693 
45.305  13.543  66.189 
51.019  10.658  66.329 
61.695  11.448  71.745 
57.376  10.658  65.549 
57.548  10.252  63.901 
61.852  11.361  68.833 
62.707  11.043  67.027 
62.244  11.865  68.559 
61.088  11.505  69.934 
65.320  11.516  68.049 
58.918  11.154  67.815 
65.682  11.652  68.834 
66.220  10.967  65.274 
65.632  10.954  67.517 
64.265  11.729  67.394 
66.064  11.184  66.199 
69.408  11.634  66.695 
69.136  12.288  69.420 
73.944  13.626  73.487 
69.832  12.024  68.823 
69.927  12.035  66.381 
71.697  13.569  72.873 
68.268  11.577  64.454 
69.565  12.476  67.117 
74.973  12.522  67.866 
69.476  11.006  64.139 
71.901  12.984  69.975 
75.059  12.132  61.658 
80.176  14.333  67.677 
83.640  16.903  62.850 
82.396  15.983  67.035 
73.140  13.510  71.823 
72.669  13.257  74.645 
78.260  14.330  71.657 
83.022  16.168  68.792 
76.670  13.178  69.001 
82.256  16.268  63.713 
80.279  14.507  69.504 
81.950  15.647  63.820 
88.505  19.767  68.122 
79.080  14.778  59.065 
74.685  13.487  71.190 
79.919  15.510  73.170 
83.562  16.946  60.888 
80.189  16.048  74.235 
89.672  23.216  74.617 
89.756  20.609  68.303 
85.374  17.793  65.517 
88.988  20.307  71.488 
92.966  23.388  64.565 
86.964  18.494  68.149 
89.338  20.310  66.980 
90.944  21.463  65.215 
86.226  19.227  72.239 
91.291  23.036  62.273 
84.638  18.867  74.747 
93.273  23.640  71.054 
87.156  20.043  64.484 
93.642  23.530  66.766 
94.707  23.932  61.892 
92.835  23.140  63.332 
94.385  24.511  69.073 
98.168  29.320  69.840 
102.166  35.002  68.600 
95.008  24.592  64.831 
100.059  30.456  52.830 
103.075  37.590  66.669 
99.852  31.025  64.760 
99.025  30.535  67.316 
97.701  26.946  61.864 
103.045  35.190  66.048 
101.392  34.705  71.139 
103.278  34.978  65.096 
101.985  34.220  68.265 
103.871  36.463  66.190 
101.270  32.274  62.456 
100.851  38.824  78.340 
106.306  48.438  74.102 
100.575  40.575  79.458 
100.147  40.904  81.256 
103.998  42.144  73.461 
106.814  45.843  67.763 
106.344  44.419  66.138 
104.626  39.443  65.374 
105.292  41.851  66.850 
103.000  38.103  70.969 
104.712  40.903  64.591 
103.734  38.880  69.270 
106.846  45.924  65.830 
107.222  47.867  73.036 
105.799  43.290  62.524 
105.656  42.441  65.793 
107.459  48.633  72.437 
106.689  46.401  68.054 
108.015  51.127  71.158 
108.803  54.529  69.181 
108.345  51.813  66.661 
108.677  53.812  67.595 
105.925  44.744  69.044 
107.076  47.574  70.479 
109.095  59.742  69.389 
108.501  62.265  70.563 
108.200  69.582  65.620 
109.451  56.222  64.401 
109.113  55.086  67.047 
108.123  63.048  63.072 
109.377  54.977  61.812 
107.095  71.157  69.573 
108.979  62.371  67.630 
108.488  68.201  67.639 
109.405  60.732  64.629 
108.374  65.140  65.931 
107.408  62.899  75.419 
107.639  67.561  74.074 
106.615  68.525  73.345 
109.270  63.398  67.577 
106.317  75.969  69.372 
107.861  68.567  63.178 
106.059  76.243  66.272 
107.657  69.224  63.176 
107.671  72.579  68.409 
108.811  65.781  68.652 
108.783  65.748  69.600 
107.480  70.768  67.139 
107.189  70.858  72.419 
105.362  76.815  70.360 
107.547  72.005  66.992 
103.894  81.322  66.987 
106.064  75.747  70.795 
104.668  77.342  71.339 
104.063  78.566  72.000 
104.451  80.239  66.880 
104.211  78.936  69.786 
100.297  86.031  68.570 
103.764  80.083  69.988 
102.324  82.580  69.822 
101.416  84.335  68.947 
102.339  83.347  67.565 
100.926  85.457  68.178 
102.035  86.351  62.909 
99.738  85.283  70.801 
101.539  85.210  65.369 
97.192  88.237  70.959 
100.882  85.540  67.439 
96.872  89.695  69.048 
103.727  83.459  61.593 
98.947  86.784  70.398 
96.455  88.883  70.071 
97.351  88.744  70.136 
97.746  87.987  70.342 
96.998  89.056  69.782 
95.316  89.537  71.827 
96.379  89.597  70.360 
94.454  92.431  69.478 
95.685  91.602  67.525 
92.967  94.590  68.303 
93.350  95.666  64.624 
92.620  94.680  70.194 
93.221  94.191  69.805 
92.466  94.499  69.448 
90.773  96.735  70.493 
91.761  96.500  68.058 
89.364  99.990  65.568 
93.953  95.952  63.691 
91.617  95.495  69.821 
91.421  97.339  68.061 
88.107  99.780  68.701 
88.605  98.986  71.119 
82.347  102.314  72.082 
83.408  101.235  75.148 
83.982  101.404  73.023 
85.412  102.002  69.800 
83.163  100.305  76.783 
85.997  101.776  68.013 
85.916  99.633  74.469 
84.436  102.118  68.690 
86.098  99.420  75.240 
81.780  103.608  67.308 
83.123  102.746  68.787 
80.576  103.792  69.707 
78.853  103.993  69.777 
78.753  103.254  70.338 
78.449  104.074  70.115 
78.331  104.602  68.784 
77.445  104.723  69.000 
76.352  105.007  68.054 
75.347  105.250  68.764 
74.331  106.013  67.901 
73.599  105.578  69.268 
71.865  106.579  66.784 
72.467  107.375  63.065 
71.518  107.356  64.987 
71.918  107.797  62.571 
73.776  106.563  62.915 
60.679  108.608  66.487 
68.301  108.487  64.670 
60.684  108.205  70.553 
70.681  105.914  75.165 
61.725  109.617  63.842 
63.852  106.793  75.547 
66.566  108.626  60.898 
66.745  108.778  62.468 
63.560  108.720  68.447 
66.677  109.056  65.435 
60.741  109.321  59.947 
61.950  107.872  72.368 
57.926  106.060  77.240 
56.806  109.134  63.782 
58.059  109.255  66.267 
55.787  108.327  65.482 
57.679  108.935  63.893 
61.420  108.151  70.703 
66.121  107.639  72.098 
53.687  107.570  74.068 
49.316  107.913  69.428 
47.292  106.050  72.178 
60.107  108.525  69.900 
55.496  107.727  69.115 
49.686  108.262  60.753 
44.797  106.299  68.613 
46.032  107.260  66.709 
47.316  107.355  64.738 
50.268  108.047  60.071 
48.900  106.618  72.770 
43.517  105.692  72.215 
53.370  106.632  75.076 
45.143  106.758  65.087 
44.925  105.707  71.381 
45.704  105.320  74.851 
38.846  103.534  68.055 
39.350  102.581  74.145 
50.272  105.540  77.450 
45.881  105.616  74.293 
41.053  104.748  67.535 
41.819  104.560  73.161 
47.948  104.345  78.307 
30.199  94.919  78.833 
37.248  101.258  74.730 
39.726  103.666  71.355 
38.639  102.690  67.856 
35.342  101.724  69.670 
37.049  102.326  70.896 
46.115  106.115  72.107 
39.887  104.017  71.906 
34.562  100.761  72.808 
33.566  100.493  71.240 
34.027  100.259  72.416 
36.042  101.351  72.598 
36.708  101.808  71.410 
33.137  100.059  71.861 
33.622  99.822  73.348 
27.277  95.274  73.667 
29.735  98.437  71.184 
32.668  98.588  73.405 
26.812  96.286  71.044 
26.025  96.277  69.249 
30.010  98.581  70.798 
26.147  95.223  70.147 
22.441  93.674  58.774 
21.441  91.120  66.114 
18.663  87.278  70.433 
22.989  90.395  76.278 
17.370  84.275  72.581 
25.031  94.801  71.563 
17.693  82.105  76.226 
17.919  83.815  72.087 
17.957  82.614  76.545 
16.848  84.486  70.012 
21.437  84.184  80.986 
24.812  94.216  71.465 
17.400  81.411  75.451 
16.379  82.358  71.084 
18.151  83.599  77.152 
19.748  87.118  75.096 
20.832  90.274  67.649 
17.878  85.351  70.991 
16.070  83.328  66.466 
17.358  82.877  73.058 
16.684  82.913  68.135 
15.338  78.859  71.454 
15.525  79.674  71.581 
15.548  79.887  70.588 
14.962  79.063  69.152 
13.888  76.208  70.241 
14.232  77.347  69.667 
13.450  75.369  69.972 
14.540  76.166  69.830 
12.625  72.647  72.234 
14.105  76.487  68.076 
13.175  70.814  75.496 
11.316  70.352  70.124 
12.175  71.789  72.015 
10.864  65.760  69.647 
13.354  74.175  71.013 
10.413  61.228  64.804 
10.496  60.293  66.027 
11.902  70.589  71.897 
10.998  64.531  71.140 
11.533  68.517  73.201 
10.861  63.326  68.765 
11.836  57.707  70.432 
11.198  63.100  70.515 
12.486  65.715  75.376 
10.461  60.166  64.089 
11.195  55.955  70.425 
10.405  58.014  66.225 
12.710  52.273  72.724 
12.363  53.669  73.394 
12.940  52.317  75.880 
12.499  55.631  74.026 
12.805  54.349  76.007 
10.762  56.387  68.297 
13.156  52.583  74.761 
13.712  55.734  79.866 
12.741  56.155  76.010 
12.463  50.137  71.062 
12.359  51.637  69.460 
12.483  48.991  69.135 
13.168  47.778  70.167 
12.792  48.154  69.686 
13.183  49.623  73.350 
13.631  46.583  69.740 
14.044  43.777  68.410 
13.957  44.731  68.822 
15.469  45.679  76.363 
13.820  44.577  68.200 
14.133  44.398  67.795 
14.947  41.157  68.366 
17.782  32.952  67.737 
14.246  43.022  63.686 
16.413  40.884  74.353 
16.884  34.058  63.785 
16.142  35.807  65.672 
18.162  35.190  71.983 
16.419  40.985  70.927 
20.496  30.684  71.288 
20.641  29.846  66.536 
15.169  42.250  71.695 
16.632  33.801  61.807 
27.250  23.518  61.656 
21.422  29.611  71.243 
22.372  28.244  71.252 
18.466  36.893  76.777 
25.007  26.813  74.887 
18.788  32.734  69.075 
20.190  30.360  55.071 
24.027  27.110  70.493 
21.104  29.305  70.426 
20.445  29.167  63.848 
23.239  27.878  72.589 
16.610  36.112  67.414 
23.425  27.465  71.851 
25.008  26.490  69.655 
26.902  24.111  66.835 
25.899  24.695  67.221 
25.676  24.562  63.880 
27.309  24.617  68.423 
28.887  22.329  68.493 
29.726  21.718  66.869 
30.491  21.082  67.947 
30.488  21.644  66.872 
31.526  20.267  65.714 
30.608  20.810  66.269 
32.038  19.685  67.183 
32.943  19.178  67.408 
34.033  19.146  66.715 
33.615  18.710  66.113 
33.864  18.618  67.365 
34.257  18.150  66.816 
34.961  17.909  67.304 
36.388  17.265  68.028 
35.954  17.361  67.227 
38.076  15.869  66.104 
40.022  15.974  68.748 
39.384  16.459  68.507 
40.560  15.258  66.196 
41.019  15.195  70.524 
41.668  14.011  65.384 
42.328  14.784  69.094 
43.840  14.458  72.615 
40.185  15.445  68.532 
42.662  14.816  70.342 
43.270  14.285  68.475 
41.400  15.095  66.657 
43.652  13.556  64.161 
55.130  13.330  76.064 
46.212  12.166  69.792 
48.904  12.047  69.443 
46.635  13.092  72.023 
43.175  14.413  71.524 
51.110  11.377  69.472 
46.536  12.629  66.397 
55.390  10.075  62.870 
50.064  11.290  67.582 
55.586  10.728  71.025 
59.166  10.479  63.057 
58.068  11.259  66.833 
57.629  10.995  69.641 
59.341  11.355  67.729 
57.787  10.927  59.584 
61.192  11.704  71.586 
61.364  11.055  67.281 
63.432  11.388  68.854 
60.110  11.333  67.495 
62.731  11.239  69.018 
63.694  10.739  66.293 
63.283  11.201  68.087 
67.215  11.264  67.524 
69.974  11.657  65.899 
65.469  11.036  66.958 
68.612  11.916  65.693 
70.331  12.164  67.081 
65.760  11.317  65.241 
72.565  12.552  70.192 
67.185  10.747  63.809 
79.399  13.884  66.377 
71.738  11.703  65.235 
72.311  11.853  63.732 
73.078  11.803  62.239 
71.439  12.099  65.117 
75.151  11.523  60.190 
74.967  14.234  74.642 
78.106  13.485  63.524 
76.078  12.556  66.012 
73.226  11.728  65.278 
71.851  12.285  66.371 
80.250  14.192  65.282 
79.484  15.277  71.095 
84.654  16.951  67.981 
76.822  12.953  65.892 
79.617  14.293  67.101 
81.268  15.423  62.686 
85.227  18.200  63.127 
84.162  17.778  62.873 
83.664  17.159  59.963 
82.606  17.240  60.449 
83.437  17.179  61.546 
83.013  16.259  70.376 
87.866  19.550  65.606 
81.699  15.554  66.124 
90.731  21.460  69.152 
88.133  20.295  64.166 
88.597  20.320  63.622 
85.558  19.065  62.553 
90.105  22.392  73.865 
90.156  20.747  66.958 
90.271  21.909  70.503 
90.404  21.564  64.010 
95.061  23.981  64.063 
93.652  23.956  62.720 
91.403  22.773  66.452 
93.689  23.833  64.455 
96.413  26.692  67.616 
97.949  28.657  69.360 
101.079  36.527  75.216 
94.834  25.512  66.018 
96.696  25.660  66.078 
100.836  34.204  70.072 
97.841  27.565  65.096 
99.923  30.144  66.232 
96.290  24.888  63.461 
99.103  30.340  64.713 
102.998  34.346  57.743 
102.712  34.628  61.983 
96.407  25.686  64.360 
102.266  34.093  62.227 
101.052  39.666  78.094 
102.547  36.132  69.589 
101.392  33.669  66.461 
105.128  40.831  67.742 
103.113  35.235  64.236 
103.430  35.802  66.351 
102.965  38.780  71.590 
99.516  32.715  71.694 
101.180  33.230  68.297 
104.811  39.948  67.968 
98.803  29.831  69.387 
104.516  39.987  61.884 
103.325  39.435  72.009 
105.388  44.419  71.047 
105.191  42.582  68.751 
106.994  45.376  65.079 
103.758  41.864  74.674 
106.157  44.444  67.215 
107.346  49.096  71.618 
106.182  45.507  66.117 
105.591  44.105  65.287 
107.752  52.589  70.955 
107.265  49.252  70.054 
104.555  42.048  72.750 
107.634  49.322  68.942 
107.993  52.792  71.504 
106.690  46.164  71.985 
106.926  50.862  73.345 
109.028  57.564  68.079 
106.726  46.628  69.125 
108.647  58.419  70.966 
108.554  51.235  67.181 
107.724  48.523  67.071 
108.651  54.407  69.670 
108.407  51.752  69.284 
110.201  56.998  63.160 
108.417  63.750  65.932 
108.935  60.192  66.229 
108.477  66.178  65.803 
107.163  69.435  74.939 
108.394  66.613  71.042 
106.520  73.867  66.581 
107.276  64.704  74.361 
106.755  76.641  66.230 
108.512  67.131  69.234 
107.828  66.161  73.724 
108.939  62.943  66.128 
106.599  72.149  64.324 
108.068  68.372  64.457 
107.471  71.961  71.533 
105.041  72.813  76.789 
105.610  78.859  67.190 
107.903  69.938  64.192 
108.231  70.126  67.441 
108.240  66.805  72.033 
107.996  70.578  65.550 
105.785  76.120  68.759 
106.556  75.583  70.131 
103.490  80.281  70.770 
106.702  75.917  63.957 
103.661  80.456  69.283 
104.753  78.792  68.843 
102.551  81.326  68.953 
104.375  79.473  67.341 
103.932  81.004  67.792 
101.989  83.180  70.745 
103.355  83.521  63.149 
104.077  80.363  66.164 
102.022  86.843  59.507 
100.276  86.013  67.498 
102.804  86.478  61.520 
98.480  87.070  71.059 
102.632  82.136  67.939 
100.417  85.398  68.726 
99.430  86.459  71.247 
103.312  85.073  62.941 
96.408  90.342  69.746 
97.516  89.446  68.600 
95.052  91.740  70.088 
96.465  89.394  71.320 
95.750  89.665  71.615 
101.105  84.313  67.808 
94.592  92.088  70.852 
94.887  92.381  69.278 
92.170  96.464  67.381 
91.914  96.917  67.443 
93.869  93.813  70.119 
92.386  95.567  68.488 
90.305  96.682  69.148 
90.622  96.843  69.942 
93.557  94.093  67.399 
92.824  96.466  65.640 
85.432  100.902  72.588 
90.375  96.433  70.300 
91.049  97.078  67.647 
87.500  101.364  65.592 
88.045  98.657  71.858 
85.592  100.431  71.656 
86.367  100.072  72.946 
83.461  100.242  77.780 
80.292  101.394  77.035 
82.213  102.321  73.021 
86.519  101.833  65.233 
87.190  99.362  71.722 
80.340  104.207  68.053 
84.127  102.991  63.214 
83.027  102.477  67.960 
79.673  104.447  68.552 
79.240  104.209  69.168 
80.358  103.843  68.473 
79.558  103.502  70.617 
79.102  104.510  68.372 
78.077  104.148  68.420 
77.599  104.257  68.124 
76.977  104.969  68.327 
75.833  104.982  67.911 
73.662  106.072  67.883 
73.136  106.049  67.878 
73.205  106.349  66.097 
73.206  106.681  65.695 
73.322  105.972  66.476 
70.507  106.686  67.929 
71.154  107.834  61.818 
71.988  107.277  63.328 
65.851  109.367  61.053 
63.874  108.225  68.113 
66.800  107.836  67.862 
63.278  108.428  70.008 
63.973  109.633  65.071 
66.023  109.162  66.216 
69.144  108.383  65.507 
64.082  108.981  67.912 
64.662  104.397  79.791 
67.685  107.675  68.789 
60.244  109.714  65.186 
63.917  104.563  79.619 
59.131  109.583  63.272 
61.211  109.353  62.547 
62.008  107.899  69.966 
59.452  109.452  64.504 
58.586  109.092  64.438 
52.662  109.050  65.958 
48.194  107.722  67.019 
62.669  108.209  69.302 
59.236  108.579  70.878 
49.573  108.273  64.696 
56.461  109.416  63.006 
49.987  108.172  62.969 
51.225  108.610  67.146 
52.984  109.166  62.134 
44.083  106.309  67.428 
50.634  108.182  61.500 
47.957  107.594  60.740 
45.389  106.385  67.362 
52.817  108.453  67.320 
51.537  106.932  73.641 
52.972  108.679  63.256 
46.943  106.906  68.946 
43.489  105.501  67.202 
36.651  102.637  66.956 
37.966  103.795  66.845 
41.863  104.922  72.729 
35.486  102.119  67.880 
39.074  103.439  71.853 
44.636  105.672  72.848 
42.875  105.307  70.767 
42.082  104.636  67.023 
41.191  104.627  71.333 
33.648  98.180  77.245 
35.286  102.446  65.472 
40.652  103.000  75.355 
39.544  101.610  76.647 
35.243  101.123  69.287 
37.819  103.019  70.404 
39.190  103.519  69.604 
34.714  99.797  75.055 
33.728  100.621  72.241 
35.054  101.715  70.436 
36.132  101.413  70.881 
31.345  99.164  71.379 
31.061  98.252  71.627 
26.815  96.509  68.203 
25.850  96.475  67.948 
26.870  96.922  69.197 
28.076  96.429  71.390 
24.785  93.541  72.940 
22.679  92.382  66.094 
22.757  93.111  60.140 
24.154  92.957  70.350 
21.617  91.388  66.704 
25.806  90.645  80.259 
25.747  94.985  71.196 
20.062  89.148  69.762 
22.754  91.604  71.573 
28.422  96.853  70.745 
16.663  84.133  66.306 
17.021  86.236  64.499 
22.109  88.083  78.547 
17.490  85.789  69.001 
16.934  81.402  74.796 
19.457  88.570  58.201 
21.402  91.168  69.496 
21.774  87.286  78.426 
18.171  84.708  74.331 
16.478  83.387  62.958 
16.376  83.321  65.432 
16.106  84.946  66.002 
15.744  81.104  70.387 
16.147  82.308  70.239 
15.763  80.433  71.206 
16.211  80.510  71.426 
14.571  77.572  71.147 
14.411  77.217  71.753 
14.737  78.582  67.874 
13.193  72.072  74.092 
13.935  76.464  69.072 
12.053  71.965  66.777 
14.309  74.862  72.454 
11.347  69.364  69.020 
12.684  71.943  72.526 
11.915  72.137  67.870 
12.839  72.875  71.135 
11.292  66.521  72.139 
11.469  68.697  70.943 
10.992  66.728  70.210 
12.106  71.542  67.150 
10.275  62.624  64.679 
13.018  67.538  77.759 
10.176  61.578  65.647 
12.099  64.576  74.848 
11.974  66.932  71.886 
11.632  60.321  73.547 
12.225  55.143  71.123 
14.283  47.104  74.225 
11.122  60.242  67.498 
11.816  64.700  73.309 
12.261  63.558  74.122 
12.285  64.807  76.139 
10.762  56.555  69.358 
12.138  53.657  71.178 
11.600  54.731  71.828 
11.567  64.097  70.468 
11.586  53.713  69.308 
11.227  52.706  68.569 
11.913  52.448  69.165 
12.765  51.974  69.824 
12.108  50.719  69.365 
12.446  49.681  69.410 
12.159  49.459  68.202 
12.791  49.078  69.928 
12.092  48.551  68.314 
12.507  48.282  68.834 
12.615  45.858  64.654 
13.450  49.788  74.196 
12.966  45.310  65.037 
15.117  40.217  66.454 
13.741  44.166  65.388 
13.817  45.834  70.325 
15.243  39.672  65.109 
14.305  40.683  61.938 
14.098  43.587  69.333 
16.033  35.714  62.502 
16.847  34.256  64.754 
15.525  36.192  61.213 
15.610  38.497  68.178 
14.643  42.047  65.916 
18.120  37.037  74.264 
19.168  30.108  60.242 
21.896  27.422  64.814 
23.509  27.168  69.659 
21.158  30.647  73.042 
19.360  32.525  70.294 
17.660  33.527  66.030 
23.018  27.650  71.803 
16.648  40.215  76.594 
18.396  32.479  68.182 
17.115  38.316  72.758 
23.962  26.707  64.664 
24.920  24.754  62.578 
24.576  25.285  64.464 
18.348  31.482  60.555 
26.079  25.042  69.739 
20.415  30.542  69.504 
26.204  25.204  66.161 
27.475  23.860  68.410 
26.442  24.465  62.672 
21.382  29.337  69.195 
28.359  22.087  66.100 
29.863  21.533  67.699 
29.408  22.230  67.778 
30.162  21.442  66.141 
30.189  21.020  67.210 
31.824  19.884  66.547 
32.636  19.125  66.887 
32.352  20.025  66.177 
33.204  19.543  66.558 
33.703  18.328  66.452 
34.202  17.987  66.016 
35.216  17.638  66.065 
35.484  17.965  66.769 
36.135  17.481  66.574 
37.512  16.939  65.823 
38.197  16.329  65.999 
37.761  16.119  65.353 
37.919  16.471  67.210 
41.539  15.163  69.267 
37.723  16.457  62.693 
43.936  14.086  69.170 
44.208  13.188  65.007 
45.112  13.957  73.759 
42.130  14.732  72.492 
41.464  14.577  68.260 
43.507  13.577  68.383 
45.979  12.623  62.556 
44.479  15.653  79.138 
45.190  13.049  70.179 
45.994  12.749  67.211 
53.938  10.339  65.140 
46.205  14.251  76.680 
50.964  13.548  78.866 
40.906  15.773  71.531 
48.510  11.966  69.852 
54.183  10.434  63.776 
54.889  10.325  63.300 
58.094  10.735  65.119 
50.505  10.999  65.527 
55.017  11.140  71.597 
59.460  11.292  64.541 
56.858  10.101  63.344 
56.725  10.218  61.781 
56.453  10.847  69.197 
60.036  10.781  64.124 
58.406  11.207  67.776 
62.362  10.991  67.881 
62.706  11.444  66.282 
66.430  11.291  68.378 
65.849  10.898  66.554 
64.469  11.042  67.006 
67.023  11.628  65.395 
65.143  11.088  64.429 
65.636  11.455  67.121 
64.744  11.537  66.531 
70.343  12.585  71.187 
67.927  11.186  64.917 
69.262  11.363  64.413 
68.239  12.376  66.807 
70.407  11.296  63.379 
71.999  11.896  68.665 
75.401  12.996  58.248 
70.404  12.316  65.506 
71.683  11.197  60.230 
79.172  14.503  64.464 
70.793  11.055  61.633 
76.935  14.367  72.932 
71.671  11.348  62.780 
74.245  11.880  65.240 
80.918  15.052  64.968 
79.345  13.505  67.057 
77.121  13.097  68.854 
81.556  15.751  61.535 
79.812  13.813  64.771 
83.618  16.222  67.071 
82.866  16.882  62.755 
86.388  18.822  63.011 
90.104  21.294  60.885 
86.008  18.503  64.513 
84.965  17.379  66.766 
84.313  17.633  61.025 
86.764  19.883  74.161 
77.937  16.106  75.185 
80.648  15.658  73.256 
86.186  18.460  70.127 
89.146  20.594  60.710 
90.199  21.640  62.073 
88.356  20.193  71.897 
89.381  21.004  63.657 
88.804  20.906  64.539 
95.364  25.446  67.312 
93.934  23.465  66.005 
90.858  22.898  73.791 
95.364  24.272  61.520 
94.387  25.289  67.069 
94.489  23.957  65.184 
96.596  25.101  63.890 
98.601  32.419  73.775 
98.831  28.031  65.169 
96.778  27.513  69.051 
100.265  31.628  65.718 
101.448  32.190  57.283 
99.192  33.340  73.568 
98.133  27.950  67.162 
98.118  27.305  61.140 
100.590  34.142  70.693 
103.783  38.684  61.964 
104.924  38.490  64.285 
103.435  40.725  74.729 
105.151  42.248  70.232 
102.503  33.756  59.619 
102.631  34.466  65.609 
102.192  38.042  72.740 
103.433  37.574  67.463 
104.320  38.023  65.726 
101.573  34.589  65.086 
102.581  36.379  67.818 
102.446  36.749  67.552 
105.498  42.144  68.239 
102.404  36.807  71.989 
101.999  37.429  71.874 
106.973  46.250  70.169 
103.608  38.036  67.937 
104.739  39.853  66.642 
104.819  47.725  76.588 
104.391  38.501  67.490 
105.663  41.715  63.885 
104.667  43.160  74.683 
108.097  53.517  69.908 
105.532  41.476  67.866 
108.053  51.030  69.484 
104.279  42.165  72.212 
107.745  49.784  66.210 
105.258  47.853  75.988 
107.605  51.326  70.208 
109.019  57.047  68.229 
106.203  45.499  68.703 
109.494  58.916  65.164 
107.438  47.275  66.163 
108.057  49.473  65.802 
109.395  55.290  64.687 
108.684  51.253  65.404 
109.549  56.378  65.650 
108.152  57.094  70.234 
109.182  56.767  67.098 
109.011  60.754  67.827 
108.195  70.289  66.939 
109.626  56.443  60.825 
109.681  54.760  65.505 
107.204  70.814  71.069 
108.453  66.400  68.911 
108.877  59.409  71.353 
108.766  64.552  66.027 
109.081  61.134  64.641 
108.251  68.067  69.684 
108.033  68.198  72.664 
108.462  67.173  70.467 
105.725  78.764  64.975 
107.793  64.829  72.968 
107.977  64.515  73.807 
105.777  77.740  65.905 
106.188  77.225  65.780 
108.086  70.830  66.507 
104.175  82.493  60.514 
107.956  63.797  73.793 
107.891  72.707  67.096 
103.983  80.068  68.342 
106.364  75.731  65.331 
103.655  80.586  67.752 
105.761  78.534  60.119 
104.233  77.906  71.399 
105.125  77.047  69.534 
105.369  77.378  69.712 
104.282  78.183  70.212 
103.136  84.668  54.323 
102.113  83.422  69.296 
102.491  86.445  62.092 
100.737  87.297  65.537 
103.555  83.294  64.925 
100.114  86.160  69.238 
102.845  83.815  65.154 
100.304  89.721  60.746 
99.859  86.235  68.225 
99.204  88.021  67.891 
95.885  89.403  70.924 
101.135  84.951  68.633 
97.711  88.870  69.261 
95.801  90.146  70.313 
96.147  89.307  72.234 
95.380  91.013  70.551 
96.433  89.703  69.758 
95.495  91.222  69.715 
94.098  93.936  68.576 
94.325  92.785  68.303 
96.780  90.902  65.920 
93.574  94.141  68.423 
93.430  94.487  69.061 
94.756  92.336  67.143 
91.672  96.140  68.786 
91.232  95.954  68.354 
92.778  95.094  68.579 
89.797  99.279  67.116 
85.381  101.220  70.992 
86.064  102.279  62.866 
86.806  101.414  67.765 
86.991  101.548  65.446 
88.138  99.498  70.434 
89.342  100.091  62.125 
90.014  98.397  67.745 
82.705  102.249  72.744 
83.870  102.477  68.145 
86.266  101.897  64.439 
85.275  100.065  74.672 
84.776  100.579  73.856 
81.690  103.440  68.602 
82.228  103.111  67.010 
81.089  103.752  68.098 
82.003  103.724  67.797 
78.821  104.661  69.018 
78.980  104.258  67.866 
78.328  104.592  68.233 
78.640  104.427  67.135 
76.932  105.299  67.497 
76.469  105.267  67.100 
75.505  105.580  67.174 
74.752  105.436  67.417 
71.360  106.686  66.891 
69.990  108.047  63.737 
73.234  106.893  64.125 
73.870  106.787  63.664 
64.919  109.474  61.158 
72.361  106.910  62.979 
68.345  108.690  65.308 
67.780  106.147  75.901 
64.824  107.491  72.947 
68.943  108.171  59.444 
67.329  107.688  71.083 
69.297  108.580  63.354 
70.925  107.233  66.106 
65.995  109.387  61.834 
66.185  108.579  67.916 
64.287  105.460  77.500 
65.274  108.098  69.674 
58.058  108.743  61.525 
66.485  107.856  70.052 
61.808  108.997  61.566 
63.767  109.820  62.770 
59.576  107.795  72.793 
63.680  108.425  70.866 
61.967  108.281  70.854 
58.588  109.024  66.697 
55.529  108.546  67.465 
51.340  106.923  72.912 
46.842  107.049  65.218 
52.264  108.344  65.223 
55.164  107.809  72.300 
52.609  108.092  54.979 
48.468  107.452  63.853 
46.419  106.624  69.829 
48.602  107.859  62.487 
45.584  106.904  68.860 
45.600  106.044  62.905 
48.205  107.469  64.356 
56.214  108.663  64.839 
47.952  107.604  63.157 
47.837  107.288  68.529 
46.467  106.256  73.402 
42.699  105.357  66.983 
44.882  105.770  72.429 
46.081  106.844  62.632 
53.133  106.340  76.784 
38.542  103.955  65.239 
46.748  104.699  77.152 
43.210  105.298  68.696 
35.873  101.903  72.120 
43.656  105.583  71.287 
34.880  98.923  78.291 
36.205  102.491  65.690 
38.276  103.140  68.498 
43.111  105.004  73.352 
40.250  104.037  70.859 
38.974  102.760  71.147 
36.540  101.282  73.362 
37.261  101.345  73.498 
34.955  100.185  74.200 
32.766  100.208  70.621 
35.534  100.443  74.061 
30.139  98.260  71.672 
33.064  99.268  73.340 
33.713  99.194  74.535 
30.927  98.866  71.590 
32.387  99.537  72.634 
29.349  97.912  71.656 
24.599  92.549  74.151 
25.757  95.019  71.843 
20.208  89.269  64.109 
24.052  93.644  69.574 
17.989  87.841  63.046 
24.619  94.310  67.904 
19.670  88.090  71.721 
23.046  90.956  70.896 
21.533  91.513  68.386 
18.258  85.691  73.415 
19.896  85.689  76.575 
19.229  87.756  72.100 
17.610  84.603  68.661 
17.038  85.729  66.271 
22.277  87.312  80.224 
16.672  84.517  67.981 
16.249  84.500  67.070 
18.780  89.055  63.065 
17.800  86.348  71.173 
18.550  87.395  68.435 
15.936  83.566  67.368 
16.779  82.564  71.768 
17.471  83.856  73.506 
16.741  83.318  71.289 
16.239  80.108  70.421 
15.817  79.760  71.087 
14.938  78.721  70.018 
14.597  77.744  70.397 
15.272  79.434  69.824 
14.269  77.462  67.581 
13.259  73.488  72.984 
12.980  74.441  68.234 
13.718  76.047  69.791 
13.658  75.070  69.595 
12.966  75.215  65.182 
13.091  73.628  67.663 
11.019  67.331  64.623 
11.354  69.796  69.414 
12.788  72.474  70.670 
10.425  66.677  65.314 
12.552  65.363  76.660 
11.350  70.540  65.808 
11.045  65.460  71.178 
11.432  67.928  58.769 
11.756  64.889  73.811 
11.429  59.044  69.936 
12.477  54.998  77.098 
12.537  54.118  74.209 
10.744  57.526  66.758 
12.073  55.801  71.845 
11.958  62.601  72.227 
12.079  53.778  74.189 
12.151  60.941  74.039 
12.412  52.135  71.926 
12.356  55.304  74.819 
12.170  54.809  72.701 
12.252  52.976  70.758 
12.180  58.580  73.683 
11.493  52.939  69.866 
11.185  54.285  68.788 
11.983  52.916  68.959 
11.900  51.990  68.837 
11.883  51.137  68.637 
12.163  50.293  67.894 
12.705  48.554  67.841 
11.964  48.666  67.041 
12.621  47.510  66.971 
11.966  48.475  67.519 
13.156  47.214  68.917 
12.586  46.083  65.159 
12.959  46.589  66.675 
12.917  45.726  65.972 
14.016  43.225  61.597 
13.532  43.676  63.818 
14.531  43.659  67.459 
14.402  42.417  68.756 
15.009  38.993  63.710 
15.710  40.134  69.572 
16.579  35.221  65.258 
16.176  42.135  73.323 
18.569  39.604  79.409 
20.002  30.244  66.947 
22.136  28.274  66.969 
17.741  33.917  55.310 
21.141  27.851  64.379 
19.382  31.664  68.198 
18.355  30.900  58.840 
24.236  26.871  73.496 
24.983  26.064  66.810 
17.971  34.258  69.537 
21.812  28.582  70.568 
22.826  28.637  73.725 
18.474  32.577  67.180 
22.332  26.649  63.957 
22.527  26.406  62.546 
28.129  22.142  62.032 
22.021  27.327  65.969 
24.028  26.255  67.984 
25.577  25.676  67.634 
26.433  24.721  64.464 
25.219  25.022  65.025 
25.562  24.743  66.502 
26.136  24.522  67.714 
28.217  23.331  69.314 
28.574  22.957  67.232 
28.710  22.391  65.876 
28.615  22.319  66.742 
31.052  20.229  66.648 
31.236  20.201  65.226 
32.027  20.150  64.633 
32.098  19.537  65.302 
33.125  18.855  65.990 
33.698  18.509  65.647 
34.369  18.350  65.227 
34.507  18.327  65.874 
35.651  17.395  65.970 
36.251  17.204  65.856 
36.329  17.271  65.204 
36.486  16.373  63.955 
37.576  15.942  63.063 
39.231  15.547  66.582 
39.181  16.291  67.782 
39.500  15.880  64.231 
41.141  14.876  59.348 
41.834  13.720  64.473 
40.918  15.049  68.781 
44.413  13.118  62.565 
45.609  12.776  65.819 
39.846  15.597  67.869 
45.055  14.376  77.286 
44.349  13.493  65.857 
49.645  11.401  66.291 
39.661  15.440  66.095 
46.217  13.072  74.078 
51.758  10.675  62.701 
48.624  12.151  66.043 
48.670  11.647  64.569 
54.795  10.519  62.284 
50.834  11.137  62.551 
57.672  11.497  66.968 
53.882  10.814  64.035 
57.105  10.745  66.281 
51.118  11.247  63.073 
58.032  10.334  62.526 
57.363  11.051  64.532 
60.154  10.052  58.590 
60.993  11.052  66.314 
61.807  11.716  68.310 
61.434  10.442  65.432 
63.100  10.927  65.696 
62.772  10.516  64.833 
61.665  10.882  64.742 
64.052  10.945  66.760 
64.839  10.969  67.565 
64.280  11.107  65.999 
63.842  10.964  65.088 
67.507  11.335  65.970 
67.126  11.167  62.504 
66.247  11.350  64.439 
67.129  11.430  64.361 
68.795  11.613  67.030 
73.139  11.563  60.033 
71.620  11.436  61.886 
69.594  11.494  62.247 
70.015  11.583  63.974 
69.863  11.328  63.023 
72.701  11.583  62.979 
73.509  12.037  67.921 
76.823  13.187  57.701 
71.509  12.969  72.450 
79.439  15.633  74.758 
83.698  16.636  67.920 
77.160  12.933  62.726 
83.813  17.115  62.416 
76.556  14.742  74.540 
76.702  12.762  65.179 
73.830  11.427  60.164 
86.171  18.581  67.071 
80.138  15.384  62.207 
89.204  21.177  60.944 
84.241  17.831  63.568 
79.816  15.093  71.540 
86.772  19.632  62.322 
85.704  18.821  64.229 
89.064  19.950  69.434 
84.749  18.174  61.323 
89.795  21.312  62.757 
87.853  18.952  67.871 
89.160  20.557  69.682 
90.095  21.077  63.404 
87.916  20.306  60.611 
87.365  19.407  64.922 
88.946  20.022  66.943 
93.353  24.260  69.780 
93.521  23.667  67.810 
92.034  22.360  64.197 
91.319  22.256  69.299 
95.712  26.545  70.476 
95.835  26.074  69.715 
102.323  33.834  67.185 
96.853  27.107  65.855 
96.550  28.530  72.350 
98.325  29.036  68.729 
98.518  29.584  67.627 
100.331  30.609  62.569 
101.427  33.510  60.280 
103.160  35.626  66.888 
98.791  29.684  67.195 
99.687  29.410  62.165 
103.308  36.013  63.101 
101.312  33.117  66.650 
100.547  31.976  63.797 
99.553  29.554  62.921 
102.546  34.221  59.083 
103.185  35.731  63.531 
100.194  31.860  64.721 
102.936  35.287  62.377 
101.138  37.669  76.835 
102.393  38.174  73.865 
104.504  38.975  66.913 
101.726  40.273  76.849 
98.886  29.370  63.697 
103.262  37.060  63.086 
99.760  30.747  66.346 
103.970  37.080  61.377 
106.103  45.450  71.991 
104.585  40.378  68.015 
102.346  37.274  69.844 
105.818  44.724  64.787 
105.880  44.581  66.365 
105.869  49.426  75.270 
104.840  42.243  71.094 
106.904  46.741  70.579 
106.225  44.860  68.341 
105.949  43.476  66.735 
107.423  47.077  64.585 
106.105  43.540  67.730 
107.363  48.099  68.426 
108.615  51.858  67.523 
108.376  53.202  70.749 
107.026  48.329  70.987 
106.824  47.311  66.536 
107.852  48.680  66.238 
107.742  48.954  64.765 
109.197  54.223  67.299 
107.511  49.126  66.992 
108.375  50.238  67.084 
110.016  57.162  61.304 
108.675  60.826  61.059 
109.703  55.488  63.248 
108.346  66.283  66.275 
108.178  55.820  72.642 
108.339  64.361  64.176 
108.943  63.415  66.905 
108.717  62.338  63.492 
109.805  56.707  61.423 
107.884  71.633  66.949 
108.649  65.169  71.532 
108.927  60.049  63.454 
107.763  68.267  63.553 
108.661  67.361  67.493 
107.413  73.627  68.520 
105.663  71.430  75.709 
106.788  74.566  62.357 
107.272  71.322  64.478 
107.395  72.534  65.001 
105.643  75.077  72.746 
107.443  72.234  65.463 
105.157  79.718  64.216 
107.142  73.517  64.552 
107.387  71.874  70.083 
104.951  77.098  70.635 
105.079  79.911  65.828 
106.340  74.844  72.556 
103.977  82.723  62.092 
101.585  84.941  67.182 
105.428  77.616  68.264 
104.721  80.590  60.852 
102.936  82.792  67.437 
101.010  85.340  66.312 
102.046  84.323  67.601 
101.434  84.316  69.753 
100.817  86.208  66.770 
101.116  84.165  70.392 
98.735  91.649  60.682 
101.864  82.717  69.016 
100.763  89.030  61.161 
100.514  85.701  69.821 
99.558  86.393  69.864 
101.394  85.951  65.902 
100.068  90.019  57.899 
96.698  90.407  68.400 
95.002  92.206  68.091 
93.329  95.017  65.993 
99.017  87.312  69.684 
101.141  85.899  64.834 
98.087  88.138  70.068 
99.773  89.589  55.189 
94.960  95.117  63.833 
94.518  93.283  69.055 
90.973  96.750  68.688 
88.356  100.824  61.828 
88.924  99.193  69.425 
92.243  96.511  66.537 
92.049  98.315  62.306 
91.607  97.716  62.892 
83.460  101.872  70.101 
87.545  101.220  63.444 
89.143  99.882  67.091 
83.040  101.858  74.012 
87.115  101.636  66.310 
80.949  103.045  71.057 
84.881  102.626  62.610 
85.291  102.054  65.063 
85.276  102.199  65.622 
82.557  103.112  68.204 
84.486  102.336  66.141 
89.931  98.495  68.672 
80.183  102.864  70.903 
83.475  102.727  66.284 
80.063  104.311  67.612 
79.872  103.990  68.503 
80.448  104.243  67.017 
78.863  104.845  67.110 
78.135  105.056  66.988 
77.438  105.180  66.976 
76.962  105.014  66.584 
75.716  105.714  66.247 
74.183  106.100  66.261 
72.245  106.331  67.942 
72.961  106.407  66.789 
72.879  107.444  59.890 
72.381  106.880  65.030 
69.655  107.645  65.296 
75.241  106.441  52.943 
69.865  108.730  62.537 
63.249  109.283  64.561 
61.318  107.414  74.295 
70.893  106.414  71.436 
70.994  107.602  63.772 
67.646  108.747  63.498 
68.468  108.527  61.827 
70.344  107.799  60.147 
60.827  107.609  71.906 
54.846  109.301  63.400 
61.556  107.432  72.980 
62.983  109.343  61.411 
68.391  108.886  63.292 
67.391  109.265  62.640 
61.615  109.514  65.687 
52.736  108.828  61.832 
60.261  109.246  63.954 
62.830  109.461  65.448 
58.693  109.584  58.948 
57.034  108.278  69.877 
58.993  108.419  69.521 
53.567  108.946  63.267 
46.976  107.249  61.607 
55.130  108.847  65.681 
42.647  105.362  67.948 
51.697  108.321  58.530 
44.299  106.231  68.246 
47.247  107.550  63.804 
44.865  106.396  65.672 
45.519  106.536  64.377 
56.390  109.026  54.815 
47.703  106.686  72.710 
46.197  105.971  71.192 
48.970  108.165  66.258 
46.859  105.232  76.524 
47.534  106.978  67.810 
47.166  105.790  71.310 
36.229  102.801  63.138 
41.742  104.891  66.237 
44.006  106.230  65.478 
41.713  104.118  72.429 
36.673  102.802  68.558 
42.311  104.719  71.335 
38.211  103.187  67.638 
44.411  105.025  75.191 
37.190  102.459  71.612 
39.141  102.284  74.826 
36.298  102.185  71.524 
41.702  105.153  71.414 
30.847  98.933  69.661 
36.913  102.570  70.328 
35.217  100.707  73.424 
34.180  101.203  70.283 
31.681  100.111  69.164 
33.070  99.511  71.277 
31.262  98.939  72.289 
31.661  99.832  69.921 
35.246  100.749  71.674 
28.576  97.287  71.692 
26.320  97.024  67.153 
27.808  98.036  65.954 
24.955  95.588  66.422 
24.230  93.735  68.947 
25.778  95.834  68.269 
23.971  94.354  63.506 
22.819  93.318  61.404 
23.277  93.620  64.060 
20.612  89.147  71.129 
19.047  88.265  70.604 
21.184  88.621  72.547 
17.436  85.862  69.658 
17.316  85.711  67.069 
19.562  87.781  73.310 
18.312  84.543  73.385 
22.381  89.278  75.728 
19.503  87.052  72.048 
17.686  87.414  63.496 
16.370  84.341  62.973 
20.913  85.009  81.138 
19.296  88.899  63.979 
20.019  85.167  77.355 
16.126  82.995  68.839 
17.519  83.059  71.883 
16.529  84.332  68.796 
16.483  82.048  69.939 
15.651  80.148  69.855 
15.671  80.103  68.399 
15.306  79.172  68.465 
16.081  84.372  66.158 
15.360  79.022  70.860 
14.516  76.115  71.854 
14.513  78.168  69.421 
14.091  76.450  71.329 
13.411  75.126  69.095 
13.517  74.720  71.138 
10.991  67.251  70.822 
12.206  69.331  71.993 
12.340  73.018  69.720 
12.541  73.292  65.651 
11.202  67.067  69.413 
10.737  63.794  70.336 
11.093  62.227  69.034 
11.524  63.983  72.752 
11.224  68.019  62.856 
11.401  57.342  71.529 
11.323  63.852  73.197 
9.926  65.509  63.693 
11.898  58.122  71.922 
12.601  53.500  75.700 
10.896  65.552  68.726 
12.220  55.758  75.159 
10.370  57.139  66.305 
10.719  56.745  67.350 
11.166  55.539  67.701 
12.215  53.988  75.135 
11.391  54.979  70.671 
10.461  58.218  66.951 
11.356  53.506  69.854 
12.330  55.446  72.756 
12.284  53.330  70.139 
11.231  53.436  68.892 
11.512  52.055  68.513 
11.419  51.549  67.892 
11.654  51.406  67.479 
11.758  50.551  67.622 
11.949  49.145  67.747 
12.411  49.329  66.792 
12.337  48.184  66.529 
11.990  47.394  66.383 
13.442  47.766  71.933 
13.128  46.269  68.157 
12.881  46.931  68.279 
12.605  46.616  65.124 
14.311  42.608  67.311 
14.019  44.798  69.669 
13.390  43.709  61.895 
15.969  38.616  65.651 
14.588  41.822  64.051 
14.760  41.132  63.217 
17.192  33.763  62.938 
15.287  38.772  65.388 
19.287  33.166  69.783 
20.647  28.172  64.238 
17.772  33.120  65.836 
21.634  29.229  72.300 
21.213  28.389  64.967 
19.996  30.621  66.595 
22.797  27.349  68.210 
24.832  26.285  72.987 
24.389  26.465  68.856 
24.460  26.237  66.964 
19.005  30.331  59.600 
19.751  29.924  59.566 
24.994  24.257  59.963 
20.693  28.701  64.113 
18.453  31.616  59.317 
20.679  28.505  64.922 
24.279  25.618  58.597 
19.340  30.147  61.570 
20.009  30.149  67.606 
24.312  26.042  67.380 
20.700  28.522  63.250 
20.000  29.880  66.135 
25.351  25.830  72.279 
26.378  24.207  65.047 
27.721  22.741  67.223 
29.528  22.095  66.591 
30.309  21.453  64.864 
30.354  20.842  63.726 
30.585  20.331  65.408 
31.471  19.813  64.567 
30.791  20.213  64.236 
32.454  19.178  65.403 
33.151  18.685  65.265 
33.405  18.376  64.835 
34.630  17.975  64.257 
35.016  18.119  65.075 
34.968  17.744  65.456 
36.254  16.818  65.069 
35.565  17.004  64.593 
36.952  16.197  64.854 
40.163  16.183  68.071 
39.302  15.690  67.153 
38.412  15.922  66.936 
43.258  13.682  61.600 
39.157  16.055  65.853 
42.827  13.984  67.425 
42.278  13.844  65.154 
43.455  13.474  63.606 
40.709  14.403  62.832 
45.139  12.664  61.391 
42.440  14.645  68.566 
41.937  13.942  67.445 
49.525  11.110  69.969 
45.100  12.751  62.340 
47.887  12.667  62.665 
45.231  13.045  67.011 
48.071  12.010  62.753 
53.742  10.661  65.886 
56.203  10.256  63.630 
53.522  10.304  61.087 
48.159  12.308  68.955 
60.542  11.829  71.129 
59.158  10.239  62.086 
61.706  9.629  56.370 
47.854  12.481  64.610 
53.391  11.610  69.605 
61.051  11.490  67.517 
62.084  11.757  70.017 
60.608  10.831  65.343 
62.637  11.249  68.509 
61.951  10.345  64.585 
62.827  10.781  66.501 
63.507  11.400  65.557 
63.190  10.731  64.786 
63.457  11.449  67.073 
70.950  11.729  64.622 
63.829  10.554  65.414 
68.386  11.379  65.771 
67.388  11.296  66.758 
64.666  10.523  64.606 
66.621  11.522  65.723 
68.995  10.927  62.801 
68.014  10.945  63.335 
67.947  11.035  63.818 
69.345  10.654  60.472 
69.595  11.672  65.212 
68.319  11.413  59.649 
74.558  11.814  62.372 
79.440  13.895  61.381 
68.731  11.465  63.724 
73.394  11.897  63.792 
76.488  12.633  66.674 
77.989  13.489  59.453 
85.743  18.003  63.789 
81.565  15.266  63.772 
74.458  13.631  73.453 
81.290  15.317  62.156 
84.202  17.572  64.058 
82.024  16.653  60.624 
80.694  15.424  59.501 
80.551  15.353  63.813 
80.042  14.126  66.088 
87.260  19.275  67.155 
87.861  19.811  64.750 
85.750  19.066  65.126 
86.782  19.090  71.146 
86.140  18.452  65.494 
87.830  19.712  67.568 
88.299  20.743  61.721 
87.789  20.241  60.081 
88.610  20.553  58.762 
87.958  20.136  62.235 
89.599  23.109  76.645 
88.956  20.191  68.272 
88.020  19.836  64.050 
91.645  22.802  67.345 
92.464  26.023  77.009 
87.021  18.905  65.487 
99.418  28.791  61.277 
93.241  24.184  72.366 
100.993  31.453  63.164 
96.007  25.955  59.083 
103.890  37.362  63.575 
98.480  29.880  68.435 
99.137  28.543  62.082 
96.725  26.628  57.956 
101.007  30.468  58.049 
99.747  30.396  63.855 
95.673  24.671  59.854 
100.623  31.168  53.871 
99.440  31.235  68.056 
105.078  40.661  60.684 
100.412  29.941  56.772 
98.933  29.359  59.978 
98.802  31.999  73.102 
100.548  30.464  61.591 
102.431  36.711  70.899 
98.835  28.838  64.686 
102.035  37.601  70.811 
93.195  24.188  70.471 
106.305  44.076  63.771 
102.238  44.462  79.605 
100.660  33.944  71.445 
105.253  41.331  61.139 
105.151  42.152  63.998 
104.815  40.488  65.799 
101.749  34.763  69.951 
103.218  37.013  68.087 
106.318  45.727  71.319 
106.046  44.369  65.349 
104.939  41.107  62.355 
107.199  46.858  68.019 
104.334  40.088  69.572 
105.965  44.234  63.093 
104.641  44.987  75.202 
106.882  47.675  67.481 
107.210  47.478  65.619 
107.344  47.868  72.124 
107.190  50.130  73.353 
107.658  47.978  64.688 
108.820  51.722  65.935 
108.376  52.607  69.734 
109.278  55.092  66.407 
108.010  49.003  65.484 
109.182  59.265  70.451 
109.063  58.770  64.831 
108.747  60.622  70.140 
108.634  52.514  62.411 
107.662  50.206  66.897 
108.914  52.422  66.209 
109.141  59.825  65.074 
108.397  64.417  66.649 
108.212  67.764  65.087 
109.029  58.103  66.134 
107.153  68.734  74.788 
109.509  60.040  64.402 
107.960  62.672  73.377 
107.044  72.012  68.977 
106.919  75.344  66.657 
106.840  75.385  68.195 
107.868  71.849  68.737 
108.600  66.510  67.083 
106.302  71.700  74.697 
105.271  78.528  68.214 
105.380  79.755  62.770 
106.849  75.348  62.922 
106.387  77.062  60.907 
108.166  69.447  66.920 
107.015  74.530  64.350 
107.064  73.026  69.956 
107.142  73.854  65.854 
103.925  79.143  69.138 
103.116  80.976  68.139 
105.715  76.664  61.096 
105.040  80.405  62.393 
104.970  77.746  70.014 
104.415  79.259  68.451 
105.630  77.140  67.395 
104.885  79.864  64.961 
103.852  82.968  63.065 
101.939  84.726  64.710 
106.600  76.514  63.134 
101.194  85.771  67.079 
103.498  80.799  68.652 
100.370  86.865  67.250 
100.680  84.531  68.874 
98.969  91.222  55.266 
97.380  92.985  60.844 
99.953  86.045  69.663 
97.613  89.005  68.379 
102.621  85.773  62.596 
99.707  89.750  63.434 
98.517  88.396  68.419 
99.237  87.737  68.279 
95.159  90.016  70.885 
100.683  88.909  63.018 
95.344  91.042  68.861 
93.786  93.186  68.860 
95.866  92.265  67.083 
92.916  94.755  66.889 
92.396  95.857  67.715 
91.368  98.221  65.699 
92.835  95.222  69.048 
86.877  101.236  66.458 
92.827  94.359  68.943 
92.770  95.140  67.520 
90.139  97.139  69.963 
90.497  97.981  67.259 
88.702  100.070  66.511 
86.093  101.773  66.189 
84.786  101.348  70.422 
87.240  101.664  64.720 
86.240  102.263  63.660 
85.659  101.976  68.789 
86.276  101.806  61.066 
87.578  100.990  66.753 
87.646  100.583  60.799 
82.193  102.762  71.361 
83.408  102.795  64.553 
82.336  102.523  68.591 
82.366  103.278  66.184 
80.631  103.521  67.588 
81.191  103.982  66.786 
79.831  104.864  66.810 
78.730  105.073  66.311 
78.162  104.728  66.269 
77.671  104.728  66.978 
77.094  105.232  65.721 
74.827  105.431  66.364 
74.777  105.839  66.634 
74.598  106.258  65.742 
73.826  106.135  65.366 
73.860  106.189  67.124 
73.749  106.284  64.504 
74.870  106.749  61.655 
71.414  107.205  65.627 
71.823  107.634  60.644 
68.685  108.433  62.769 
66.783  108.677  64.646 
59.226  108.768  65.458 
69.405  108.176  62.275 
69.889  108.113  65.656 
57.271  109.203  63.217 
63.101  109.433  60.843 
68.823  108.684  61.561 
63.399  107.887  69.901 
67.422  108.544  65.467 
67.888  107.458  69.630 
61.389  108.222  69.671 
64.816  109.567  63.581 
64.104  107.705  72.041 
64.498  110.043  64.210 
63.157  109.636  66.082 
46.896  107.191  66.167 
58.138  109.668  60.902 
58.244  108.374  70.578 
61.045  108.436  67.968 
52.370  107.098  75.134 
48.894  106.543  73.442 
56.882  109.448  59.315 
59.194  108.269  70.076 
53.007  108.731  64.080 
46.628  106.309  60.570 
50.105  107.788  58.927 
47.748  107.710  62.242 
51.910  107.361  74.238 
44.103  106.124  64.578 
44.097  106.161  63.017 
47.822  107.536  61.696 
42.952  105.531  69.078 
44.985  105.828  74.269 
40.837  103.895  64.715 
40.135  103.826  65.748 
40.713  104.698  69.309 
50.672  106.207  74.803 
39.695  102.273  75.541 
35.441  102.639  66.228 
41.145  104.847  72.242 
43.472  105.559  69.074 
33.341  101.266  66.962 
39.401  103.913  67.499 
43.389  103.968  74.578 
36.467  102.144  70.940 
32.947  101.089  68.296 
42.221  104.836  68.471 
37.910  101.546  72.659 
37.388  102.920  68.083 
31.913  100.190  66.424 
32.036  99.335  71.965 
31.666  100.200  67.886 
30.254  97.843  71.090 
29.162  98.587  67.235 
31.660  100.538  64.937 
34.746  100.805  71.506 
30.469  98.712  68.772 
31.642  100.640  68.506 
27.633  96.814  70.636 
28.715  98.823  66.428 
22.467  92.268  68.570 
25.322  95.671  67.966 
26.278  96.786  65.462 
22.617  92.411  69.049 
17.975  87.900  65.633 
22.955  93.110  64.681 
18.858  87.501  61.054 
20.409  90.238  66.040 
24.006  92.848  72.367 
29.853  99.021  68.826 
17.831  86.958  65.242 
17.422  84.697  71.149 
19.016  88.968  60.217 
21.495  93.009  59.388 
18.788  87.335  71.433 
16.357  83.287  67.285 
17.691  86.385  67.540 
15.869  83.864  63.577 
15.594  82.377  65.982 
16.771  85.280  66.281 
15.920  85.011  64.452 
15.699  83.618  64.514 
16.104  82.552  67.447 
