71.095  105.817  73.974 
72.910  101.414  80.227 
73.403  105.107  71.141 
70.833  104.576  76.629 
70.919  103.940  77.146 
73.966  103.669  77.117 
73.524  100.152  81.827 
71.892  102.025  80.136 
70.238  101.291  81.620 
71.688  101.578  80.782 
67.228  104.104  78.946 
67.870  106.974  72.573 
67.519  102.180  81.282 
70.296  101.625  80.701 
68.053  102.364  80.233 
70.673  102.476  78.949 
67.015  102.373  80.565 
62.855  102.194  82.658 
58.546  101.067  84.252 
61.100  103.532  81.835 
63.629  103.184  81.814 
55.986  102.246  84.397 
61.063  105.187  79.242 
60.854  104.740  79.962 
59.417  103.197  82.113 
51.995  101.909  83.532 
58.334  103.330  80.884 
58.754  105.183  78.954 
53.269  103.114  81.883 
54.125  104.317  79.496 
55.352  104.886  79.574 
54.787  108.517  69.824 
59.135  106.432  76.174 
56.147  105.093  79.774 
48.385  99.675  87.599 
59.429  107.157  74.665 
49.384  104.366  75.761 
52.984  105.063  79.338 
57.751  103.330  81.537 
58.047  104.881  79.475 
48.057  106.446  68.731 
38.511  98.044  83.751 
46.403  102.330  80.777 
43.105  103.362  74.866 
45.656  99.974  85.269 
42.061  103.327  76.388 
44.155  99.979  84.265 
37.465  98.827  79.880 
36.099  97.271  82.980 
43.627  103.440  75.426 
40.020  102.183  76.199 
37.774  97.357  84.637 
39.660  98.715  82.882 
32.804  93.953  85.025 
31.007  95.236  81.714 
27.948  90.598  84.262 
24.188  92.474  73.038 
29.782  92.336  84.044 
35.437  98.232  80.457 
28.522  88.424  85.725 
37.949  98.551  82.394 
23.553  87.623  82.966 
29.807  88.633  87.577 
21.500  81.983  83.619 
30.054  91.874  84.737 
27.701  87.123  87.639 
31.727  84.416  92.491 
27.635  86.250  87.607 
21.991  89.306  73.884 
25.210  89.100  81.512 
23.036  85.750  82.230 
24.540  85.270  85.909 
14.965  75.238  77.247 
19.329  84.204  78.369 
21.077  88.343  76.101 
20.464  80.477  83.869 
20.573  80.935  82.249 
17.962  75.230  82.837 
16.514  77.155  78.026 
24.005  82.356  85.663 
16.951  81.669  75.775 
20.705  75.171  86.242 
18.594  70.004  86.181 
19.504  73.376  84.679 
20.997  79.996  84.488 
25.025  90.779  79.269 
19.702  76.732  84.205 
17.093  72.552  82.406 
17.701  72.185  83.444 
21.572  82.591  82.511 
16.860  70.797  83.678 
12.560  68.199  74.435 
18.797  73.450  84.519 
15.794  69.909  81.737 
15.625  66.623  83.175 
15.635  70.709  81.068 
20.315  83.400  80.815 
16.798  68.427  84.878 
18.920  67.777  86.778 
15.695  63.568  83.387 
14.823  54.624  81.430 
12.227  59.234  76.253 
16.945  60.878  84.752 
15.631  66.280  83.847 
17.748  63.840  85.173 
12.382  57.670  76.933 
17.686  66.032  86.150 
19.166  52.640  87.071 
15.558  58.990  83.458 
15.987  57.223  83.631 
14.071  50.844  78.316 
14.217  54.414  80.421 
13.363  65.934  78.941 
14.165  50.542  77.192 
16.159  53.097  84.382 
15.841  52.448  83.907 
15.747  55.998  83.259 
16.931  57.793  84.928 
14.064  59.097  80.761 
22.528  44.123  90.381 
16.438  56.526  84.498 
14.898  49.770  79.171 
17.517  56.980  85.288 
18.013  44.014  83.090 
16.620  53.414  84.575 
12.581  59.464  77.122 
16.092  53.363  83.832 
17.396  48.276  82.420 
17.507  47.741  83.392 
22.710  35.013  82.222 
22.694  30.982  78.121 
15.779  47.226  80.211 
18.303  45.329  84.131 
16.253  49.639  81.439 
16.626  40.887  77.244 
22.497  39.746  86.302 
23.620  32.034  80.847 
17.694  42.776  80.264 
17.586  39.016  76.497 
25.220  35.453  86.082 
22.461  37.757  85.348 
22.912  33.996  82.495 
19.368  35.602  75.265 
21.876  39.350  85.648 
17.876  36.023  73.224 
19.581  34.766  77.712 
26.625  28.655  82.015 
26.422  33.391  85.176 
22.937  35.240  83.224 
26.720  27.826  80.545 
24.114  29.337  78.425 
23.009  27.455  70.867 
28.606  25.977  80.439 
23.259  31.036  77.568 
25.910  31.785  83.675 
26.582  26.706  79.705 
27.878  26.429  79.387 
33.663  22.356  78.650 
30.189  23.958  74.557 
27.940  25.804  79.113 
26.404  25.598  75.514 
30.048  24.416  78.527 
32.831  22.384  77.112 
26.128  27.019  79.040 
31.189  23.460  79.148 
32.299  21.888  76.552 
37.706  18.334  75.150 
28.434  24.857  75.258 
31.496  23.835  79.319 
37.321  18.795  76.920 
32.811  22.079  74.893 
34.788  19.863  75.318 
41.994  15.590  74.653 
38.087  18.662  77.040 
34.516  20.650  76.626 
36.388  19.700  75.468 
35.361  20.260  78.899 
38.946  17.272  73.588 
37.570  20.035  78.529 
37.587  18.090  72.998 
44.589  15.983  78.842 
46.867  13.962  76.763 
47.617  15.934  80.112 
40.313  17.246  78.040 
41.177  15.938  71.790 
46.352  14.254  76.226 
40.115  16.805  75.905 
50.435  13.336  78.327 
47.293  15.977  81.350 
48.414  11.599  69.728 
50.934  14.731  80.527 
48.777  14.804  79.504 
54.198  13.037  78.499 
51.363  18.288  87.607 
54.869  11.807  73.667 
53.124  16.732  84.795 
53.044  10.349  69.166 
54.080  10.532  68.498 
60.188  15.076  83.763 
57.972  13.670  81.006 
55.936  11.102  71.231 
59.957  12.696  77.101 
50.988  11.300  69.728 
55.902  13.671  77.871 
59.806  13.089  79.635 
60.967  15.567  84.772 
59.721  11.138  71.657 
64.711  13.989  81.133 
53.904  11.455  74.529 
64.216  12.483  74.363 
70.612  13.952  77.054 
62.000  11.874  75.056 
64.342  12.785  77.252 
66.825  12.765  76.598 
72.593  13.315  73.764 
73.515  13.937  75.626 
63.703  12.711  76.862 
70.562  12.892  75.177 
57.782  12.713  77.686 
80.183  17.517  77.884 
74.798  14.419  75.342 
70.917  12.349  70.801 
70.836  14.436  78.914 
81.231  18.247  79.015 
70.274  14.916  79.549 
78.053  16.007  77.508 
80.523  22.778  87.260 
76.849  14.976  74.204 
85.341  21.197  80.197 
81.431  18.096  78.216 
80.347  16.270  74.088 
81.467  19.424  80.146 
80.531  20.768  84.360 
84.891  22.643  83.320 
80.259  20.249  84.543 
84.297  17.637  71.280 
82.029  20.392  82.958 
84.100  18.747  74.686 
82.819  19.938  81.743 
93.211  26.772  78.901 
88.074  23.090  80.018 
85.312  19.334  75.582 
85.512  20.127  74.769 
92.323  26.515  79.037 
89.554  25.936  82.487 
94.189  30.568  81.948 
91.279  25.710  78.519 
92.724  24.543  72.749 
90.935  22.537  73.528 
96.818  30.629  78.623 
95.864  26.724  70.588 
96.596  29.036  73.143 
95.618  30.626  79.548 
89.697  24.762  78.473 
93.923  26.910  77.621 
93.044  27.530  79.426 
96.076  34.726  83.522 
98.296  30.801  75.135 
95.198  30.625  80.633 
99.392  35.029  79.365 
100.572  40.909  80.471 
97.331  32.670  80.578 
96.850  39.046  86.397 
98.845  40.874  82.908 
95.424  34.080  84.224 
92.991  33.883  85.875 
99.018  39.991  83.287 
95.039  39.675  87.815 
102.593  35.686  72.670 
95.792  33.152  83.337 
101.114  40.851  79.794 
102.101  41.668  79.106 
100.151  41.064  81.271 
101.642  43.894  80.886 
103.282  45.779  77.645 
104.769  45.916  76.475 
102.315  46.360  80.444 
102.867  44.803  79.832 
104.245  48.659  79.274 
103.327  47.604  79.258 
105.503  50.104  76.533 
103.564  49.865  79.664 
108.088  57.898  73.827 
107.330  50.931  71.825 
104.551  54.182  79.479 
103.965  50.881  80.499 
103.934  49.176  78.653 
104.059  53.227  80.480 
105.240  54.972  78.042 
105.404  55.710  78.100 
104.324  55.543  81.235 
104.103  52.752  79.827 
104.533  54.951  80.064 
105.583  62.142  77.376 
104.392  59.430  81.165 
104.915  58.869  79.848 
106.248  60.394  76.317 
104.610  53.062  78.933 
104.611  58.796  80.575 
108.630  56.448  70.332 
102.934  63.481  82.585 
104.400  63.607  81.325 
105.181  60.474  79.329 
105.896  70.317  77.338 
104.999  63.377  79.061 
106.425  69.497  75.840 
107.027  59.597  76.167 
103.001  74.670  78.725 
105.143  73.080  75.555 
100.088  73.488  86.340 
102.939  74.813  78.152 
102.146  74.507  79.200 
104.194  73.737  76.635 
105.092  70.250  78.122 
104.643  75.348  74.945 
102.700  75.473  78.622 
104.326  70.771  80.237 
101.672  76.861  78.832 
100.867  77.292  78.340 
100.461  78.204  78.691 
100.653  77.186  80.417 
99.748  78.654  79.617 
100.282  78.627  78.988 
98.727  80.372  79.560 
98.299  80.771  78.972 
98.748  80.612  78.895 
97.405  81.689  78.856 
97.606  81.799  79.645 
97.812  83.155  79.147 
96.833  84.181  78.914 
95.791  84.491  79.944 
95.716  84.739  80.346 
94.964  84.908  79.783 
95.054  85.680  79.947 
94.234  86.102  80.137 
94.018  87.055  80.480 
93.632  88.229  79.367 
93.252  88.654  79.772 
92.727  88.969  80.536 
92.683  89.676  79.045 
92.453  89.650  79.767 
91.425  90.972  79.329 
91.145  90.373  80.512 
90.500  91.888  79.659 
90.824  91.460  79.111 
89.322  92.915  79.409 
89.329  92.791  78.908 
87.934  94.350  79.435 
87.799  95.026  78.855 
87.152  94.540  79.538 
87.102  95.351  79.619 
85.496  96.364  79.814 
84.003  96.858  79.542 
84.606  95.294  82.153 
84.048  97.093  80.407 
80.908  98.306  82.117 
83.542  96.445  82.977 
82.540  95.234  85.314 
82.716  98.319  79.989 
77.102  102.275  78.139 
80.424  101.448  76.255 
74.552  101.796  78.767 
83.235  100.165  78.055 
76.236  102.288  78.834 
78.654  99.233  80.912 
73.474  102.979  77.833 
74.682  99.811  81.218 
80.792  100.152  79.395 
81.095  99.699  79.184 
72.630  104.907  75.307 
76.852  100.044  81.218 
77.392  103.004  74.133 
70.429  106.541  72.950 
71.563  100.627  82.600 
73.721  102.138  78.525 
71.700  99.708  83.438 
73.684  104.021  76.358 
70.594  107.385  67.368 
70.872  101.506  81.186 
68.902  105.851  74.706 
70.482  103.532  78.566 
75.097  103.045  77.893 
69.647  102.113  81.147 
72.875  102.151  79.831 
66.440  105.983  75.704 
64.749  101.537  83.441 
62.286  103.951  80.785 
60.942  106.771  76.348 
64.227  102.885  81.613 
63.974  101.381  82.868 
65.034  106.000  76.570 
64.007  102.949  81.164 
50.245  102.838  81.867 
59.345  106.217  77.991 
56.806  104.024  82.013 
60.624  108.042  71.556 
61.324  105.405  77.884 
57.883  104.404  80.574 
52.166  105.504  77.459 
57.587  100.879  85.537 
52.378  104.011  80.415 
53.603  103.099  83.096 
52.464  101.534  85.791 
57.035  105.617  79.010 
57.746  107.268  74.848 
55.764  106.586  76.334 
48.545  106.194  72.403 
49.805  97.718  90.151 
53.215  107.656  72.600 
48.618  105.217  74.544 
52.577  107.429  72.257 
43.402  101.155  80.702 
42.980  104.897  72.299 
42.637  99.842  83.653 
42.262  103.858  73.156 
49.789  105.020  75.709 
47.501  102.961  80.320 
41.373  99.658  81.959 
28.347  96.579  72.816 
44.636  102.321  79.381 
38.188  99.181  80.903 
39.558  96.967  86.833 
40.856  102.882  76.305 
27.608  93.079  80.231 
33.013  97.952  79.324 
27.656  87.662  87.057 
33.909  91.409  88.589 
26.676  91.747  81.699 
28.520  91.305  84.163 
29.586  93.307  82.449 
33.687  96.060  82.839 
27.749  86.571  87.983 
31.538  96.951  78.569 
25.810  84.547  86.812 
20.551  79.959  83.503 
26.993  86.339  86.972 
22.007  90.041  74.175 
23.444  87.177  82.554 
33.123  94.732  84.705 
25.547  86.750  85.366 
26.112  84.034  86.828 
21.704  80.050  85.085 
19.457  82.852  80.034 
23.296  84.289  84.864 
20.515  79.396  84.664 
24.261  83.423  86.104 
22.727  84.932  82.956 
21.659  84.454  82.604 
16.950  76.262  80.814 
21.532  84.785  82.040 
16.546  76.338  78.832 
13.946  71.802  76.343 
18.331  71.915  83.688 
18.095  81.678  78.091 
17.170  74.347  80.770 
15.573  63.543  83.866 
17.406  75.914  81.832 
18.148  79.764  79.694 
15.095  73.608  78.941 
14.930  73.857  77.878 
19.310  74.095  84.974 
15.028  68.713  81.365 
16.798  76.592  80.141 
15.533  73.455  79.164 
14.282  66.142  81.067 
15.420  76.532  76.615 
14.513  66.454  81.893 
16.878  61.560  83.985 
17.608  63.313  85.766 
15.027  67.672  82.290 
18.669  71.904  85.279 
13.781  63.417  78.582 
14.203  53.723  80.683 
15.757  57.749  83.399 
15.215  62.416  82.474 
13.225  61.207  77.140 
14.517  61.669  80.970 
14.805  60.989  81.480 
18.025  60.995  86.187 
17.576  55.303  85.669 
17.356  55.668  86.144 
16.162  57.947  83.264 
16.355  51.156  82.001 
15.540  56.772  82.607 
14.436  54.772  81.221 
15.736  47.552  79.753 
15.823  53.152  83.435 
13.354  56.819  79.708 
17.711  39.951  78.654 
12.885  51.043  76.169 
15.916  54.931  83.977 
19.843  44.055  85.655 
13.822  46.043  73.871 
21.722  34.753  81.242 
20.682  42.770  85.925 
17.060  41.330  78.823 
16.550  39.643  75.180 
19.819  45.424  86.090 
14.984  40.874  71.781 
18.204  36.927  75.216 
16.728  41.885  78.216 
16.912  39.462  76.045 
20.952  33.923  80.364 
18.026  41.879  80.987 
16.604  40.065  76.142 
20.579  36.161  82.006 
19.578  37.334  81.051 
22.254  43.281  89.442 
25.281  32.953  83.780 
20.842  33.698  77.951 
29.270  25.739  81.353 
21.876  30.801  73.655 
26.595  32.189  83.532 
24.161  35.997  85.495 
20.195  35.099  77.903 
27.414  30.907  83.332 
29.706  24.507  77.359 
25.751  33.428  84.616 
19.204  35.154  74.670 
28.013  26.992  81.027 
23.916  31.697  81.531 
28.360  26.461  81.135 
23.222  30.028  77.757 
25.000  27.295  77.918 
29.078  26.958  82.658 
28.933  25.374  79.612 
33.860  21.735  79.694 
26.216  28.042  80.369 
30.315  24.208  77.712 
30.451  24.742  79.504 
35.095  21.785  82.735 
25.049  27.341  76.670 
28.958  24.089  75.362 
37.901  17.331  72.137 
25.809  26.384  73.165 
32.460  23.418  77.757 
28.774  27.117  81.830 
30.466  23.145  74.862 
30.792  24.077  77.363 
34.956  20.506  77.317 
33.032  21.408  75.895 
37.942  19.436  77.882 
33.595  21.283  76.847 
27.499  27.294  80.870 
41.029  16.575  77.023 
33.874  20.864  75.205 
36.297  20.874  79.785 
40.484  16.601  75.076 
43.022  17.055  78.709 
45.215  17.146  80.463 
42.253  16.884  77.126 
46.051  14.881  77.743 
42.985  15.730  75.529 
51.670  15.004  82.025 
46.570  16.104  78.943 
43.365  16.031  77.002 
52.739  16.149  83.212 
47.484  14.705  79.272 
42.615  15.497  75.219 
51.767  10.075  66.215 
47.991  13.597  76.931 
51.955  15.809  83.618 
43.323  14.639  73.164 
53.409  12.125  74.648 
55.722  11.300  72.202 
52.039  17.886  86.884 
50.036  12.648  75.734 
55.810  13.903  81.637 
58.962  10.905  72.023 
48.983  11.813  70.391 
56.598  12.963  78.145 
59.661  10.574  69.040 
61.491  12.228  76.222 
63.849  12.538  76.259 
61.769  12.377  74.111 
62.749  13.202  77.123 
61.993  12.021  75.910 
59.654  11.805  73.751 
60.588  12.291  75.406 
66.332  13.215  78.180 
59.237  12.215  74.417 
66.773  12.511  75.502 
65.413  13.078  76.793 
67.506  12.990  76.738 
71.478  13.419  75.922 
71.843  15.196  79.632 
72.372  13.412  73.323 
74.219  14.600  75.940 
76.384  16.236  79.146 
71.945  13.948  75.918 
64.661  13.522  79.960 
75.714  15.320  74.899 
79.150  18.588  81.194 
67.574  12.579  75.681 
73.859  16.450  81.216 
74.441  13.406  68.804 
82.090  18.514  78.428 
83.166  23.420  85.666 
77.974  22.536  88.337 
79.767  19.477  81.962 
83.235  16.240  68.634 
79.071  16.902  76.295 
84.875  18.625  74.138 
86.851  18.468  69.406 
83.585  17.639  72.713 
78.992  15.326  72.837 
83.520  19.660  78.656 
79.048  16.993  77.295 
86.842  21.543  78.415 
87.203  19.479  67.242 
87.175  25.684  84.389 
87.339  21.142  77.863 
86.971  22.507  80.932 
95.021  27.160  75.076 
94.826  28.029  77.113 
95.542  30.232  79.914 
94.053  25.623  73.823 
90.722  23.518  76.114 
91.638  26.371  79.504 
88.935  22.222  76.328 
91.594  23.983  75.563 
90.763  23.129  75.163 
101.395  33.691  69.613 
97.281  26.949  67.202 
98.386  31.468  76.720 
95.801  27.596  75.369 
96.766  29.634  77.136 
99.647  36.572  78.937 
98.591  30.194  70.803 
98.074  36.110  82.762 
100.894  31.477  65.915 
98.955  30.526  70.307 
103.373  42.002  76.527 
99.646  32.561  76.480 
94.660  39.564  88.623 
95.097  27.263  74.176 
98.975  34.654  79.210 
99.249  37.427  82.446 
99.786  38.453  81.833 
97.126  37.812  85.591 
99.548  42.590  82.416 
102.888  37.643  74.347 
101.231  42.407  80.375 
101.897  42.751  79.895 
104.137  44.480  76.154 
103.662  39.349  72.916 
100.988  43.304  80.957 
103.284  44.715  77.415 
102.592  45.774  79.878 
104.531  50.773  77.918 
103.310  46.668  79.771 
105.511  48.116  76.184 
102.888  46.985  79.627 
107.471  56.509  73.352 
104.564  48.298  78.659 
103.578  49.399  80.435 
104.274  54.215  81.465 
105.391  58.293  78.097 
104.990  58.243  79.287 
104.763  49.860  76.640 
106.329  51.481  74.193 
104.219  54.199  80.390 
109.195  63.596  69.374 
104.281  60.869  80.240 
108.195  60.012  73.903 
105.106  57.237  79.168 
102.942  61.890  82.943 
104.278  57.238  81.215 
104.476  60.123  79.974 
107.172  57.376  75.351 
108.851  66.348  70.053 
106.135  62.562  77.765 
104.369  58.850  79.704 
104.535  57.947  79.512 
103.747  72.950  79.472 
107.103  70.625  73.001 
103.468  72.183  79.035 
106.274  59.883  76.503 
107.468  63.751  75.227 
105.356  68.294  80.005 
103.751  72.892  78.238 
105.125  74.055  75.567 
109.191  63.957  68.991 
103.576  72.086  81.550 
102.247  75.792  79.263 
100.859  75.757  81.163 
105.708  75.617  72.282 
105.385  73.362  74.143 
102.161  76.124  78.404 
100.673  77.877  79.291 
100.027  77.573  79.779 
100.390  78.673  78.083 
99.952  79.618  78.235 
99.448  80.100  78.930 
99.364  81.168  78.416 
98.532  81.600  78.760 
98.030  81.608  78.307 
97.734  82.488  78.289 
97.788  83.420  78.488 
97.523  84.088  78.214 
96.422  84.769  79.364 
96.848  83.889  79.686 
95.682  85.272  79.518 
95.150  85.757  79.092 
94.984  86.449  79.485 
94.955  86.736  79.012 
94.459  87.357  79.318 
94.266  87.840  79.326 
93.800  88.602  79.078 
93.202  89.008  78.970 
92.079  90.250  79.433 
91.429  90.391  78.848 
91.725  91.424  78.705 
92.104  91.883  77.926 
91.077  91.854  78.875 
90.303  91.772  78.859 
88.977  94.265  79.092 
88.378  94.327  79.077 
88.155  95.412  78.215 
86.852  95.134  78.787 
87.559  95.707  78.481 
86.857  95.727  78.901 
86.308  95.778  78.987 
85.956  96.586  79.025 
84.775  96.811  80.040 
85.206  97.225  78.432 
81.780  98.529  81.292 
84.807  97.196  79.165 
79.633  102.103  74.666 
78.156  99.082  82.168 
78.505  99.467  81.387 
83.089  98.153  80.334 
77.395  99.828  81.459 
78.307  97.002  84.255 
83.757  93.486  85.766 
78.905  102.917  73.415 
79.936  95.871  85.550 
77.616  100.998  80.239 
71.705  103.737  77.544 
75.553  104.426  73.994 
72.897  103.028  78.412 
72.889  104.740  74.543 
72.742  103.793  76.790 
74.798  104.352  73.930 
71.176  101.079  82.480 
74.845  104.733  71.771 
75.331  100.638  79.701 
68.253  103.804  78.647 
66.417  106.622  74.982 
70.500  102.379  80.160 
69.042  106.377  74.829 
68.855  105.658  76.103 
72.177  105.044  73.298 
69.204  103.469  79.033 
68.471  102.889  79.207 
66.418  102.794  80.053 
58.165  100.903  85.613 
65.692  103.435  80.340 
63.491  102.842  82.197 
66.603  103.564  79.407 
69.562  106.541  73.952 
59.598  107.297  76.045 
58.518  104.086  80.958 
62.290  103.462  81.667 
62.318  106.758  76.228 
59.903  106.880  75.962 
60.340  103.051  81.811 
56.445  103.574  82.764 
52.569  106.579  75.038 
58.831  105.244  79.879 
54.636  102.735  83.783 
59.627  104.899  79.962 
54.053  107.688  70.328 
47.570  104.929  75.520 
58.249  105.344  78.793 
52.549  107.918  68.933 
56.365  105.740  77.768 
49.770  104.332  78.814 
45.244  104.507  73.012 
47.234  103.432  79.573 
45.361  102.232  79.787 
41.184  98.729  84.109 
38.239  100.284  77.662 
43.567  103.001  77.185 
42.640  99.039  84.812 
39.289  101.736  77.581 
31.542  96.949  77.799 
43.209  101.048  81.934 
43.094  102.001  78.787 
35.751  96.940  83.679 
35.076  97.557  81.856 
33.108  93.645  86.065 
30.287  95.360  78.195 
29.018  94.023  79.710 
40.262  98.594  83.845 
36.919  98.439  81.819 
40.728  99.149  82.817 
25.947  91.259  80.042 
32.210  91.240  86.882 
21.633  85.365  80.697 
25.559  91.873  77.937 
22.520  87.622  79.792 
30.068  93.867  82.538 
24.122  90.248  78.475 
26.938  89.664  84.138 
23.029  91.240  72.646 
25.103  88.697  83.540 
25.207  91.492  79.043 
22.483  87.973  79.268 
27.665  88.440  86.087 
27.608  88.927  85.733 
29.574  84.805  90.068 
28.838  85.639  88.794 
22.063  85.368  82.613 
18.922  79.764  81.849 
26.158  83.853  87.322 
19.318  77.975  82.867 
22.855  83.530  83.781 
17.977  79.955  80.105 
20.601  78.120  83.815 
18.807  77.184  83.215 
16.515  75.877  80.493 
20.313  77.292  84.311 
19.240  80.250  81.879 
19.090  78.485  82.321 
19.949  74.368  85.826 
17.633  74.714  82.196 
20.320  79.108  83.908 
23.497  84.557  84.135 
23.056  80.299  86.505 
21.348  75.074  86.438 
16.112  65.636  84.205 
14.222  72.160  77.842 
15.418  74.769  77.950 
14.913  71.237  79.878 
13.656  70.870  76.232 
12.792  67.254  75.892 
13.574  66.609  79.440 
17.376  65.821  85.387 
12.264  70.691  71.148 
12.538  60.588  75.624 
14.847  66.069  82.801 
13.492  62.920  79.264 
16.694  65.098  83.960 
11.779  60.779  74.247 
12.245  57.073  75.297 
15.477  64.742  83.616 
15.195  63.481  83.061 
12.526  63.210  77.381 
12.079  57.624  75.219 
13.562  58.242  80.346 
14.773  55.921  82.390 
14.579  56.817  82.043 
12.861  59.919  76.814 
13.123  58.811  77.233 
14.997  52.396  79.912 
16.421  49.086  81.134 
12.634  53.558  74.175 
15.196  53.428  82.827 
17.666  46.065  83.326 
18.052  43.888  82.192 
18.702  49.642  86.009 
13.533  48.223  74.225 
18.048  45.583  83.215 
13.518  49.383  72.881 
14.638  53.775  81.571 
16.045  44.806  79.375 
14.590  42.994  70.858 
14.883  46.355  77.856 
16.086  45.538  79.692 
15.915  48.442  79.644 
18.791  44.256  83.782 
22.321  35.291  81.549 
19.081  34.339  72.773 
21.601  41.198  86.965 
17.933  36.953  73.672 
16.939  38.306  75.142 
18.467  41.113  81.499 
17.070  45.025  81.508 
15.500  42.838  75.769 
24.101  34.384  84.001 
22.951  32.716  81.335 
19.025  39.093  81.998 
21.931  34.887  82.345 
22.028  39.886  85.619 
24.450  27.620  77.082 
21.723  31.209  76.107 
19.033  33.854  72.566 
23.033  29.582  77.116 
17.925  34.607  71.216 
19.812  33.316  74.792 
23.390  27.261  70.126 
26.981  31.223  84.047 
22.640  31.746  79.435 
24.894  27.081  77.473 
23.042  31.398  79.420 
30.117  26.594  83.146 
24.610  27.933  76.297 
26.722  29.405  82.446 
24.762  25.657  69.709 
29.324  24.695  78.322 
29.124  24.246  76.192 
30.899  22.434  73.192 
31.808  23.246  80.544 
32.395  23.987  82.146 
31.252  25.154  82.863 
29.269  24.527  74.380 
30.727  23.230  75.843 
32.519  24.071  82.754 
29.781  23.614  76.214 
33.102  20.533  73.542 
37.619  18.799  77.694 
35.334  19.093  73.528 
36.470  18.511  72.718 
32.440  21.790  75.275 
40.044  15.902  70.759 
39.311  17.537  75.143 
34.756  20.734  76.233 
41.232  15.904  72.969 
38.089  19.993  81.365 
40.078  16.363  71.375 
42.038  14.642  72.029 
41.636  17.958  80.674 
39.819  16.613  72.117 
43.273  16.231  78.224 
42.527  15.841  76.265 
46.222  12.620  70.998 
45.465  16.353  80.060 
46.990  15.110  79.408 
51.748  12.400  76.237 
51.410  11.809  70.488 
54.228  13.665  79.189 
46.496  15.849  80.399 
59.107  12.502  76.895 
49.825  13.685  77.772 
54.319  14.031  79.849 
53.122  15.014  82.449 
58.664  12.598  76.425 
55.842  12.227  75.543 
55.700  11.840  74.168 
55.826  14.510  81.917 
51.462  11.991  73.087 
57.169  12.141  75.435 
60.353  11.464  73.789 
54.402  13.608  80.203 
64.594  13.121  75.659 
58.133  11.423  73.053 
53.269  11.219  70.414 
63.023  13.438  80.085 
59.589  12.546  76.163 
68.274  12.236  73.379 
64.279  11.845  72.938 
65.945  12.498  74.184 
64.276  12.050  73.380 
69.532  13.384  76.077 
63.584  12.004  75.221 
68.607  12.290  71.906 
61.249  13.307  79.515 
71.356  14.158  76.610 
71.962  14.685  78.335 
73.997  15.541  78.805 
72.045  14.081  76.756 
75.957  14.148  72.229 
68.677  12.463  74.338 
76.296  21.045  87.401 
78.301  17.553  79.346 
80.720  17.976  78.463 
79.395  19.685  83.397 
78.095  15.649  73.844 
76.221  15.446  77.435 
78.959  19.152  81.938 
77.642  14.415  69.264 
83.005  16.493  69.692 
88.717  21.069  74.698 
81.319  15.720  69.524 
87.606  21.843  77.974 
83.082  22.818  85.859 
82.090  17.715  75.688 
81.668  19.511  80.875 
86.854  19.149  72.567 
86.369  22.336  80.902 
91.022  25.956  80.770 
89.603  25.322  81.557 
86.021  18.313  71.552 
87.351  21.498  76.576 
95.228  29.676  79.454 
90.877  25.908  79.986 
86.165  21.366  80.554 
94.873  25.517  70.813 
91.794  25.729  78.822 
84.299  19.810  79.236 
92.031  25.740  79.366 
95.017  28.564  77.621 
95.009  24.226  66.918 
94.034  23.683  68.771 
98.194  30.229  72.643 
93.627  27.729  77.788 
95.436  27.950  73.256 
95.985  27.290  71.196 
94.797  25.490  69.438 
101.137  31.525  67.477 
98.280  34.284  81.538 
98.120  33.707  79.238 
95.317  37.161  87.332 
99.065  38.087  83.114 
95.265  27.214  71.445 
96.663  37.152  85.362 
99.241  34.539  77.867 
99.301  30.184  69.330 
99.928  37.387  81.269 
100.422  38.570  79.901 
100.229  40.551  81.126 
100.679  35.334  77.217 
102.629  42.555  78.612 
102.665  44.414  80.066 
104.181  37.466  69.032 
103.573  40.603  74.881 
103.339  45.151  78.489 
100.566  42.388  80.833 
102.933  44.306  79.189 
103.105  46.255  79.539 
104.081  43.571  77.192 
104.593  49.866  78.362 
107.136  54.439  74.106 
104.384  52.542  78.513 
103.944  50.918  79.984 
103.616  46.708  78.489 
103.666  52.523  80.526 
105.607  51.906  76.266 
108.756  60.322  70.904 
108.089  63.300  74.066 
109.305  59.860  70.000 
104.947  55.726  78.819 
108.774  55.826  72.734 
104.871  56.562  78.211 
104.744  56.619  79.248 
104.994  54.346  78.731 
106.049  57.887  77.619 
108.589  64.265  71.504 
104.014  57.932  80.196 
106.028  55.986  76.998 
103.856  61.036  80.787 
106.410  59.540  77.304 
104.905  60.703  80.047 
105.282  62.917  79.626 
107.666  59.916  74.512 
106.605  61.644  76.491 
104.475  64.147  81.472 
105.890  70.955  76.940 
106.249  59.911  77.076 
105.939  68.601  77.398 
107.500  69.365  73.231 
105.716  66.434  79.525 
101.297  69.651  86.460 
101.039  73.965  82.733 
108.200  70.453  69.855 
106.301  76.036  69.897 
103.815  74.472  76.525 
102.432  76.621  77.667 
99.977  74.538  85.114 
101.747  76.217  79.726 
100.964  76.472  80.587 
101.023  76.859  79.394 
100.997  78.590  77.994 
100.734  79.290  77.512 
99.573  79.240  78.750 
99.546  80.040  77.567 
99.532  81.344  77.863 
98.859  81.067  78.314 
98.519  82.270  77.975 
97.868  82.515  78.770 
97.872  83.668  77.583 
97.309  84.038  78.852 
97.111  84.588  78.270 
96.554  84.893  78.494 
96.029  85.515  79.101 
95.572  86.110  78.995 
95.071  86.147  78.673 
94.417  86.871  78.729 
94.353  88.007  78.712 
93.540  88.231  78.763 
93.342  89.732  78.533 
92.691  90.276  78.912 
93.196  90.204  78.370 
92.429  91.134  78.433 
91.681  92.601  77.598 
90.837  92.424  78.364 
91.504  92.009  78.165 
90.355  92.590  78.316 
89.876  93.371  78.097 
89.603  93.705  78.801 
88.729  93.896  78.306 
88.765  95.210  77.469 
87.806  96.029  77.859 
86.891  96.293  78.333 
86.527  96.389  77.638 
86.399  96.117  78.099 
78.374  98.546  81.714 
81.323  98.679  80.521 
85.502  96.834  79.063 
83.930  92.747  86.519 
80.472  100.731  76.988 
83.476  99.541  78.001 
80.985  101.809  73.626 
83.300  97.347  80.802 
80.867  98.854  80.467 
77.826  101.746  78.743 
77.451  101.422  79.450 
83.275  95.601  83.448 
79.426  98.009  82.778 
83.078  93.817  86.311 
74.686  104.680  73.097 
78.816  100.822  78.579 
77.759  103.358  73.443 
73.278  105.154  72.695 
73.791  105.396  72.960 
74.545  103.749  74.778 
74.823  104.277  75.391 
75.792  103.102  77.341 
72.125  101.260  80.740 
71.078  102.028  79.683 
70.738  105.526  74.269 
65.188  108.689  67.556 
67.108  103.574  79.384 
69.926  104.365  77.011 
72.822  105.749  70.883 
68.705  103.420  79.273 
71.042  102.915  79.226 
67.809  105.821  75.671 
65.238  103.471  80.612 
58.950  103.553  81.587 
69.565  105.084  77.045 
62.610  106.206  77.645 
65.177  107.511  73.802 
62.780  104.762  78.892 
62.999  109.614  68.022 
56.535  104.511  81.318 
58.698  107.166  75.575 
60.545  104.329  80.817 
55.494  107.258  73.266 
61.784  103.919  79.456 
54.065  104.310  80.570 
57.804  102.702  83.051 
57.598  106.336  77.752 
59.415  105.565  79.272 
60.565  107.726  74.507 
47.546  104.531  76.773 
55.001  107.739  72.443 
42.678  104.622  73.020 
57.806  108.157  73.094 
49.736  106.411  73.555 
46.897  100.910  84.169 
50.947  104.524  76.420 
44.155  101.522  80.577 
50.207  104.834  77.407 
51.635  104.472  79.223 
46.486  103.198  79.590 
45.665  104.757  74.859 
39.712  100.849  79.220 
39.736  103.613  72.745 
43.545  100.867  82.720 
32.921  98.039  78.514 
40.339  102.394  76.718 
33.624  98.379  78.192 
37.778  100.282  79.182 
38.560  99.542  79.824 
37.025  101.419  75.751 
31.353  95.575  81.297 
32.117  94.721  82.904 
28.047  96.653  72.163 
30.280  93.354  83.120 
28.385  93.541  81.671 
31.007  95.415  80.446 
27.705  91.488  82.173 
25.752  85.183  86.322 
28.490  89.683  85.220 
24.819  89.097  82.266 
24.383  87.994  80.759 
21.088  81.749  82.687 
28.238  91.226  82.658 
23.158  88.481  80.057 
22.960  81.711  85.109 
25.916  89.416  82.444 
22.018  87.901  78.505 
21.309  89.044  74.400 
28.178  89.375  86.026 
26.844  89.139  84.083 
19.072  85.217  76.495 
22.235  86.835  80.794 
19.275  79.755  82.605 
20.813  81.435  83.148 
17.316  77.941  80.252 
22.160  81.360  84.844 
17.805  75.939  82.108 
16.856  80.765  77.402 
20.745  83.820  81.028 
17.740  76.085  82.583 
15.490  75.749  76.243 
17.970  72.623  83.367 
17.492  74.187  82.948 
16.452  81.569  74.744 
18.465  74.042  84.312 
17.379  77.108  81.257 
19.085  72.683  85.561 
14.873  69.174  80.568 
17.357  70.507  84.130 
16.150  75.013  80.478 
13.862  70.245  78.251 
15.172  74.091  79.540 
13.124  68.828  76.762 
15.488  68.189  82.900 
16.010  74.921  78.663 
14.388  74.608  77.060 
15.662  72.244  80.784 
15.053  62.798  82.871 
13.682  62.298  79.690 
12.335  68.952  74.456 
11.234  62.522  71.276 
12.669  64.002  76.909 
13.120  56.803  78.175 
14.793  59.998  81.938 
15.035  64.338  83.023 
13.915  60.034  80.250 
16.676  58.930  84.830 
13.847  60.353  78.693 
12.364  60.682  76.814 
14.578  56.720  81.144 
14.122  54.160  79.053 
12.794  51.488  71.431 
12.619  54.889  73.164 
13.843  55.457  80.212 
14.912  53.029  80.658 
15.676  51.158  82.460 
16.256  64.582  83.761 
15.271  45.761  77.006 
20.255  35.778  80.926 
16.976  49.236  83.843 
13.593  50.105  74.562 
18.812  48.007  86.476 
16.558  46.155  80.217 
17.759  49.354  84.274 
16.545  51.468  82.764 
17.238  51.107  85.242 
16.750  44.532  80.271 
16.968  43.247  80.121 
14.454  42.522  70.139 
18.234  38.303  79.633 
15.273  43.808  76.940 
18.596  40.566  81.422 
18.536  37.599  77.861 
20.424  39.884  83.216 
18.755  39.643  80.801 
23.508  31.497  80.009 
21.579  36.635  83.120 
19.991  33.871  76.341 
19.782  34.784  76.967 
19.125  36.789  80.026 
24.686  35.023  84.327 
16.315  40.110  75.734 
22.690  36.242  83.615 
23.225  28.793  76.698 
25.170  27.987  79.574 
21.845  32.396  77.525 
19.325  34.034  71.836 
21.441  32.733  78.761 
22.947  27.880  73.103 
29.775  26.626  82.592 
23.630  28.237  77.840 
26.889  25.395  74.912 
22.548  31.417  76.551 
24.195  25.697  69.483 
27.063  25.420  75.762 
24.371  27.236  74.802 
20.795  33.235  76.156 
29.633  23.871  74.824 
27.473  25.026  74.971 
29.374  23.011  73.685 
29.035  23.400  73.777 
29.115  23.079  72.823 
32.097  21.225  72.328 
31.545  21.748  72.821 
35.988  18.718  73.051 
33.847  21.669  77.632 
25.195  26.219  74.448 
33.269  20.776  74.515 
38.787  17.538  76.823 
32.700  20.909  72.855 
36.399  19.012  74.880 
37.465  18.613  76.090 
44.931  13.925  75.086 
44.624  17.060  81.300 
38.102  19.039  75.837 
40.080  16.146  73.634 
44.733  14.186  74.682 
46.634  12.951  71.980 
39.623  17.424  77.695 
38.582  17.901  76.637 
47.235  16.064  80.473 
47.574  14.173  77.025 
43.890  13.887  72.266 
49.468  13.407  76.560 
56.074  13.210  78.896 
55.281  12.611  76.097 
47.452  12.064  68.700 
53.218  15.968  84.306 
49.764  12.274  73.826 
51.070  18.496  86.679 
54.103  15.978  83.130 
52.656  12.264  73.459 
54.591  14.776  82.739 
59.861  13.567  80.539 
56.233  10.665  70.115 
49.629  12.635  74.577 
60.375  10.382  68.475 
55.145  10.064  68.361 
47.567  13.172  74.701 
57.948  10.507  68.951 
52.528  14.772  80.676 
62.061  13.396  80.011 
53.337  11.580  71.686 
63.778  12.651  75.214 
66.266  13.582  79.757 
63.015  12.871  77.615 
56.784  10.718  69.016 
68.285  12.971  76.577 
68.151  12.794  73.645 
63.152  12.278  76.007 
63.358  15.895  84.712 
65.097  12.490  74.647 
65.466  13.477  80.283 
67.971  12.224  74.274 
61.004  13.138  78.632 
66.120  14.444  81.495 
74.123  13.507  71.965 
69.932  12.377  72.889 
74.207  13.825  75.587 
67.870  12.443  71.588 
71.708  13.656  75.126 
84.846  17.713  71.340 
76.000  17.308  81.665 
70.971  12.715  70.117 
75.148  14.869  76.646 
77.465  15.415  74.496 
76.228  18.328  82.771 
78.612  17.275  78.510 
82.277  19.069  76.661 
85.401  21.700  81.979 
85.554  18.961  73.803 
79.664  17.011  76.137 
82.933  16.715  63.769 
75.133  17.043  81.522 
81.091  17.362  76.534 
87.948  24.763  83.215 
84.235  20.437  79.786 
86.985  20.972  77.573 
89.920  21.340  71.044 
89.250  21.917  76.085 
85.484  20.614  77.975 
91.920  25.310  77.491 
89.826  21.558  73.677 
88.438  20.524  73.494 
92.986  23.854  71.477 
89.678  23.064  75.533 
91.471  27.853  81.262 
96.806  28.828  74.114 
87.334  19.707  73.152 
91.244  21.204  69.094 
95.704  28.937  75.973 
90.158  24.011  77.385 
92.836  22.149  69.099 
92.984  25.733  77.634 
94.419  24.605  70.261 
98.616  34.198  79.824 
94.660  28.483  76.883 
94.943  24.649  67.816 
93.480  25.068  73.686 
99.422  32.529  75.523 
99.046  32.629  77.521 
97.638  29.995  74.476 
99.467  34.397  78.380 
99.261  35.642  80.102 
98.249  39.922  83.638 
99.263  39.890  82.407 
95.242  35.560  85.723 
101.747  38.712  78.163 
94.970  37.515  87.496 
100.728  35.110  74.968 
103.156  40.432  76.602 
102.351  43.419  79.671 
103.403  41.169  76.508 
105.671  47.798  74.918 
97.993  35.091  81.606 
102.116  38.820  76.626 
102.807  45.301  79.806 
102.292  44.215  79.281 
103.566  43.482  77.632 
104.048  50.131  80.158 
102.758  48.076  80.179 
104.356  47.431  78.090 
106.987  50.094  72.162 
104.752  50.150  77.617 
103.768  53.005  81.675 
104.600  54.459  78.451 
108.043  49.018  69.217 
106.427  54.512  76.534 
105.706  52.798  76.580 
106.210  53.227  76.035 
105.215  57.479  77.750 
108.784  58.763  71.226 
105.711  55.701  77.625 
103.745  52.445  79.601 
105.875  58.555  77.842 
106.930  53.749  74.488 
105.846  57.094  76.268 
106.296  56.713  76.510 
107.259  61.222  75.450 
108.403  60.909  73.664 
105.447  58.760  78.597 
106.851  66.999  76.307 
104.762  65.877  80.570 
108.174  57.836  72.332 
105.845  61.801  77.102 
106.296  65.325  78.439 
105.853  61.098  78.073 
105.374  69.373  77.701 
106.385  68.803  77.072 
103.956  77.002  73.893 
106.640  73.335  70.387 
105.083  71.239  78.327 
103.031  76.005  76.328 
101.585  72.819  84.153 
100.168  74.990  82.422 
102.416  75.259  79.263 
103.294  76.791  75.139 
101.855  76.231  79.183 
101.832  77.344  77.877 
101.084  77.642  78.114 
101.322  78.758  77.215 
100.745  79.396  76.837 
100.106  79.229  77.298 
100.192  79.892  77.729 
99.930  80.792  77.550 
99.370  81.527  77.001 
99.156  81.808  77.788 
98.831  83.122  76.984 
98.986  82.591  77.537 
98.233  82.962  77.768 
96.934  84.386  77.813 
96.535  85.666  77.029 
96.386  85.261  76.760 
96.142  85.386  77.768 
95.549  86.267  78.014 
95.617  86.695  78.323 
94.836  87.514  78.549 
94.163  88.699  78.259 
94.399  88.741  77.543 
93.836  89.043  78.125 
92.922  89.831  78.086 
93.412  90.310  77.205 
91.991  91.363  77.931 
92.299  91.248  77.304 
91.539  92.291  76.787 
90.837  92.512  77.469 
90.529  93.341  77.815 
89.416  94.288  78.406 
89.349  94.616  77.910 
88.577  94.962  77.974 
88.053  95.772  77.146 
87.474  96.350  77.465 
87.306  95.801  78.027 
86.529  97.110  76.754 
84.793  97.760  77.751 
80.107  99.580  80.562 
84.268  96.192  80.893 
80.730  99.459  79.880 
78.116  101.349  78.405 
86.175  97.622  75.840 
81.938  100.268  77.143 
75.883  102.069  78.394 
77.923  102.224  78.423 
80.466  98.035  82.395 
73.828  103.304  78.066 
83.787  99.561  76.911 
77.025  103.424  75.503 
76.039  101.116  79.537 
75.774  99.777  81.718 
76.323  104.228  73.203 
77.572  103.345  71.780 
71.648  104.479  76.238 
70.123  105.441  76.756 
74.824  105.384  70.232 
71.587  105.799  74.549 
72.891  101.333  81.288 
74.116  104.792  74.532 
72.920  102.633  79.215 
76.693  100.910  79.972 
72.328  102.167  79.211 
73.588  103.687  77.383 
73.307  101.540  79.409 
71.574  105.381  74.769 
63.041  106.687  76.176 
69.432  108.003  67.094 
66.886  106.246  75.587 
69.053  105.322  76.428 
64.970  103.886  79.802 
72.212  104.895  75.936 
62.966  103.172  81.173 
66.365  106.091  76.466 
54.716  101.975  84.649 
64.995  106.763  75.482 
63.582  105.266  78.630 
63.621  106.282  76.241 
59.857  107.458  75.386 
58.742  106.337  77.331 
55.208  107.672  73.073 
56.041  103.999  81.559 
57.017  107.901  73.297 
56.144  104.790  80.659 
51.674  103.606  80.808 
58.225  107.282  75.168 
51.909  107.403  70.044 
61.252  106.949  75.463 
47.458  106.533  67.890 
53.879  105.671  77.535 
43.771  102.866  78.740 
49.369  103.855  79.504 
36.989  101.109  73.736 
42.029  105.099  69.685 
50.889  103.996  79.547 
51.824  107.595  67.891 
55.646  106.093  77.266 
47.039  103.032  78.752 
42.869  103.030  77.159 
47.169  105.379  72.677 
41.193  103.439  74.442 
40.987  100.976  80.219 
39.315  99.699  80.776 
42.898  102.288  77.718 
30.352  95.143  80.080 
37.052  99.636  79.561 
28.937  96.575  74.245 
32.135  95.476  82.543 
29.081  95.308  77.504 
23.851  90.747  76.819 
32.427  97.579  78.803 
29.379  94.458  80.497 
32.185  95.848  80.942 
32.406  95.077  83.439 
26.406  89.499  83.423 
23.326  89.044  79.828 
19.652  79.412  82.143 
24.153  87.058  84.198 
22.032  84.456  83.063 
29.573  94.692  79.749 
23.216  87.537  80.291 
22.500  86.596  81.645 
22.973  87.138  80.614 
19.853  84.173  79.846 
22.326  82.991  84.379 
20.252  89.474  70.516 
23.702  88.697  80.583 
20.259  82.896  81.307 
24.352  93.557  70.948 
19.837  81.514  81.126 
24.220  85.892  85.245 
19.122  79.632  81.130 
15.916  78.779  76.091 
24.134  85.379  85.230 
19.558  78.077  83.844 
17.070  81.999  75.410 
14.904  76.124  77.455 
18.860  83.211  78.108 
18.926  83.370  78.668 
21.313  75.786  85.879 
18.367  73.933  83.009 
19.049  69.620  86.830 
19.885  74.884  85.005 
15.080  75.451  76.812 
17.681  71.203  84.667 
14.494  72.086  76.962 
12.422  70.899  69.888 
15.841  78.241  75.630 
13.050  64.471  77.601 
15.973  71.807  80.967 
20.071  67.672  87.637 
17.950  69.085  85.499 
15.872  72.627  80.251 
14.837  64.667  81.738 
16.197  68.301  83.609 
13.488  68.904  79.317 
13.950  64.259  80.600 
12.379  61.191  74.826 
13.497  57.315  77.701 
12.924  60.051  79.029 
13.084  56.675  78.897 
15.228  56.005  83.273 
13.253  67.562  78.643 
12.696  54.636  77.404 
15.768  55.179  83.565 
12.934  56.216  78.037 
14.768  53.165  78.574 
13.536  62.076  80.201 
13.266  58.609  78.860 
13.427  58.391  79.714 
13.326  55.633  78.839 
13.926  57.004  80.360 
18.801  46.185  85.106 
16.550  55.048  85.060 
13.575  61.159  78.799 
19.663  48.377  86.596 
12.661  55.130  76.261 
15.524  49.512  81.055 
14.084  48.159  77.446 
16.710  48.739  82.851 
15.273  50.065  79.897 
18.222  50.837  86.589 
15.616  43.582  75.807 
18.353  42.623  81.004 
16.023  50.447  81.390 
15.143  44.200  75.785 
15.762  46.893  78.882 
17.244  45.551  80.890 
16.753  48.324  82.504 
17.999  46.599  83.158 
24.619  29.457  78.595 
17.510  44.355  81.455 
18.877  37.658  81.414 
18.796  35.789  77.083 
15.089  41.247  69.140 
15.893  45.817  79.263 
15.431  41.876  75.823 
20.692  36.634  82.676 
17.987  40.281  79.409 
25.877  32.423  83.008 
23.386  34.516  83.536 
20.461  32.428  75.329 
20.735  30.448  71.677 
23.267  36.695  85.214 
27.067  26.008  76.153 
20.854  32.890  78.151 
24.343  27.318  73.318 
31.661  23.322  79.997 
24.535  26.490  73.712 
25.813  25.990  72.175 
26.851  27.304  80.303 
19.100  31.877  69.413 
26.524  25.863  76.286 
30.147  24.999  80.772 
23.616  29.710  77.727 
26.328  26.221  77.624 
28.728  26.256  81.499 
28.802  24.075  74.470 
32.925  22.098  74.007 
33.845  21.200  77.630 
30.285  23.152  73.604 
35.215  20.207  76.421 
29.250  23.846  73.987 
31.538  22.410  74.624 
30.910  23.178  74.508 
33.674  19.701  71.701 
35.230  19.480  73.197 
34.901  19.853  72.180 
36.237  18.766  72.101 
37.378  18.915  75.118 
35.066  20.368  74.032 
34.887  20.370  75.329 
42.224  14.847  73.713 
39.674  16.216  70.547 
39.225  17.358  75.954 
39.136  16.885  73.872 
43.695  14.409  71.638 
41.097  15.351  73.233 
41.637  15.075  73.424 
40.015  15.603  69.509 
49.970  11.393  71.575 
46.075  14.727  76.689 
39.647  16.314  73.044 
50.267  11.471  70.626 
53.301  12.494  76.831 
50.081  11.740  71.893 
54.405  9.872  66.855 
58.150  12.725  76.962 
49.821  11.939  72.829 
53.660  14.502  81.825 
52.241  11.295  70.547 
50.671  11.534  70.997 
54.580  10.941  68.897 
55.335  12.413  76.846 
47.908  11.767  69.599 
58.902  10.612  69.606 
58.284  11.246  71.970 
58.499  12.460  75.059 
52.895  11.240  71.954 
56.330  11.905  75.523 
51.012  12.210  75.017 
61.925  11.709  73.353 
56.177  13.714  80.474 
49.029  12.928  75.229 
59.621  12.365  75.120 
67.204  12.492  74.105 
62.810  11.844  72.687 
69.408  12.847  74.348 
68.078  12.894  75.989 
66.072  13.122  76.874 
58.333  11.821  74.386 
65.237  14.361  81.693 
72.093  12.971  72.444 
76.246  15.875  76.555 
66.300  12.621  75.891 
70.872  15.072  80.257 
81.052  14.836  65.700 
67.489  13.766  79.618 
80.453  14.855  68.593 
72.659  12.886  66.620 
77.526  13.419  67.164 
73.575  13.343  72.577 
75.022  14.655  74.077 
74.394  16.956  81.787 
78.269  16.973  77.727 
74.216  17.335  83.048 
81.802  18.895  78.528 
72.776  13.839  75.002 
76.591  18.346  81.816 
85.885  20.000  76.516 
81.832  16.950  74.034 
82.793  18.416  76.266 
88.730  22.639  78.228 
85.980  20.182  75.988 
83.948  18.448  73.300 
87.425  19.047  71.245 
83.384  22.133  84.588 
94.437  26.260  73.755 
88.011  20.949  76.105 
91.685  27.557  80.773 
86.359  19.674  74.765 
88.464  23.299  79.799 
85.836  18.139  65.118 
91.161  24.513  76.912 
87.366  20.975  75.568 
89.294  24.970  80.144 
100.403  33.797  76.213 
92.339  25.653  78.108 
98.666  28.817  67.536 
93.089  25.080  75.890 
94.679  26.757  72.852 
97.902  29.057  70.066 
93.363  22.881  69.030 
93.590  24.936  72.774 
100.528  31.233  66.228 
97.680  27.248  67.348 
96.827  26.252  64.353 
102.941  34.326  62.948 
94.907  30.694  80.174 
100.024  33.121  75.602 
99.054  30.986  74.252 
92.943  28.567  79.993 
93.732  29.312  80.633 
101.241  36.875  77.322 
97.925  33.790  80.975 
99.190  33.841  77.306 
102.356  37.671  74.934 
102.303  41.017  78.244 
102.077  35.530  72.787 
98.027  33.010  79.833 
107.308  46.199  71.167 
103.521  44.527  78.072 
97.936  39.820  85.331 
105.010  50.442  77.254 
103.554  45.811  78.478 
105.637  53.490  76.763 
98.357  34.925  80.888 
107.183  47.222  71.398 
103.876  51.845  80.286 
104.011  53.233  81.201 
106.790  44.979  70.625 
104.350  53.676  79.102 
107.154  57.767  74.662 
106.514  57.554  75.985 
106.708  54.973  75.872 
107.445  55.310  74.344 
104.831  51.494  78.392 
108.646  64.594  72.420 
105.739  50.004  75.570 
107.869  58.888  73.551 
104.947  52.831  78.067 
105.308  57.038  78.691 
105.604  54.856  77.669 
105.154  52.077  77.854 
106.543  70.778  75.186 
105.587  56.399  78.284 
106.653  71.204  74.352 
104.862  59.744  79.891 
105.627  60.168  78.412 
105.721  59.569  78.081 
106.530  60.590  75.779 
106.850  54.477  74.711 
104.847  60.611  78.475 
107.606  68.224  72.288 
107.979  66.000  71.839 
105.443  62.330  78.278 
102.480  69.443  82.649 
108.045  69.118  70.740 
107.002  74.866  62.870 
106.394  74.945  69.677 
101.430  75.226  80.561 
103.537  74.307  77.612 
106.664  72.788  72.478 
102.859  76.737  76.375 
101.971  76.613  78.306 
102.956  78.431  74.655 
102.293  76.612  76.233 
101.729  76.698  77.520 
101.115  78.192  78.422 
101.463  78.249  76.726 
101.167  79.730  76.012 
100.536  80.304  76.736 
100.173  80.882  76.758 
99.336  80.939  76.991 
99.739  81.070  76.184 
99.349  82.324  76.703 
98.625  82.118  77.130 
98.354  83.814  76.797 
97.998  84.433  77.124 
97.401  83.802  77.275 
97.030  85.151  77.682 
96.377  86.071  77.503 
96.348  85.676  78.306 
95.868  85.748  78.368 
94.689  86.866  77.943 
95.037  87.549  77.699 
94.712  88.152  77.875 
94.063  88.712  77.133 
93.817  89.876  77.109 
93.595  89.597  77.695 
93.005  90.783  76.929 
92.587  91.140  77.879 
92.137  92.132  77.403 
92.450  91.972  76.806 
91.140  93.195  77.328 
90.184  93.869  78.149 
90.042  94.243  77.250 
89.322  93.877  77.470 
88.797  95.417  76.944 
87.935  95.228  77.274 
87.880  96.090  76.347 
87.802  96.493  76.916 
87.155  96.717  76.746 
85.965  97.669  76.598 
85.846  96.838  77.790 
84.308  97.614  79.425 
83.171  98.485  78.803 
79.794  97.875  83.614 
83.880  100.244  75.833 
84.528  99.555  75.361 
77.421  103.230  74.803 
82.590  100.555  75.783 
77.556  103.085  72.681 
78.047  98.040  83.259 
76.550  103.397  74.823 
75.111  102.157  79.009 
84.289  97.555  80.105 
72.769  106.242  70.560 
76.766  98.345  83.051 
75.306  103.906  74.914 
70.167  106.216  70.692 
71.456  103.406  78.400 
71.473  106.769  70.093 
74.563  104.592  74.583 
78.360  100.842  80.229 
81.649  101.691  73.400 
78.130  102.714  73.832 
71.547  104.981  76.476 
70.911  102.526  79.914 
69.968  102.464  80.605 
78.212  103.146  74.376 
67.125  105.048  77.254 
72.470  105.859  74.051 
69.033  102.968  79.735 
70.346  105.661  75.582 
64.500  103.556  80.795 
72.425  103.475  77.676 
65.943  102.607  81.767 
64.690  102.555  81.179 
64.001  105.991  76.518 
65.310  103.824  79.420 
54.080  109.038  65.871 
63.272  106.062  76.959 
60.251  107.079  76.711 
60.160  105.997  78.312 
63.049  108.432  72.071 
54.767  107.352  73.770 
53.367  106.897  72.946 
52.656  100.244  87.673 
51.755  106.191  75.152 
47.023  106.296  69.307 
59.306  104.641  80.634 
60.803  107.256  75.311 
45.028  103.843  77.855 
52.316  102.724  83.266 
47.934  105.607  70.999 
42.799  104.721  71.063 
55.509  108.450  70.172 
50.537  107.928  66.298 
48.503  104.764  77.168 
41.040  98.675  83.457 
55.374  104.766  80.375 
48.710  104.136  77.792 
45.787  103.896  77.771 
42.976  103.458  75.878 
33.167  97.028  80.034 
42.154  103.509  74.544 
39.785  100.323  79.851 
39.491  99.514  81.586 
38.584  99.218  81.815 
33.178  91.573  87.781 
30.609  96.691  76.727 
29.003  94.244  81.232 
35.166  99.521  78.863 
37.737  96.542  85.974 
29.036  96.209  75.966 
26.943  92.623  80.520 
32.054  90.112  87.983 
30.701  95.577  80.844 
28.552  90.827  83.772 
24.542  88.478  83.018 
30.657  94.491  82.068 
28.657  92.503  81.508 
24.693  84.016  86.311 
31.653  94.491  83.193 
29.075  88.936  86.514 
24.423  90.353  79.687 
29.441  91.309  84.488 
23.728  88.085  82.889 
29.873  94.701  81.238 
29.056  94.775  79.041 
19.459  87.061  74.810 
25.223  85.648  85.975 
23.177  90.466  76.641 
31.681  91.204  87.217 
27.217  86.860  87.135 
18.473  88.126  68.514 
21.755  83.344  83.282 
19.209  89.428  65.679 
21.083  80.810  83.761 
18.813  80.584  80.346 
19.597  80.891  81.558 
18.589  82.425  79.070 
20.502  86.619  76.914 
19.904  87.961  73.230 
17.255  77.120  80.525 
16.577  78.474  77.629 
21.287  86.239  79.534 
16.399  74.081  80.723 
17.691  78.629  80.651 
14.497  73.799  75.531 
17.134  76.465  81.277 
16.104  69.897  82.709 
14.526  71.681  79.284 
14.569  72.146  78.750 
12.940  66.584  76.426 
15.163  77.486  74.722 
15.403  68.841  81.651 
17.628  76.633  81.970 
16.623  71.817  81.644 
18.470  61.576  86.243 
17.249  69.568  85.074 
15.868  67.502  84.030 
11.643  58.556  73.276 
13.151  65.093  78.717 
13.039  66.773  78.754 
13.558  63.142  80.151 
13.562  62.398  78.581 
13.245  61.277  77.964 
12.098  65.309  75.958 
12.238  61.939  75.412 
