46.707  11.669  59.888 
45.777  12.647  60.700 
45.638  12.117  58.999 
46.846  11.843  61.159 
48.034  11.365  59.725 
48.898  11.186  59.732 
49.505  11.364  59.103 
48.044  12.370  61.784 
49.092  11.371  60.744 
49.951  11.030  62.825 
49.814  11.254  60.444 
58.747  9.369  59.437 
53.181  10.513  66.790 
58.711  11.513  50.246 
54.296  10.461  57.587 
60.923  9.827  54.679 
58.032  9.864  65.059 
64.065  11.061  50.659 
58.746  9.575  60.065 
59.150  10.042  61.353 
60.915  10.250  59.660 
63.551  10.603  53.488 
62.203  10.599  57.445 
64.415  10.276  58.751 
65.268  10.415  59.132 
65.174  10.352  57.696 
64.697  10.571  57.177 
66.731  11.507  56.207 
67.416  11.200  60.500 
66.918  11.041  59.923 
70.939  11.671  60.259 
71.054  11.356  56.858 
73.849  13.025  63.398 
77.858  14.169  60.770 
78.208  13.535  64.371 
78.023  14.337  54.171 
74.420  12.515  64.136 
84.444  17.404  62.551 
85.707  17.107  66.481 
76.467  14.182  53.862 
79.003  13.864  61.921 
76.679  13.679  59.496 
80.293  14.984  55.853 
80.025  15.072  59.760 
80.638  15.275  55.190 
77.886  14.104  58.925 
80.705  15.313  57.995 
81.608  16.172  62.305 
82.086  16.662  58.254 
84.156  17.623  57.723 
83.672  17.263  58.261 
84.719  18.161  58.008 
83.799  17.747  58.496 
86.297  19.142  56.713 
87.141  19.740  56.923 
87.946  20.102  57.379 
88.151  20.979  57.340 
89.148  21.295  57.148 
88.851  21.150  57.729 
91.411  22.921  58.417 
92.662  23.090  60.129 
90.726  22.173  57.624 
92.719  24.059  57.222 
93.888  25.157  57.774 
95.698  26.093  60.747 
95.255  26.105  58.317 
93.834  23.980  65.591 
94.926  23.882  65.685 
92.920  22.439  64.622 
93.998  25.043  56.399 
95.296  27.489  52.650 
97.607  30.058  54.558 
94.572  26.737  53.007 
98.668  28.121  61.845 
99.170  28.753  62.223 
100.515  32.569  55.233 
96.978  27.603  57.183 
93.549  23.617  65.615 
93.902  24.324  60.406 
100.176  30.882  57.648 
97.550  27.288  58.840 
96.396  27.715  56.356 
104.780  39.268  62.194 
98.605  28.441  61.059 
101.439  33.349  54.635 
97.106  28.299  55.045 
100.927  32.248  54.663 
101.582  33.569  57.615 
104.157  37.665  59.652 
104.782  40.577  59.706 
102.040  33.884  61.866 
105.130  40.923  58.163 
106.061  42.303  64.944 
105.986  42.658  61.258 
105.461  42.036  60.734 
105.839  44.095  58.512 
107.400  47.672  71.646 
105.967  42.829  58.644 
106.624  44.148  60.421 
106.960  45.508  56.919 
106.307  44.596  61.019 
106.530  44.213  58.804 
106.603  45.156  59.729 
106.552  46.285  61.548 
107.348  47.703  61.420 
107.230  46.544  60.090 
107.695  47.953  60.431 
108.416  49.912  60.890 
107.936  50.225  61.092 
108.587  50.555  61.080 
108.267  51.332  61.302 
109.180  52.355  60.681 
109.822  53.366  61.406 
109.484  53.755  60.844 
109.577  61.498  63.048 
109.380  58.733  56.207 
109.964  55.325  62.137 
108.732  51.726  64.915 
109.695  61.956  58.810 
110.610  59.522  61.745 
109.718  59.544  59.548 
109.327  62.510  61.852 
110.182  59.750  58.325 
109.622  64.682  61.143 
109.081  63.793  59.611 
108.444  66.313  61.873 
109.099  65.366  60.919 
109.448  66.887  61.069 
109.044  68.027  61.436 
109.126  66.132  60.365 
108.845  68.365  60.565 
108.509  67.962  60.825 
108.593  69.659  60.924 
108.247  70.830  59.303 
107.798  72.430  62.059 
107.806  72.267  61.242 
107.826  72.966  62.330 
107.212  73.961  59.492 
107.470  74.960  60.639 
107.825  74.061  60.517 
106.824  76.889  61.507 
106.588  75.922  61.330 
107.080  76.445  61.684 
105.232  81.191  61.651 
106.066  79.182  62.967 
105.501  79.501  55.746 
106.045  80.087  62.334 
105.090  81.785  59.106 
103.710  83.351  60.962 
105.803  79.159  64.548 
103.635  82.854  58.964 
104.363  81.957  64.922 
103.085  83.305  67.797 
100.209  88.557  62.397 
105.689  81.013  58.934 
102.245  84.146  51.229 
100.122  89.666  57.312 
103.071  83.444  58.677 
95.110  94.025  55.032 
99.396  91.534  58.150 
99.533  90.714  59.258 
99.058  90.043  64.293 
95.016  95.529  63.014 
98.479  88.757  68.192 
96.993  91.180  67.498 
96.193  94.522  63.432 
98.616  91.246  62.449 
99.871  88.200  65.004 
96.261  93.832  60.457 
101.574  87.470  62.145 
98.884  90.983  64.525 
96.036  94.163  63.885 
96.374  93.089  63.898 
94.825  95.178  57.527 
95.908  93.312  65.454 
87.187  101.245  62.126 
89.197  99.271  66.376 
95.206  95.458  61.709 
92.417  96.188  64.938 
95.666  94.828  57.397 
92.095  96.593  66.282 
87.223  99.837  69.753 
90.997  98.508  60.278 
83.561  101.715  73.763 
90.147  97.630  66.030 
87.670  100.028  66.244 
84.717  102.820  63.730 
77.240  106.480  58.203 
92.754  97.164  58.643 
83.225  103.083  58.386 
84.351  102.398  65.355 
81.530  102.341  48.071 
83.167  103.229  63.138 
79.576  105.468  62.972 
78.556  105.698  61.948 
79.300  105.439  61.627 
78.119  106.444  61.714 
77.853  106.108  62.981 
77.334  106.531  62.216 
77.876  106.364  60.957 
75.357  106.657  63.324 
79.556  105.210  53.329 
76.474  106.856  60.675 
73.174  106.226  49.222 
74.509  107.705  58.198 
73.398  107.776  54.977 
71.088  108.074  56.165 
69.268  109.458  60.365 
71.036  108.498  56.553 
70.310  108.159  55.135 
72.421  108.088  62.907 
69.813  108.827  57.369 
65.715  109.395  60.631 
66.479  109.546  58.822 
67.479  109.443  60.734 
65.767  109.347  58.562 
66.553  109.522  60.561 
64.545  109.986  60.915 
61.222  109.664  58.387 
66.548  109.805  62.366 
57.473  109.389  63.141 
56.216  109.411  59.822 
58.570  109.289  56.577 
59.798  110.070  57.414 
53.715  109.622  56.405 
56.203  109.874  62.417 
48.274  108.153  64.652 
52.734  109.788  58.689 
55.381  109.940  61.663 
55.299  109.387  60.329 
51.711  108.877  66.596 
51.148  108.202  55.846 
43.379  106.065  63.694 
44.389  105.932  62.895 
49.613  107.906  64.561 
48.874  107.488  57.656 
45.206  106.795  61.514 
44.417  106.223  61.968 
53.586  108.908  64.207 
40.595  105.315  63.047 
46.782  107.383  61.892 
39.219  105.007  63.245 
40.245  104.900  62.120 
41.509  105.508  62.136 
40.023  104.696  60.827 
38.573  104.028  62.502 
39.601  104.685  60.181 
37.849  104.154  60.964 
34.627  102.974  59.680 
36.825  103.976  61.628 
28.094  98.749  60.293 
37.546  103.598  63.249 
35.219  102.514  61.119 
34.249  102.497  64.940 
35.859  102.736  69.006 
33.131  102.214  65.482 
35.208  102.861  64.191 
24.893  96.634  63.241 
27.861  99.005  63.525 
30.559  100.793  65.403 
32.211  102.080  65.370 
31.954  101.607  61.443 
33.375  102.323  64.686 
31.410  101.074  63.441 
30.362  100.492  60.065 
29.461  99.793  65.043 
26.055  96.681  67.263 
22.679  94.602  61.761 
23.819  95.633  61.095 
23.376  95.298  61.900 
20.804  88.989  67.829 
20.300  89.456  69.523 
18.383  86.287  65.453 
18.625  88.096  64.780 
20.641  90.007  57.806 
19.726  87.705  57.610 
20.671  91.896  57.821 
18.757  86.929  65.316 
20.767  90.578  60.848 
19.178  86.417  59.729 
19.793  89.576  61.381 
18.736  85.616  58.358 
19.067  87.570  67.641 
17.466  85.262  60.300 
17.798  86.151  65.993 
23.367  92.713  68.439 
16.171  83.015  64.286 
17.489  85.825  63.340 
16.014  81.559  61.504 
15.860  83.129  63.061 
16.191  82.661  62.266 
15.463  82.181  63.179 
15.520  80.554  62.231 
14.874  80.238  61.923 
14.997  79.566  63.890 
15.166  79.644  65.949 
14.473  78.688  64.136 
13.267  76.319  63.454 
13.365  76.331  65.390 
13.318  75.187  63.565 
13.728  75.805  62.209 
13.888  75.155  62.964 
10.710  67.060  66.188 
13.086  73.828  65.215 
11.066  63.773  64.358 
12.060  70.742  67.677 
13.158  73.676  63.697 
13.182  73.748  66.323 
11.392  69.778  65.711 
11.254  68.925  68.929 
11.426  56.897  67.083 
11.225  63.307  64.555 
11.231  55.586  60.611 
12.207  71.232  62.032 
12.473  69.381  57.281 
11.944  71.412  63.602 
11.146  68.401  62.526 
10.487  64.310  58.173 
13.428  72.684  57.451 
10.547  61.938  62.836 
10.836  58.868  61.547 
11.045  56.511  63.666 
10.821  64.954  57.465 
10.727  57.966  61.725 
11.416  54.402  58.949 
10.866  58.566  62.523 
12.257  50.507  58.513 
10.980  55.590  59.042 
10.888  57.511  66.734 
12.057  52.590  60.924 
11.519  53.942  62.670 
11.365  53.121  62.899 
12.264  51.186  62.473 
12.332  50.231  63.476 
12.715  47.200  60.255 
12.593  47.706  61.176 
12.939  45.367  58.464 
12.333  47.667  62.280 
12.398  47.430  61.593 
12.221  49.033  59.146 
12.699  48.160  59.969 
13.421  44.538  61.475 
13.881  43.744  63.191 
14.177  41.655  61.019 
14.034  43.410  64.142 
15.835  36.265  64.184 
15.851  39.092  64.671 
15.123  39.683  61.627 
16.143  38.486  68.596 
14.794  41.747  65.391 
16.334  38.147  69.912 
15.063  41.685  65.923 
15.804  38.400  66.090 
17.410  36.432  70.126 
18.232  31.601  64.684 
18.880  31.389  56.256 
18.224  32.570  62.068 
17.745  33.658  55.466 
18.908  31.133  60.734 
19.188  30.991  65.391 
17.705  33.828  66.227 
21.286  27.880  60.206 
24.524  24.996  57.619 
21.475  28.322  57.359 
21.924  27.189  59.042 
22.702  27.256  51.303 
23.806  26.536  50.054 
25.740  23.430  53.611 
28.751  21.208  59.826 
22.469  27.972  52.351 
28.399  24.376  46.392 
27.979  22.407  62.780 
29.956  20.447  61.353 
28.063  21.062  58.066 
29.413  21.372  59.126 
28.919  21.240  60.686 
25.242  23.614  59.710 
26.460  23.608  62.412 
21.074  28.435  62.185 
29.448  20.948  53.361 
31.294  19.098  58.313 
37.630  15.198  58.497 
32.167  18.813  61.718 
33.117  18.246  59.254 
30.144  20.591  63.499 
38.665  14.561  63.053 
36.183  15.913  58.140 
33.618  17.815  58.176 
40.289  14.468  53.399 
41.820  13.352  57.021 
41.799  13.416  59.367 
37.896  14.448  60.984 
38.698  14.573  63.930 
39.867  13.635  62.973 
42.011  12.997  58.361 
42.620  14.039  54.876 
39.989  13.646  57.616 
43.699  12.716  57.806 
40.251  14.157  65.874 
44.080  13.060  59.318 
44.500  12.668  60.154 
45.050  12.169  59.403 
45.401  12.534  59.250 
45.229  12.242  58.493 
46.825  11.592  58.511 
47.837  11.679  58.930 
49.519  11.262  61.630 
48.142  11.264  60.563 
50.173  11.531  58.704 
49.677  11.056  59.979 
50.258  11.324  61.600 
54.678  9.704  63.165 
65.818  11.335  52.639 
59.307  9.931  59.644 
60.832  10.564  54.428 
55.929  10.280  54.878 
64.475  10.171  57.969 
56.683  10.275  61.026 
61.792  10.759  51.086 
61.971  10.883  50.216 
56.695  11.513  46.952 
69.049  11.231  55.280 
59.838  9.503  56.566 
61.637  10.407  52.964 
59.706  9.999  55.790 
67.092  11.677  58.140 
65.990  10.677  57.883 
65.939  10.627  55.781 
67.107  10.993  58.582 
66.547  11.075  58.351 
68.182  11.430  60.244 
67.786  11.188  53.662 
73.204  12.400  58.189 
70.501  12.476  50.342 
69.467  11.567  59.289 
79.111  14.754  62.835 
78.129  15.026  54.631 
72.608  12.188  54.121 
76.057  14.207  53.161 
77.276  13.357  64.631 
77.623  13.442  62.104 
80.729  15.326  56.697 
79.180  15.046  55.299 
74.582  12.829  54.607 
77.970  14.073  55.468 
80.235  15.269  55.493 
80.722  16.115  57.418 
81.552  16.173  57.976 
82.773  16.622  58.210 
84.544  17.980  58.999 
82.323  17.314  56.941 
83.275  16.730  58.189 
84.369  17.811  57.331 
86.259  18.608  58.301 
86.511  19.059  57.168 
86.111  18.917  57.446 
87.761  20.190  57.960 
90.701  22.094  58.606 
89.440  21.916  57.758 
90.248  22.058  58.387 
91.754  22.799  58.731 
91.341  22.792  57.155 
89.853  21.994  56.120 
86.582  19.413  64.720 
92.655  22.505  65.296 
93.638  25.507  55.016 
92.645  23.993  58.281 
92.238  22.454  61.475 
95.173  24.592  62.620 
94.880  26.472  54.751 
95.724  27.216  53.661 
93.183  23.522  59.625 
101.708  32.893  61.879 
96.921  29.382  54.052 
101.565  33.609  55.508 
96.818  26.653  59.663 
95.181  25.358  59.791 
96.828  27.859  55.263 
96.757  29.315  52.759 
94.558  27.002  55.973 
101.559  32.349  60.400 
102.342  33.259  66.020 
104.407  37.729  58.829 
102.556  35.624  59.126 
96.621  27.227  55.732 
98.356  28.024  58.906 
102.383  34.248  60.024 
102.642  35.400  61.357 
104.730  39.940  61.707 
103.393  36.779  61.026 
103.842  37.712  65.219 
103.785  37.624  58.766 
105.697  42.871  66.082 
105.418  41.191  65.830 
103.580  37.547  57.984 
105.938  41.562  65.033 
104.391  37.649  58.299 
105.936  43.567  57.758 
105.055  42.235  54.395 
105.159  43.367  57.360 
106.477  44.743  58.807 
106.307  44.704  55.718 
106.890  45.333  58.883 
106.881  46.569  60.859 
106.920  45.772  59.752 
106.389  45.233  60.345 
107.343  46.540  59.026 
107.363  47.369  60.503 
107.731  49.233  60.480 
108.603  50.466  59.501 
108.671  51.007  60.697 
108.758  51.756  60.154 
108.641  52.254  60.660 
109.566  53.004  60.400 
109.809  53.412  66.249 
109.430  54.563  59.483 
109.183  53.276  64.227 
109.974  61.252  62.248 
109.986  59.264  58.173 
109.667  61.918  58.323 
109.971  54.252  66.244 
109.805  56.387  58.450 
109.791  62.422  62.642 
108.696  63.088  56.914 
108.891  60.577  55.088 
109.412  64.823  58.159 
109.361  64.629  57.010 
110.046  60.962  63.196 
109.029  65.583  59.303 
108.891  66.997  60.248 
109.319  66.578  60.074 
108.862  66.699  60.986 
108.264  69.351  59.619 
108.982  68.698  61.542 
108.044  70.140  60.432 
107.962  71.067  60.524 
107.956  72.483  59.079 
107.604  73.365  60.387 
107.164  75.362  61.890 
107.587  73.520  59.852 
106.258  77.790  59.545 
107.308  74.899  59.605 
107.268  74.084  61.068 
106.393  76.387  60.549 
104.766  81.831  54.618 
106.387  78.948  58.207 
103.251  83.699  56.263 
103.653  82.442  61.681 
102.341  85.230  64.216 
104.056  82.585  58.913 
106.148  79.824  61.471 
103.770  83.552  63.025 
102.194  86.564  58.824 
104.898  80.502  56.526 
104.614  81.987  59.649 
100.476  88.542  58.213 
101.576  86.601  64.309 
103.034  84.784  60.918 
96.341  94.050  61.856 
98.827  89.871  52.291 
100.179  87.000  67.217 
101.399  85.192  50.942 
98.719  91.837  57.335 
96.595  92.154  65.396 
103.699  84.067  60.798 
100.148  88.253  64.180 
95.704  94.740  60.257 
99.300  88.714  66.504 
93.297  97.082  61.374 
98.427  90.567  65.642 
92.727  96.145  66.722 
96.779  93.711  61.149 
99.353  88.964  65.647 
87.096  100.615  66.309 
94.169  95.591  64.103 
92.251  97.712  62.734 
93.419  96.529  60.209 
93.969  95.638  62.135 
83.943  102.108  69.110 
89.910  98.643  66.632 
89.610  98.121  68.129 
84.174  102.969  62.901 
84.172  101.632  71.129 
91.902  97.158  53.823 
89.887  99.742  60.534 
87.620  101.277  61.290 
81.267  104.265  59.033 
74.098  107.411  58.830 
86.873  102.012  58.151 
78.691  105.863  57.505 
85.365  102.525  63.383 
84.382  102.845  60.841 
80.819  104.182  62.744 
80.433  104.447  62.362 
80.692  104.626  61.798 
80.099  105.024  61.772 
80.544  104.545  58.983 
71.312  108.465  59.709 
78.947  105.414  61.147 
75.569  106.474  61.806 
74.605  107.689  60.016 
76.533  106.326  61.926 
76.306  106.760  62.924 
77.214  106.028  57.683 
70.353  108.170  53.947 
72.218  107.797  63.766 
71.370  105.393  45.712 
70.853  108.516  57.277 
68.151  107.985  54.267 
70.144  108.923  61.455 
72.049  107.343  51.505 
70.178  108.517  58.988 
68.668  108.973  56.598 
68.752  108.705  60.718 
69.547  108.782  56.791 
67.525  109.125  57.979 
64.698  110.089  63.358 
63.570  109.481  61.128 
63.333  109.717  59.653 
62.582  109.532  59.762 
57.371  110.042  58.208 
60.697  109.448  57.995 
54.317  109.879  58.967 
52.405  108.843  62.871 
60.027  109.931  59.883 
57.679  109.406  56.309 
52.992  109.325  55.860 
52.165  108.721  61.504 
47.187  107.519  64.082 
59.072  109.921  57.742 
53.405  110.096  58.166 
54.762  109.674  58.996 
50.136  107.996  53.005 
56.339  109.825  57.172 
48.858  107.510  58.185 
46.527  107.565  64.062 
48.805  107.485  58.760 
47.464  107.053  68.738 
49.802  108.082  61.823 
48.127  106.991  57.305 
45.960  106.565  61.517 
42.055  105.686  63.450 
39.787  104.476  62.752 
40.845  105.402  61.721 
38.645  104.200  63.210 
38.985  104.597  63.627 
37.801  103.931  59.519 
37.858  103.813  62.314 
36.381  103.725  60.353 
35.395  103.490  60.009 
35.206  103.307  64.522 
36.885  103.384  62.194 
36.047  103.672  61.365 
35.455  103.302  59.349 
31.107  100.115  60.899 
34.184  102.351  59.428 
33.331  102.307  66.037 
34.116  102.703  65.619 
27.271  98.510  65.412 
32.397  101.396  68.813 
28.696  99.575  64.304 
22.150  92.747  58.965 
30.424  101.085  62.521 
29.148  99.707  65.764 
23.913  95.356  64.446 
26.736  97.775  66.030 
27.334  97.504  67.027 
26.978  97.304  65.390 
24.139  94.293  68.219 
23.081  94.662  61.415 
21.467  91.784  66.087 
23.892  93.884  67.433 
29.001  99.668  57.766 
22.252  91.760  67.556 
19.846  89.106  64.247 
22.898  93.818  65.335 
24.201  95.762  59.867 
19.434  87.493  58.091 
20.256  89.770  55.773 
19.713  88.817  59.916 
18.898  88.139  61.969 
21.585  92.838  59.633 
20.488  90.208  54.293 
19.946  89.361  57.765 
18.285  86.930  63.356 
18.313  85.140  59.845 
18.359  86.105  62.170 
16.412  83.087  61.747 
19.276  88.584  65.850 
18.334  85.828  63.337 
15.356  81.670  62.794 
16.144  82.153  65.167 
15.379  81.420  64.702 
15.767  81.399  62.194 
15.454  80.172  61.612 
14.564  79.306  62.021 
14.343  78.586  62.672 
14.671  79.506  61.589 
14.466  79.491  62.868 
14.501  78.557  63.290 
13.167  74.727  64.959 
13.511  75.771  67.054 
13.704  76.173  66.014 
13.652  75.379  66.600 
12.939  71.786  61.304 
11.580  68.724  64.194 
11.982  71.332  66.900 
13.588  73.683  58.746 
12.359  70.080  59.819 
11.049  65.850  67.360 
10.885  59.478  66.407 
10.673  63.633  65.122 
11.445  68.937  67.010 
10.398  64.381  60.763 
12.711  70.266  57.982 
11.761  68.173  60.372 
10.647  65.800  59.507 
12.695  72.682  58.924 
10.560  63.554  61.629 
10.359  64.202  59.029 
10.725  60.922  57.056 
11.808  63.157  67.745 
11.640  69.069  61.362 
10.943  58.022  65.902 
11.594  62.466  68.921 
11.561  57.558  68.589 
10.915  58.617  65.114 
10.828  60.236  66.321 
11.063  57.501  59.787 
11.470  52.526  61.668 
10.481  62.854  62.046 
11.930  52.347  62.627 
11.997  52.778  62.999 
11.780  50.827  61.827 
12.327  50.470  60.261 
11.938  50.307  61.025 
11.814  48.780  57.539 
13.143  45.596  59.827 
12.602  45.399  60.035 
12.183  48.243  57.184 
13.483  44.448  63.507 
14.130  44.594  61.961 
14.037  43.340  62.323 
14.540  38.948  57.520 
13.145  45.323  59.313 
12.475  47.288  54.654 
14.710  38.747  59.510 
14.542  40.240  60.173 
17.083  34.118  64.022 
14.482  39.716  61.042 
16.773  35.697  57.063 
15.262  40.326  65.971 
17.435  35.614  67.868 
15.761  35.959  62.296 
20.594  28.894  59.271 
21.550  30.121  71.871 
17.832  32.325  60.965 
15.216  36.989  61.631 
15.790  35.438  62.230 
18.881  31.560  57.973 
15.359  37.502  59.593 
17.315  34.024  58.891 
21.471  28.748  59.052 
21.617  27.787  62.217 
22.094  28.635  68.846 
19.437  30.967  59.655 
20.987  30.501  49.207 
20.790  29.461  54.046 
27.318  22.888  53.292 
25.846  22.822  57.718 
29.065  21.927  60.342 
27.538  22.448  63.035 
23.973  25.021  54.036 
25.804  23.753  55.209 
24.701  24.132  58.704 
26.237  23.786  52.761 
32.361  18.274  58.097 
27.278  22.526  60.397 
29.417  21.048  60.953 
27.880  21.342  58.853 
30.075  20.989  52.387 
37.621  14.771  57.698 
29.186  21.401  51.961 
29.362  20.805  62.175 
37.553  15.089  60.383 
36.750  15.330  55.780 
41.332  13.864  58.178 
35.664  17.046  60.370 
35.720  16.796  52.945 
39.364  14.021  63.425 
39.245  14.638  60.982 
36.838  15.224  58.891 
39.881  14.258  59.864 
38.082  14.439  58.695 
43.439  12.683  59.210 
37.269  15.477  61.590 
42.542  13.180  57.448 
42.121  12.741  60.951 
40.725  13.377  59.613 
43.963  12.505  62.495 
38.201  15.507  54.380 
45.098  12.594  57.555 
45.482  12.005  58.077 
46.008  12.356  58.185 
46.418  11.897  58.920 
47.042  11.656  57.576 
47.290  11.762  58.356 
48.502  11.382  58.322 
48.414  11.213  59.201 
49.389  11.938  60.276 
49.822  11.273  59.517 
51.567  10.693  59.026 
50.422  11.449  60.668 
57.655  9.083  58.195 
61.104  9.862  59.365 
62.792  10.985  50.985 
59.441  11.034  50.059 
59.688  9.958  61.736 
60.858  10.132  52.953 
59.087  9.477  55.817 
59.199  9.823  64.076 
63.441  10.151  56.952 
62.348  10.224  59.624 
64.279  11.383  51.055 
65.154  10.945  53.758 
66.454  11.026  57.882 
63.243  10.426  54.018 
65.920  11.232  57.404 
64.155  10.370  56.502 
66.550  11.015  56.290 
68.102  10.805  57.117 
68.187  11.796  54.013 
69.262  11.209  57.138 
78.694  14.296  62.079 
72.101  12.408  52.522 
71.064  11.965  61.086 
74.475  13.141  56.324 
70.700  11.692  61.916 
73.075  12.613  51.678 
77.396  14.309  56.219 
78.734  13.937  62.826 
75.306  13.488  56.265 
71.726  11.818  59.571 
79.020  15.833  52.805 
75.866  13.428  55.396 
78.339  14.784  55.712 
81.370  15.752  56.088 
81.421  15.827  57.636 
81.612  16.000  57.052 
83.126  16.995  57.522 
83.584  17.039  59.132 
82.184  16.462  56.871 
83.581  17.560  56.995 
85.489  18.581  57.936 
85.453  18.591  56.936 
87.532  20.174  55.685 
86.812  19.430  56.643 
88.501  21.030  56.519 
86.990  20.191  56.346 
87.742  20.289  56.767 
88.636  21.852  54.852 
89.449  21.737  58.547 
88.127  21.403  55.219 
90.817  21.024  66.591 
90.247  22.032  56.467 
94.509  26.440  56.692 
94.455  24.973  59.500 
92.695  24.064  59.250 
93.567  23.842  59.516 
94.698  25.346  61.306 
92.325  22.734  60.865 
93.862  26.013  56.378 
98.845  29.443  56.287 
100.711  33.055  56.539 
95.162  27.374  55.047 
95.439  25.297  58.723 
95.373  27.531  53.870 
95.684  24.774  62.341 
98.643  27.914  60.163 
100.048  30.562  59.058 
95.950  28.536  52.110 
100.315  32.866  50.436 
101.388  31.994  62.177 
98.725  28.641  60.457 
103.058  36.178  57.643 
102.864  37.191  52.679 
102.555  34.488  62.340 
103.714  37.320  60.450 
103.207  36.600  54.603 
103.611  36.478  60.375 
103.526  37.099  55.269 
102.349  33.842  58.658 
105.421  41.232  59.548 
105.191  40.489  57.206 
104.003  37.979  54.543 
104.653  39.522  55.823 
105.651  43.345  62.660 
104.253  39.857  55.026 
105.064  44.235  53.784 
104.347  41.303  56.525 
104.510  41.786  55.059 
106.171  44.348  57.064 
105.802  43.233  58.059 
106.639  46.160  58.631 
106.224  45.591  59.394 
106.979  46.392  59.582 
107.124  47.945  57.083 
107.820  47.891  58.098 
106.999  47.830  59.771 
107.887  49.765  59.013 
108.276  49.616  59.230 
108.515  50.353  60.235 
108.902  50.972  60.120 
108.378  52.391  59.772 
109.201  52.497  59.877 
109.587  54.272  60.335 
109.877  54.328  59.634 
109.728  55.311  68.268 
110.408  59.726  60.817 
109.552  62.922  61.782 
109.917  59.044  57.465 
109.906  61.399  59.740 
109.912  63.718  63.622 
110.340  58.842  62.285 
109.093  62.274  55.353 
108.972  65.103  59.952 
109.501  64.264  58.920 
108.950  65.048  56.700 
109.431  66.265  59.563 
109.520  65.941  60.789 
108.775  64.791  58.564 
108.953  66.949  61.800 
109.190  67.908  60.111 
108.914  68.205  59.178 
108.602  69.442  60.191 
108.424  70.228  58.375 
108.441  70.091  59.083 
108.086  71.522  58.645 
107.217  72.921  59.616 
107.371  72.665  60.197 
107.518  72.813  57.877 
107.454  71.947  59.665 
107.619  74.911  60.164 
103.695  83.418  60.122 
107.195  75.612  59.647 
102.731  85.440  59.278 
106.458  77.038  58.694 
106.375  77.022  58.099 
105.495  80.488  59.975 
102.435  86.058  62.643 
103.215  83.708  66.996 
105.208  80.932  57.598 
104.927  82.106  58.683 
103.788  83.463  61.517 
103.207  83.880  52.835 
103.859  83.572  54.067 
105.955  80.079  59.700 
99.756  89.809  59.919 
96.254  94.491  61.619 
98.873  91.690  58.843 
106.531  77.476  59.010 
95.279  93.476  49.966 
102.253  85.746  57.031 
89.951  98.985  53.449 
100.745  87.989  63.964 
99.209  87.687  68.613 
99.758  87.516  67.072 
98.462  89.387  67.428 
95.920  93.109  64.836 
99.578  88.927  63.120 
94.868  95.305  63.804 
93.322  95.614  65.154 
97.999  90.665  65.189 
91.342  95.618  48.100 
90.734  98.068  54.721 
93.373  96.299  64.334 
92.764  96.329  64.242 
94.464  94.727  64.498 
88.494  98.903  69.306 
92.377  97.383  59.575 
89.656  98.959  62.936 
90.751  98.863  57.441 
88.958  100.018  62.369 
88.844  99.446  65.208 
91.188  98.657  58.077 
82.978  103.226  62.411 
91.757  98.247  62.129 
93.239  96.525  62.550 
82.105  103.825  56.534 
84.557  102.522  62.355 
82.617  103.715  58.188 
82.272  103.519  63.202 
85.245  102.635  55.532 
81.518  103.891  60.315 
81.236  104.305  62.030 
77.127  105.976  59.856 
80.567  104.034  55.989 
77.263  106.796  61.320 
78.460  106.120  60.512 
74.652  106.642  53.092 
78.353  105.579  59.453 
73.281  107.617  57.751 
78.351  105.334  55.769 
71.448  107.870  54.876 
71.623  108.370  59.075 
73.198  107.639  53.858 
75.629  107.115  56.691 
69.854  107.826  54.582 
69.816  107.728  55.489 
75.187  105.950  48.484 
72.406  107.696  53.782 
67.929  109.091  56.037 
71.140  107.984  55.289 
67.400  109.227  56.756 
67.702  108.726  56.772 
66.939  109.230  57.320 
64.838  109.122  59.625 
65.993  109.326  59.415 
63.158  109.485  59.211 
64.156  109.418  58.061 
63.942  109.386  60.191 
63.257  109.424  65.712 
60.034  110.152  61.768 
55.068  109.130  64.232 
61.853  109.235  59.067 
60.305  109.797  58.623 
55.583  109.719  56.690 
52.257  109.455  59.190 
59.106  109.553  67.887 
53.160  109.301  56.300 
55.732  109.319  57.467 
58.985  109.627  65.389 
54.141  109.131  67.696 
47.380  107.379  59.737 
47.685  107.847  63.216 
51.951  108.706  57.072 
51.265  108.537  52.742 
47.995  107.600  60.090 
47.987  107.454  56.484 
45.370  106.258  60.778 
43.410  106.051  60.502 
42.662  105.591  60.281 
41.090  105.470  59.896 
40.832  105.320  60.770 
51.572  109.224  57.770 
41.428  105.524  61.317 
40.266  104.955  58.790 
39.277  104.095  61.114 
36.939  104.103  60.812 
39.047  104.739  60.601 
37.868  103.650  60.649 
36.832  103.844  59.970 
35.583  103.227  62.096 
34.135  102.815  59.981 
33.699  102.720  58.629 
32.455  101.585  62.343 
34.045  101.793  64.370 
29.645  99.547  61.724 
28.439  99.470  61.669 
36.432  102.875  67.375 
31.915  101.405  60.582 
34.103  101.879  67.131 
21.005  91.395  62.082 
17.213  84.959  66.161 
26.024  97.677  62.030 
25.113  96.536  64.143 
25.416  96.768  61.618 
19.369  88.607  67.806 
24.044  94.811  66.868 
23.242  93.630  63.446 
23.073  94.121  60.517 
24.724  96.057  60.556 
24.346  95.849  61.591 
24.437  95.201  60.874 
21.971  93.234  62.914 
22.104  92.789  62.348 
19.764  88.507  59.057 
25.778  97.331  60.615 
20.298  90.798  63.225 
20.318  91.427  59.525 
20.434  90.037  64.376 
19.276  88.948  61.663 
20.101  89.904  58.623 
18.899  87.011  57.465 
21.011  91.374  58.802 
18.271  86.927  66.044 
21.007  90.489  68.175 
20.610  90.637  58.819 
17.954  85.957  68.911 
17.857  85.790  60.910 
15.915  82.504  61.364 
16.641  82.522  60.826 
15.515  80.850  65.540 
16.256  82.007  60.753 
15.599  81.362  60.690 
17.675  84.619  62.450 
15.164  80.918  61.444 
14.937  80.244  61.030 
14.274  77.722  63.106 
14.642  78.185  62.466 
13.778  76.129  63.846 
12.950  74.203  66.043 
10.471  65.355  57.970 
12.670  72.568  64.814 
13.295  72.086  53.665 
13.251  74.484  60.812 
12.678  71.530  58.046 
11.520  71.197  66.165 
13.133  73.919  64.374 
11.094  66.738  67.372 
13.190  73.931  60.092 
11.528  68.203  58.821 
12.210  69.245  56.424 
13.117  73.005  62.511 
10.730  64.293  62.204 
12.717  72.183  62.033 
10.678  61.698  55.818 
10.730  66.601  59.441 
11.492  67.634  58.971 
11.099  66.136  65.401 
10.641  64.495  59.919 
12.134  68.542  59.290 
10.306  64.034  60.452 
10.426  64.166  59.563 
12.328  70.548  59.571 
10.697  56.803  60.555 
11.404  55.797  66.275 
12.019  55.382  66.088 
10.452  60.492  56.178 
11.685  53.210  63.933 
10.979  53.233  54.703 
11.018  56.885  52.962 
11.224  52.848  62.143 
11.281  55.996  56.965 
12.001  51.798  61.686 
12.443  47.611  59.562 
12.266  49.369  62.122 
12.552  46.108  59.230 
12.350  48.510  60.983 
13.022  47.198  59.900 
12.310  46.626  59.860 
11.912  48.884  53.241 
13.541  44.718  62.854 
13.833  42.513  61.066 
13.294  43.776  59.257 
15.075  37.711  62.225 
16.412  35.395  55.303 
13.396  43.071  58.680 
15.017  41.139  51.158 
13.282  45.618  58.118 
15.089  38.689  54.175 
15.300  36.858  62.427 
15.827  36.819  61.508 
15.674  38.435  65.528 
19.483  30.093  59.113 
16.101  35.576  63.104 
16.700  34.431  62.881 
18.254  33.226  52.168 
16.964  34.790  60.093 
20.202  31.402  52.618 
17.762  33.338  59.867 
19.790  33.657  48.337 
20.300  29.861  58.082 
18.142  33.401  68.395 
19.530  30.522  60.316 
17.494  33.744  56.657 
18.298  32.402  59.855 
29.333  23.048  46.842 
28.207  22.131  61.256 
28.127  21.632  55.441 
21.904  27.912  54.993 
29.110  22.989  47.602 
24.957  24.453  56.426 
29.866  20.461  53.015 
25.817  23.143  58.577 
30.565  19.654  59.629 
29.673  21.012  60.177 
33.135  18.057  56.478 
27.506  22.227  57.395 
28.313  21.675  60.256 
26.721  22.651  58.595 
27.114  22.944  59.882 
35.031  16.493  55.566 
33.417  17.474  59.542 
33.913  17.885  59.174 
33.914  17.578  60.267 
30.643  19.883  55.021 
40.892  12.844  61.953 
35.921  15.577  55.417 
42.343  14.097  52.186 
35.119  17.173  54.955 
36.718  14.944  58.038 
43.396  13.935  51.250 
34.998  16.637  57.014 
37.791  15.075  61.187 
39.340  14.076  61.294 
37.964  14.849  59.765 
38.672  14.373  56.737 
39.362  14.674  55.441 
39.066  15.462  53.412 
44.336  12.459  58.565 
43.085  12.829  57.484 
43.713  13.423  56.969 
44.434  12.373  57.793 
45.275  12.048  57.649 
46.225  11.736  57.845 
46.744  12.032  57.158 
47.855  11.476  57.555 
47.774  11.958  57.687 
49.427  11.546  58.292 
48.799  11.961  58.688 
52.203  10.641  59.127 
49.550  11.456  61.179 
51.320  10.932  59.745 
50.564  11.427  59.613 
54.044  9.934  64.358 
56.503  9.869  54.400 
68.007  11.678  50.626 
56.711  9.718  56.627 
67.282  12.312  48.486 
63.697  12.443  46.986 
62.578  10.308  54.399 
59.239  9.778  53.849 
60.627  10.307  53.897 
67.873  11.619  52.387 
54.033  10.167  61.465 
70.042  11.297  56.912 
65.222  10.777  56.960 
64.985  10.740  55.512 
65.911  10.630  56.568 
69.177  10.996  55.805 
67.971  11.242  50.174 
70.118  11.612  56.376 
68.346  11.673  48.973 
71.094  11.559  59.176 
68.733  10.975  57.718 
70.791  11.230  58.683 
76.496  14.035  53.024 
70.822  11.840  57.908 
78.320  15.385  52.177 
74.658  13.266  53.829 
75.613  13.391  54.935 
78.021  15.050  51.307 
75.917  13.588  52.561 
74.592  12.865  64.464 
75.068  12.417  59.834 
78.803  14.803  58.474 
80.228  15.092  56.600 
79.431  14.798  57.765 
81.091  16.088  56.906 
82.114  16.510  57.499 
82.600  16.650  57.444 
83.004  17.059  56.753 
83.561  17.859  56.449 
85.554  18.595  56.106 
84.899  18.642  56.789 
86.998  19.516  55.542 
87.230  20.093  54.876 
87.032  20.420  55.786 
87.841  20.971  55.939 
88.197  21.310  56.144 
89.245  22.241  55.546 
88.929  21.567  55.622 
89.062  21.558  56.482 
89.219  21.379  55.988 
90.326  22.616  56.995 
90.688  22.123  57.128 
92.993  24.945  54.991 
99.667  31.103  53.578 
90.233  20.825  65.743 
92.846  25.613  54.893 
89.362  19.828  66.628 
96.285  25.691  64.188 
96.014  24.553  65.422 
95.755  25.556  60.513 
97.089  29.892  50.808 
95.070  26.965  53.260 
98.813  29.704  55.340 
99.500  30.406  57.475 
100.815  34.068  50.705 
96.686  28.590  54.399 
97.748  28.459  57.350 
104.317  38.644  66.102 
97.924  29.091  56.013 
102.316  34.752  64.333 
98.715  28.518  59.687 
99.225  29.705  60.189 
105.009  39.433  58.827 
102.822  36.306  56.711 
102.018  33.364  55.415 
103.058  36.493  55.103 
99.021  29.214  58.706 
102.571  34.370  57.137 
104.939  40.743  57.638 
104.395  37.992  62.758 
105.236  40.083  69.747 
105.340  40.375  61.385 
105.850  42.862  59.799 
105.649  40.481  66.046 
105.244  43.702  56.253 
105.325  42.165  55.730 
103.606  38.565  55.238 
106.545  44.952  57.477 
106.535  45.418  58.092 
106.580  44.959  58.249 
106.879  45.299  57.429 
107.006  45.784  59.025 
107.457  47.097  59.590 
107.892  48.130  59.276 
108.043  48.914  59.699 
107.461  47.511  59.174 
108.032  50.325  58.888 
108.759  50.899  58.732 
108.230  51.615  59.471 
108.931  52.289  59.128 
109.301  53.308  59.465 
109.780  55.753  61.347 
108.963  53.551  59.816 
110.187  56.547  56.923 
110.120  58.205  62.871 
109.988  54.406  60.967 
109.511  54.673  62.699 
109.588  57.770  53.519 
110.224  55.165  64.097 
109.706  58.700  60.709 
109.287  63.011  56.970 
108.995  64.017  58.302 
108.754  62.599  56.775 
109.241  65.307  56.387 
108.941  65.266  57.150 
108.913  66.417  59.388 
109.013  67.379  58.972 
108.642  67.970  59.850 
108.614  68.721  59.833 
109.023  68.294  58.710 
108.581  69.012  58.828 
107.842  70.218  58.150 
108.236  71.007  58.721 
107.553  71.937  58.549 
107.818  73.239  58.003 
107.282  72.815  58.726 
107.674  72.744  59.624 
107.241  73.862  58.593 
107.615  74.829  58.746 
107.785  74.383  59.282 
106.140  76.233  59.212 
107.207  75.701  58.815 
105.382  80.482  56.998 
106.728  76.472  56.979 
106.232  78.801  56.110 
103.594  83.444  55.913 
105.875  79.576  55.450 
101.635  87.789  59.343 
101.088  87.513  59.531 
105.787  80.324  59.061 
103.458  84.125  58.454 
103.422  82.945  56.273 
97.277  93.996  57.970 
97.021  93.127  53.877 
106.200  79.542  59.963 
98.635  86.730  46.036 
95.223  94.486  62.587 
96.076  94.168  53.533 
95.845  93.993  59.824 
95.659  95.265  57.183 
99.565  89.115  63.923 
96.934  90.381  67.601 
94.782  95.437  54.331 
93.077  96.142  53.997 
98.270  91.413  61.736 
98.264  92.055  56.512 
93.316  95.873  66.107 
94.551  93.727  66.300 
94.625  95.801  54.817 
95.941  94.412  62.520 
91.075  98.220  52.462 
96.501  93.768  52.332 
95.441  94.771  53.960 
95.451  95.199  62.445 
98.331  91.999  59.177 
88.434  100.029  58.531 
90.736  97.365  67.706 
90.513  98.326  60.202 
85.605  102.636  60.155 
92.689  95.954  52.341 
87.974  100.213  55.476 
84.696  102.743  61.617 
91.984  97.548  58.453 
86.921  101.290  64.996 
82.983  103.592  59.043 
93.690  96.466  58.109 
84.383  103.062  55.291 
73.245  107.748  60.138 
81.814  104.085  57.746 
82.562  103.735  62.329 
82.868  103.303  63.884 
76.436  106.467  58.807 
77.770  105.954  61.172 
78.641  105.732  57.013 
79.446  105.416  58.761 
70.651  108.576  62.133 
81.695  104.304  59.718 
69.590  109.235  61.220 
76.734  106.565  59.916 
69.936  109.172  60.430 
75.375  106.520  56.987 
68.705  109.631  63.239 
72.544  107.912  55.724 
76.304  106.782  59.541 
71.274  107.365  51.317 
68.733  108.402  54.238 
75.588  106.935  58.009 
70.143  108.256  56.747 
69.323  108.321  55.049 
66.477  109.349  57.115 
66.136  109.120  58.001 
64.852  109.031  58.300 
63.414  109.603  60.172 
65.161  109.309  57.974 
65.159  108.839  57.117 
63.169  109.801  56.928 
63.096  109.916  60.477 
60.879  110.452  63.153 
57.924  109.730  56.921 
61.745  110.096  61.233 
58.664  109.520  55.072 
59.325  109.964  60.152 
57.700  109.704  66.196 
52.790  109.129  60.455 
51.075  108.715  59.778 
57.179  110.018  59.252 
52.023  108.506  55.660 
54.329  108.293  51.645 
53.822  109.495  54.363 
49.410  107.985  58.684 
50.607  107.258  51.851 
46.927  107.064  60.313 
49.875  108.629  63.460 
52.608  109.037  64.446 
46.710  106.818  59.225 
45.935  106.759  60.451 
44.578  106.013  59.343 
41.958  105.483  61.186 
42.287  105.084  61.455 
41.412  105.336  59.215 
40.591  105.223  59.219 
41.539  105.579  60.316 
42.340  105.725  59.137 
40.499  104.846  60.182 
38.972  104.488  59.657 
36.813  103.457  61.326 
37.539  104.081  59.984 
35.816  103.450  57.964 
35.821  103.028  63.771 
33.260  102.201  61.069 
31.014  100.558  67.665 
34.346  102.195  63.575 
29.703  100.567  62.300 
31.854  101.269  58.106 
34.468  102.797  60.708 
35.158  102.845  65.735 
34.096  102.501  61.981 
38.165  104.010  66.015 
31.874  101.327  53.596 
21.008  91.529  61.146 
23.082  94.914  60.713 
27.319  97.123  69.688 
25.595  97.207  63.754 
27.173  98.170  63.471 
29.590  99.350  63.375 
27.620  96.870  68.215 
24.452  94.263  71.130 
21.966  92.025  68.462 
25.070  96.654  60.717 
24.965  96.618  57.542 
24.722  96.335  61.992 
18.139  86.748  62.623 
19.800  88.674  54.424 
20.825  90.922  64.243 
19.417  87.538  61.240 
19.915  88.822  62.652 
20.878  90.523  54.267 
22.365  93.851  57.047 
19.466  88.198  57.689 
19.451  86.812  53.808 
21.774  92.458  58.160 
17.133  84.495  60.327 
18.469  85.571  60.492 
20.001  88.852  58.272 
16.224  82.931  63.350 
16.776  83.049  59.854 
16.314  82.910  60.813 
16.569  83.090  59.253 
16.181  82.796  60.023 
15.303  81.485  61.412 
14.891  80.173  60.150 
15.283  80.847  60.533 
14.686  79.435  61.087 
14.196  78.464  61.837 
14.763  78.239  60.654 
14.098  77.530  60.433 
14.587  77.425  63.881 
13.138  74.172  68.547 
13.552  74.151  61.818 
12.992  73.759  62.253 
14.082  74.550  59.238 
13.919  74.837  62.143 
11.278  62.461  67.364 
13.641  72.541  61.399 
11.861  69.023  58.421 
11.149  69.209  65.469 
10.654  67.683  65.405 
12.857  72.085  57.344 
10.978  55.051  55.742 
12.500  63.194  69.981 
12.842  73.496  64.500 
11.933  70.836  60.864 
10.672  67.047  63.025 
11.035  67.491  63.613 
11.770  59.948  68.386 
10.254  64.165  61.661 
11.921  69.855  58.174 
12.891  71.410  56.774 
10.283  59.815  60.394 
10.645  60.592  58.977 
10.636  59.085  61.005 
11.130  66.715  58.774 
11.008  53.854  56.418 
11.048  57.376  61.181 
11.673  59.549  66.958 
11.647  56.140  57.889 
11.680  52.528  59.650 
11.967  60.783  52.284 
11.453  51.215  59.181 
11.888  51.529  61.269 
12.739  50.067  60.792 
12.233  50.740  61.503 
12.280  49.951  61.471 
12.382  47.342  52.820 
12.754  49.240  60.918 
13.679  41.585  53.548 
11.571  49.679  55.308 
13.465  43.149  54.592 
14.181  41.581  58.736 
13.565  43.364  60.687 
13.843  41.794  59.271 
15.425  38.145  55.565 
14.452  39.723  56.883 
16.446  35.316  64.444 
14.649  38.717  59.994 
13.996  40.950  55.022 
14.861  40.846  62.923 
16.947  33.787  61.396 
15.528  39.092  62.719 
16.299  34.679  62.137 
19.144  31.777  56.411 
15.013  37.637  57.661 
21.562  27.842  61.411 
16.959  34.999  56.096 
18.270  31.752  63.412 
24.798  24.498  63.075 
19.697  31.058  56.581 
16.008  36.239  60.712 
21.541  27.314  63.460 
21.477  28.247  55.642 
23.906  25.115  58.822 
25.222  24.425  58.132 
23.320  25.882  60.172 
26.984  23.576  50.600 
27.277  23.314  51.369 
27.442  22.190  56.287 
27.545  25.978  42.240 
28.902  20.636  55.862 
24.513  25.320  52.485 
30.536  20.109  53.221 
22.546  25.967  62.299 
22.517  26.402  57.199 
22.189  27.282  58.049 
27.756  22.235  52.858 
31.027  19.797  55.713 
30.823  19.579  58.752 
28.654  21.472  56.792 
34.458  17.197  57.522 
40.080  14.472  54.709 
32.001  19.032  59.093 
32.293  18.409  58.688 
35.077  16.477  57.721 
38.311  16.903  51.934 
37.964  14.627  56.950 
36.293  16.523  55.402 
38.778  14.996  53.989 
41.369  14.620  52.344 
41.019  14.647  53.761 
36.771  15.630  60.230 
39.220  14.155  56.603 
39.883  14.203  56.073 
43.196  12.813  56.930 
40.769  14.110  54.161 
41.493  13.690  55.286 
42.700  13.548  54.924 
44.080  12.949  56.538 
44.266  12.534  57.016 
45.055  12.535  56.271 
45.910  12.398  57.305 
45.052  12.170  56.726 
46.541  11.690  56.898 
47.226  11.825  56.574 
47.980  11.371  56.912 
48.217  11.776  57.793 
48.588  11.559  57.568 
49.869  11.059  58.541 
50.512  11.255  59.140 
50.964  11.028  58.967 
54.563  10.128  58.128 
58.008  9.660  62.828 
55.352  10.048  59.986 
53.478  10.656  57.098 
56.162  12.193  44.528 
52.097  11.093  62.810 
56.273  10.889  50.114 
68.874  11.713  48.951 
66.724  13.249  44.228 
61.413  11.541  47.632 
59.172  10.311  50.590 
56.799  9.821  55.986 
66.059  11.184  53.499 
56.408  9.706  57.648 
70.863  11.457  55.628 
64.405  10.828  54.287 
66.018  12.908  47.543 
68.924  10.862  57.004 
65.725  10.551  54.285 
62.409  10.888  50.557 
66.394  10.847  54.271 
71.506  11.555  55.644 
77.770  13.685  61.150 
75.734  13.155  57.958 
67.321  10.943  56.872 
77.367  14.572  54.234 
73.066  11.984  62.043 
73.210  12.311  59.678 
78.481  13.497  63.914 
73.944  13.421  53.946 
72.275  12.488  52.087 
75.085  13.109  58.716 
79.027  14.986  53.650 
78.919  14.501  56.176 
79.813  15.621  53.515 
76.242  12.994  64.272 
81.039  15.332  55.970 
81.782  16.103  56.288 
82.519  16.631  55.779 
82.193  16.664  56.416 
82.738  17.363  56.410 
85.018  18.066  56.155 
86.370  19.619  55.768 
85.759  19.149  54.344 
84.896  18.132  55.399 
86.440  19.618  54.921 
87.584  20.719  54.694 
87.774  20.813  56.785 
88.289  20.912  55.222 
89.257  22.239  54.296 
90.430  22.722  55.008 
89.568  22.455  56.528 
91.838  23.544  56.853 
92.305  25.443  54.538 
92.344  24.022  56.417 
91.942  24.182  56.900 
100.048  31.063  56.382 
96.684  26.445  61.388 
94.998  25.950  57.454 
91.884  22.873  60.439 
92.335  24.800  54.704 
97.566  28.067  56.581 
94.745  24.207  62.943 
96.802  26.906  58.326 
93.928  24.957  58.586 
98.952  29.535  58.261 
94.849  28.710  51.748 
100.926  32.445  57.256 
98.185  27.989  66.088 
95.807  27.176  55.864 
102.410  33.844  57.894 
97.795  29.647  52.799 
98.450  28.365  62.574 
105.738  42.876  57.266 
98.273  31.363  52.837 
101.947  33.977  53.068 
102.858  35.303  53.977 
104.844  38.239  59.333 
105.429  40.560  60.837 
105.179  39.794  63.880 
103.901  38.435  60.194 
104.833  41.277  61.087 
105.016  42.937  55.685 
105.644  42.304  59.175 
104.303  41.015  54.873 
106.328  43.281  63.681 
104.694  39.313  66.498 
105.439  42.724  56.449 
105.583  44.603  54.802 
105.736  43.547  56.851 
106.128  45.274  56.827 
105.683  43.640  59.242 
107.048  46.026  57.764 
106.929  47.411  58.055 
107.648  47.158  58.420 
107.644  47.788  57.617 
107.952  47.855  58.672 
108.464  49.678  59.971 
108.667  50.346  57.908 
108.006  50.959  58.157 
108.448  51.408  58.738 
108.576  52.871  59.104 
108.825  53.300  58.647 
108.935  53.589  57.944 
109.786  55.012  58.240 
110.193  54.789  59.712 
109.990  55.688  67.965 
109.511  57.496  71.506 
109.111  63.065  60.114 
109.846  56.499  54.973 
109.817  60.328  60.154 
108.999  59.626  52.564 
109.359  62.428  58.132 
108.843  63.303  54.915 
109.219  64.234  56.392 
108.705  63.417  56.134 
108.626  64.638  55.972 
108.848  66.091  57.633 
109.396  66.468  59.134 
108.920  67.144  59.457 
109.223  66.762  58.579 
108.558  67.987  58.421 
108.460  69.399  58.483 
108.401  70.220  57.345 
108.020  70.857  57.945 
107.939  72.435  58.440 
107.929  71.604  56.385 
107.363  72.932  57.228 
107.581  73.693  59.311 
107.109  74.197  57.587 
107.550  74.118  58.370 
106.100  79.450  57.567 
106.637  78.642  57.613 
106.607  76.707  60.068 
106.422  77.484  56.121 
105.634  78.254  53.388 
105.199  78.551  50.083 
103.551  84.093  57.102 
104.922  80.340  66.790 
104.711  80.598  53.534 
104.792  81.232  58.988 
98.496  91.451  54.205 
97.769  92.093  55.175 
104.568  80.280  64.476 
99.527  89.673  54.896 
99.500  88.417  52.083 
104.317  82.740  56.759 
99.878  89.855  59.104 
98.451  89.346  50.517 
99.014  90.585  56.037 
99.626  89.718  63.411 
95.878  94.013  55.904 
94.898  95.065  53.165 
102.611  84.464  62.488 
103.414  84.712  58.122 
100.408  87.621  65.717 
94.199  94.123  66.686 
90.271  98.963  56.344 
97.746  92.696  59.450 
93.272  96.857  57.410 
95.790  92.873  49.898 
96.383  93.603  58.670 
94.343  95.825  60.525 
92.266  96.899  51.207 
99.330  89.084  64.599 
98.485  90.872  65.222 
92.060  96.528  67.228 
91.213  97.996  53.053 
89.019  99.228  64.252 
91.957  98.281  63.474 
90.753  98.444  63.982 
91.960  97.660  60.276 
92.802  96.620  54.817 
87.528  100.986  57.843 
87.324  100.784  53.146 
88.454  99.511  68.668 
93.930  95.289  65.966 
91.255  98.313  61.356 
86.860  100.659  51.917 
90.058  98.054  67.176 
83.208  103.112  60.222 
79.799  104.727  53.419 
90.695  99.233  61.654 
80.279  104.895  62.590 
78.605  105.139  60.360 
83.365  103.239  54.007 
76.207  106.470  57.803 
84.097  102.400  54.447 
73.774  106.695  50.461 
76.135  107.373  59.863 
84.935  102.283  52.309 
74.153  107.732  57.893 
74.939  106.724  61.165 
75.328  106.336  54.011 
71.399  107.983  53.982 
72.576  107.570  56.569 
68.673  107.952  53.084 
67.937  108.241  54.624 
70.471  108.098  56.045 
67.996  109.625  62.649 
66.185  108.682  56.841 
66.387  108.800  55.792 
66.958  109.044  56.358 
68.008  108.873  57.487 
65.827  109.141  57.579 
63.759  109.609  57.549 
62.288  109.479  57.947 
62.451  110.002  57.409 
62.954  109.735  57.695 
60.142  109.773  60.473 
61.795  109.955  59.618 
56.994  109.716  55.144 
59.130  109.964  61.834 
52.783  109.185  53.552 
56.540  109.918  58.600 
52.091  108.822  59.798 
59.461  109.518  56.901 
55.765  109.314  52.349 
52.538  108.839  56.114 
50.316  107.559  57.763 
51.438  108.901  56.922 
50.700  107.956  55.965 
52.608  108.233  51.833 
49.994  107.416  59.075 
45.244  106.656  60.028 
46.028  106.461  59.709 
49.829  107.822  54.617 
45.645  106.609  57.847 
48.755  107.973  59.461 
50.424  108.809  62.890 
43.273  105.496  60.398 
43.893  106.115  61.340 
42.058  105.521  59.641 
40.996  105.019  58.393 
39.930  104.938  61.634 
39.317  104.526  58.695 
38.338  104.319  58.829 
38.318  104.237  60.235 
37.076  104.238  59.355 
35.707  103.981  59.737 
36.282  103.900  59.517 
35.857  103.060  56.400 
33.278  102.397  59.388 
31.579  100.784  54.310 
26.872  97.981  60.088 
31.945  101.775  61.924 
32.441  101.917  61.231 
33.087  102.613  62.926 
36.157  103.670  60.761 
26.093  97.308  65.743 
32.225  101.887  58.713 
24.994  94.443  69.019 
29.886  100.432  63.945 
21.988  93.728  62.206 
22.526  93.929  62.206 
31.361  101.199  62.620 
22.570  92.080  68.876 
26.075  97.571  63.609 
22.898  94.309  62.798 
25.494  97.100  63.023 
21.900  92.217  64.161 
31.845  101.232  56.022 
19.253  88.231  64.203 
20.281  91.311  56.601 
29.663  100.157  55.327 
25.254  96.270  54.160 
22.054  93.194  56.578 
22.561  93.078  54.427 
25.676  97.094  56.609 
20.025  88.282  58.296 
20.732  91.108  62.370 
20.017  89.160  56.531 
19.566  88.294  56.873 
19.656  88.395  54.795 
20.100  90.655  58.080 
19.318  86.971  60.841 
18.428  87.003  61.794 
19.035  87.709  60.540 
16.345  82.543  58.755 
16.083  82.189  60.258 
15.936  81.684  60.096 
15.724  81.180  58.864 
15.438  81.157  59.716 
15.383  80.378  60.491 
15.063  79.460  60.770 
14.670  79.548  60.300 
14.367  78.382  60.423 
14.801  77.826  62.892 
14.108  77.622  62.176 
13.697  77.117  62.757 
13.805  74.238  61.336 
13.426  75.827  64.114 
13.438  74.998  62.002 
13.232  73.969  56.585 
12.653  72.083  59.932 
13.004  71.326  55.823 
10.626  66.071  61.858 
12.012  71.875  65.122 
11.316  70.062  66.176 
12.476  69.704  54.165 
11.822  70.487  61.236 
10.735  65.026  60.326 
10.555  63.057  65.304 
13.253  73.321  59.018 
12.730  70.425  56.679 
11.165  61.482  66.878 
13.256  69.801  56.932 
11.433  63.176  63.214 
10.805  60.370  64.646 
10.960  62.237  61.923 
10.613  59.339  56.517 
10.746  58.354  54.957 
11.465  58.136  68.440 
11.651  66.773  58.177 
10.808  57.226  57.527 
10.874  58.179  57.705 
11.228  55.731  54.858 
11.639  52.021  58.155 
12.973  51.766  46.172 
11.207  54.921  62.566 
10.868  53.917  57.619 
11.922  53.520  61.068 
12.280  48.807  60.530 
12.608  47.046  60.670 
12.471  48.226  58.960 
11.596  52.275  52.664 
12.067  49.907  59.488 
11.638  54.414  51.072 
11.912  46.701  58.503 
12.925  45.135  60.464 
13.919  44.760  61.006 
13.372  44.138  57.619 
14.359  39.403  60.391 
12.033  48.674  56.624 
13.621  43.799  61.736 
16.439  39.075  50.914 
14.349  41.436  57.457 
13.445  44.060  58.339 
14.508  40.350  62.124 
16.826  35.026  58.268 
20.366  30.978  67.794 
17.306  33.560  59.763 
14.940  38.323  61.508 
15.586  38.132  64.753 
24.297  25.300  57.306 
16.383  35.332  55.831 
18.551  31.526  62.719 
19.576  30.850  57.356 
20.951  30.219  55.153 
19.766  30.484  66.238 
21.875  27.466  56.253 
23.472  26.423  59.522 
23.193  25.489  60.876 
18.678  32.354  66.071 
18.006  33.938  52.017 
