105.731  77.222  56.380 
105.159  78.992  54.426 
104.607  78.531  50.520 
103.103  84.668  57.560 
104.265  80.561  68.316 
104.166  81.909  52.907 
104.453  82.181  60.259 
97.687  91.629  55.006 
98.166  91.534  56.062 
105.067  80.551  65.724 
99.999  89.099  55.656 
100.367  88.763  53.255 
103.902  83.013  57.585 
101.595  88.302  60.484 
98.832  89.701  51.041 
98.926  90.612  57.398 
98.918  90.885  64.049 
96.771  93.343  55.240 
94.124  94.907  53.322 
102.780  85.961  62.957 
103.052  85.358  58.654 
101.352  85.954  66.198 
94.094  94.739  66.805 
90.435  99.071  55.836 
97.509  93.163  60.544 
92.224  97.123  55.750 
96.643  92.451  50.521 
95.796  94.175  58.008 
94.942  95.037  62.148 
92.951  95.935  49.987 
99.860  89.835  65.303 
98.523  90.771  65.708 
91.217  96.890  66.748 
92.111  97.265  51.297 
88.929  99.852  64.142 
92.813  97.786  64.081 
91.889  97.966  63.723 
94.001  96.803  60.472 
92.292  97.142  52.761 
87.297  100.638  56.822 
86.539  101.989  55.003 
87.719  99.896  69.494 
93.701  94.797  66.007 
91.692  97.775  60.698 
86.726  100.254  51.849 
90.382  98.244  66.925 
84.396  101.805  60.088 
79.436  105.203  54.223 
90.565  98.957  63.382 
81.500  103.867  62.457 
79.061  104.507  60.089 
83.996  103.091  54.730 
75.828  106.986  55.636 
84.564  102.972  54.725 
73.292  107.008  51.241 
75.131  106.624  59.231 
84.545  103.548  52.954 
73.897  107.521  56.762 
74.338  106.843  60.914 
76.152  106.470  53.269 
70.234  107.548  52.187 
71.978  107.844  58.482 
68.447  107.081  52.944 
68.634  107.371  54.895 
69.823  107.786  55.782 
70.034  107.927  61.060 
67.066  107.895  56.542 
66.083  108.406  56.157 
66.468  108.356  56.820 
67.005  108.083  57.416 
65.180  108.561  57.022 
64.436  108.318  57.042 
61.760  109.488  57.678 
62.481  109.096  57.215 
62.527  109.012  58.070 
60.790  109.956  59.985 
61.735  109.783  59.777 
58.109  109.199  55.852 
58.271  109.980  62.403 
53.384  108.395  54.421 
58.704  109.274  60.873 
52.276  109.114  61.283 
58.883  108.884  55.890 
57.083  109.188  52.129 
52.616  109.341  57.404 
50.548  108.735  58.814 
53.252  109.189  56.026 
52.094  107.921  54.556 
52.759  108.490  51.512 
49.409  107.983  59.304 
45.790  106.084  59.903 
46.285  106.809  59.880 
50.495  107.903  55.186 
45.466  106.035  58.164 
48.042  107.248  59.277 
49.973  107.994  61.395 
43.188  105.787  59.931 
44.086  106.419  60.996 
41.698  105.605  58.295 
41.685  105.651  58.825 
39.733  105.128  60.664 
39.559  105.082  59.204 
39.449  105.231  58.458 
39.142  103.850  59.897 
38.160  104.179  58.911 
35.322  103.232  60.231 
36.997  103.455  60.674 
35.729  103.092  56.247 
33.596  102.235  59.385 
31.623  100.930  53.165 
27.430  98.100  60.530 
30.638  100.645  61.482 
33.469  101.917  61.443 
33.402  101.472  62.612 
36.103  103.379  60.599 
26.202  96.592  65.485 
31.803  100.851  59.450 
26.026  96.693  67.898 
29.852  99.625  63.311 
20.925  91.853  59.830 
21.865  92.799  61.911 
31.035  100.116  62.608 
23.057  92.980  70.353 
24.944  95.975  64.078 
21.366  92.761  62.084 
26.707  96.667  63.427 
21.067  92.559  61.277 
32.062  101.472  56.390 
18.549  88.517  64.451 
21.572  93.191  56.901 
29.695  100.024  55.008 
26.562  96.933  53.904 
22.804  94.227  55.845 
22.143  93.272  54.803 
26.750  97.326  58.128 
19.284  88.304  59.292 
20.224  90.963  62.829 
19.795  88.615  56.676 
19.474  88.450  56.004 
19.376  88.251  55.437 
19.767  90.652  57.653 
18.188  87.312  60.331 
17.540  86.458  62.055 
18.907  87.898  61.139 
16.442  83.066  59.086 
16.022  81.918  60.016 
15.662  81.294  59.565 
16.081  82.351  59.561 
15.925  80.604  59.875 
15.001  79.968  60.404 
14.669  79.225  60.128 
14.889  79.786  60.912 
14.531  77.733  60.992 
14.108  78.069  62.416 
14.715  77.483  62.279 
13.777  76.261  62.723 
13.490  74.489  60.740 
13.450  76.243  64.955 
13.000  75.440  62.512 
13.473  73.595  56.930 
12.541  72.722  59.485 
12.839  71.401  55.199 
10.869  66.189  61.885 
12.056  71.442  67.357 
11.087  69.967  65.735 
12.906  70.155  54.536 
12.022  69.775  61.121 
10.923  64.034  58.972 
10.562  63.743  65.366 
13.603  72.803  58.022 
12.666  70.675  57.006 
11.251  61.604  69.359 
13.058  70.244  56.606 
10.232  64.157  61.901 
10.675  59.644  63.928 
10.642  63.203  61.844 
10.523  60.451  55.939 
9.727  58.655  57.176 
11.083  60.082  69.442 
11.153  67.121  59.324 
10.871  56.326  57.163 
9.924  58.484  58.017 
11.323  56.086  55.193 
11.444  52.756  57.787 
13.161  50.381  47.123 
10.756  55.449  62.384 
11.052  53.323  55.717 
11.426  53.452  61.820 
12.347  49.323  60.879 
12.322  47.190  60.384 
12.039  50.009  59.179 
11.894  51.898  52.600 
11.683  50.213  59.930 
11.464  56.573  50.638 
11.991  47.144  59.650 
12.982  45.263  60.371 
12.937  44.972  62.229 
13.104  43.788  57.871 
14.850  39.132  59.449 
12.057  49.940  55.950 
13.837  43.515  61.649 
16.425  39.176  50.610 
13.457  40.881  58.697 
12.870  43.790  59.422 
14.715  41.789  62.408 
15.483  35.933  58.479 
20.070  31.203  68.216 
16.596  34.242  59.793 
15.519  38.198  62.072 
15.758  38.612  64.483 
22.675  26.751  55.228 
15.542  36.214  56.123 
17.480  32.945  61.472 
20.122  30.671  57.052 
20.679  29.783  54.757 
20.888  28.659  64.375 
23.270  26.142  56.698 
23.636  26.480  59.986 
23.572  26.353  61.292 
19.003  30.849  63.844 
17.540  35.528  52.171 
31.500  18.667  55.183 
24.951  25.514  49.861 
28.577  20.929  56.642 
25.359  24.172  58.061 
27.695  22.359  55.267 
27.844  27.820  39.543 
31.836  19.640  51.017 
27.449  22.273  60.047 
26.305  23.959  62.509 
34.408  18.239  51.872 
30.561  20.787  59.873 
30.762  20.091  51.713 
29.736  20.128  58.886 
26.468  22.543  54.569 
35.493  17.109  54.918 
34.375  16.825  54.183 
29.656  21.019  51.079 
37.187  15.369  56.069 
31.499  19.934  62.161 
29.817  20.775  52.403 
40.353  14.315  55.153 
40.704  14.013  58.635 
39.728  14.557  54.330 
29.336  20.756  53.859 
40.179  15.065  52.702 
39.940  14.198  62.091 
40.633  14.052  56.964 
42.100  13.030  61.692 
41.716  14.404  55.711 
41.710  14.806  50.239 
39.436  14.190  55.353 
42.798  13.823  56.158 
43.621  13.605  55.701 
44.204  13.593  54.397 
44.685  12.846  56.782 
45.329  12.615  56.153 
46.419  13.089  56.970 
47.397  12.191  56.087 
47.159  11.781  56.886 
48.059  11.698  56.271 
48.236  11.885  57.127 
49.709  11.416  56.804 
49.585  11.498  57.614 
50.372  11.214  58.074 
54.591  10.610  49.994 
52.782  10.646  59.311 
52.353  10.887  58.590 
53.684  10.973  58.791 
53.354  10.641  57.601 
54.032  10.529  60.302 
55.295  10.569  56.292 
60.465  9.999  57.113 
57.377  10.526  51.173 
69.489  11.946  50.964 
65.252  10.572  52.105 
62.854  10.445  53.282 
60.930  11.745  47.589 
68.790  11.231  56.106 
64.497  11.414  50.499 
62.315  11.395  49.655 
53.926  10.723  56.892 
63.497  11.527  47.329 
69.357  11.147  55.837 
69.624  11.902  52.521 
69.706  11.323  53.958 
68.426  11.085  58.529 
75.592  13.009  58.337 
70.342  11.311  55.983 
75.053  11.936  59.834 
75.419  15.033  50.239 
72.120  12.378  51.077 
68.191  11.650  51.177 
77.686  13.885  58.762 
79.182  13.815  62.295 
77.414  15.309  51.696 
78.901  16.114  50.143 
78.458  15.392  51.706 
79.186  16.594  50.752 
77.952  14.496  54.769 
79.325  14.804  56.821 
78.965  15.195  55.013 
79.570  16.548  54.042 
81.214  16.244  55.058 
81.745  16.530  54.430 
82.333  17.082  54.704 
82.680  17.387  54.979 
83.746  17.452  56.677 
83.928  18.547  55.556 
85.388  18.486  55.942 
86.560  19.506  55.333 
87.136  20.115  53.906 
88.377  21.217  54.796 
87.540  21.134  54.440 
88.633  21.872  54.314 
89.879  22.421  54.233 
90.404  22.616  54.849 
91.113  23.341  56.560 
91.858  22.749  58.498 
90.930  22.574  56.393 
93.563  24.862  56.093 
94.362  25.825  54.141 
94.580  26.552  54.485 
93.593  25.607  53.723 
93.844  24.809  56.529 
93.238  25.702  52.823 
93.536  23.395  60.434 
95.506  28.159  50.847 
99.096  28.449  61.266 
96.752  28.563  52.096 
99.480  30.590  53.680 
96.849  25.687  58.921 
99.338  30.041  55.376 
99.041  28.999  56.590 
100.089  30.323  56.789 
103.364  36.358  56.734 
98.869  29.495  53.460 
100.814  31.288  55.424 
100.214  30.219  56.005 
101.529  32.908  53.546 
102.671  34.212  53.580 
101.563  34.390  51.700 
100.914  30.186  57.832 
104.513  37.334  57.649 
105.213  39.088  56.601 
104.614  37.889  62.593 
103.162  34.934  54.493 
106.231  41.463  59.033 
105.062  38.506  60.441 
105.531  39.710  61.686 
105.890  41.559  57.716 
105.176  40.829  54.072 
106.161  42.855  55.209 
105.941  41.529  56.427 
106.296  44.114  53.902 
105.597  41.388  59.540 
106.482  43.555  57.735 
107.214  45.879  57.231 
106.952  45.263  57.750 
107.351  48.602  57.989 
107.339  46.892  58.888 
107.645  47.715  58.328 
107.572  49.073  57.275 
107.348  48.807  59.451 
107.852  49.553  58.026 
107.750  50.306  58.090 
107.912  51.507  58.040 
108.569  51.774  58.578 
108.032  52.353  58.348 
109.155  54.079  58.951 
108.723  53.571  56.476 
109.729  55.683  59.767 
109.324  55.985  60.011 
108.742  56.461  53.325 
110.164  57.384  63.035 
107.789  60.015  47.266 
109.414  59.956  56.362 
108.952  61.204  56.031 
108.290  62.908  58.169 
109.208  61.468  56.767 
108.651  65.018  62.097 
108.625  63.610  54.750 
108.295  65.294  56.200 
108.895  65.821  55.770 
108.663  66.532  58.052 
108.479  67.401  57.051 
108.223  67.280  57.872 
107.844  68.757  58.253 
107.956  69.239  58.058 
107.568  71.303  58.301 
107.408  71.921  57.833 
107.853  71.492  57.533 
107.550  71.416  56.415 
107.659  72.318  57.118 
107.098  74.488  58.278 
106.918  74.780  57.210 
106.704  74.332  57.965 
106.316  75.114  57.408 
106.886  75.440  57.995 
105.298  78.703  55.461 
106.333  77.504  57.416 
106.216  76.599  55.995 
104.765  80.127  54.864 
105.122  78.100  53.084 
104.484  79.293  53.544 
102.930  84.784  56.825 
104.201  79.664  54.333 
102.777  84.062  52.401 
104.359  79.233  49.501 
104.087  83.275  55.458 
101.087  88.087  56.720 
104.857  81.463  62.598 
103.431  82.905  52.534 
96.276  93.442  54.784 
102.120  86.531  55.501 
96.948  92.920  58.132 
97.561  91.234  52.728 
96.402  92.827  65.757 
100.696  88.781  63.741 
97.621  89.975  66.999 
99.447  89.871  52.642 
96.536  92.944  64.388 
95.515  93.962  52.692 
93.016  97.019  52.357 
99.481  90.659  60.790 
94.612  95.248  59.949 
92.935  96.302  55.018 
94.032  96.137  63.396 
91.312  96.956  50.075 
100.393  88.493  51.981 
85.536  101.857  64.334 
90.545  98.505  64.997 
94.587  96.097  58.546 
93.073  96.577  53.730 
88.010  100.647  63.722 
91.034  98.280  54.121 
92.682  96.873  64.042 
90.274  99.503  61.662 
89.090  99.068  50.940 
89.633  99.669  57.691 
87.008  101.529  57.270 
81.703  103.875  58.379 
82.284  103.583  60.236 
89.672  99.649  62.158 
88.704  100.279  57.781 
86.910  101.670  54.449 
83.366  103.356  54.462 
87.923  100.628  60.804 
75.165  106.966  56.303 
81.766  103.889  61.727 
80.081  104.308  61.307 
81.490  104.006  53.275 
70.777  107.465  58.949 
74.735  107.173  57.229 
78.391  104.896  49.989 
71.301  107.825  61.002 
72.121  107.608  61.845 
78.332  105.009  60.186 
75.230  106.860  53.839 
75.853  106.287  56.031 
68.490  107.860  54.402 
70.248  107.322  52.825 
67.778  107.412  53.054 
69.332  107.103  52.397 
68.055  108.259  55.831 
67.299  108.124  55.176 
68.078  107.729  56.434 
66.524  108.038  54.861 
65.958  108.249  55.593 
64.995  108.413  57.855 
64.725  108.323  55.780 
63.786  109.183  56.809 
63.702  108.873  56.195 
62.542  109.574  58.070 
60.676  109.595  57.042 
61.901  108.968  57.333 
57.853  109.776  58.286 
62.476  109.589  58.853 
58.130  110.097  57.930 
56.542  109.564  66.056 
51.247  107.896  54.792 
54.517  109.866  57.204 
52.126  108.751  61.811 
59.356  109.171  53.684 
51.159  109.363  58.847 
54.439  109.397  55.037 
51.651  108.565  56.727 
49.770  108.181  58.439 
53.214  109.749  57.671 
51.310  109.017  58.529 
56.193  109.722  58.836 
48.220  107.542  59.766 
45.031  106.752  59.700 
42.417  105.788  58.241 
45.367  106.439  55.163 
46.345  107.145  59.376 
42.174  105.649  59.018 
44.076  106.485  60.005 
41.262  105.557  57.948 
41.018  105.023  58.489 
40.685  104.728  58.275 
38.966  104.748  58.528 
38.842  104.256  59.325 
37.718  103.704  58.143 
37.100  103.546  59.100 
36.053  103.430  59.237 
35.837  102.881  58.756 
33.442  102.422  55.193 
33.360  101.057  60.012 
33.987  102.191  60.390 
35.714  103.161  60.976 
32.223  101.139  64.146 
31.612  101.099  62.101 
35.454  101.204  47.930 
30.427  99.839  55.922 
28.414  99.220  57.244 
27.343  98.518  59.701 
32.881  101.666  61.276 
22.541  93.405  62.933 
17.323  85.122  67.919 
23.511  94.692  57.705 
31.623  100.913  58.952 
23.652  94.282  64.868 
30.399  100.094  57.182 
29.221  99.277  61.691 
18.988  88.918  63.402 
31.475  100.583  56.546 
20.540  90.899  56.119 
30.911  100.709  59.063 
20.370  91.070  55.098 
27.281  97.730  62.561 
27.874  98.768  57.930 
21.041  89.683  51.735 
19.834  89.818  57.029 
19.393  89.116  57.663 
20.319  90.240  55.362 
19.319  87.708  52.988 
18.942  87.334  57.228 
18.173  85.734  58.944 
19.955  90.164  64.925 
17.339  84.630  58.364 
17.300  85.125  59.198 
18.022  86.209  58.966 
18.638  87.342  56.332 
17.277  83.736  58.999 
16.511  82.769  58.708 
16.385  81.812  59.228 
15.624  80.603  58.975 
15.612  79.753  59.372 
15.374  79.771  59.806 
14.875  79.490  59.030 
15.164  79.101  60.313 
15.017  77.497  59.554 
14.095  77.512  61.811 
14.074  77.360  60.472 
14.349  77.444  61.338 
13.408  76.248  61.330 
12.693  72.901  65.856 
13.116  73.734  60.479 
11.187  69.769  64.529 
12.319  72.498  60.294 
13.196  71.644  54.864 
12.768  71.913  58.141 
12.728  71.807  59.210 
10.694  68.517  65.055 
11.381  69.882  63.817 
11.857  69.921  65.055 
13.793  72.261  52.280 
11.963  70.902  64.060 
10.073  59.244  59.536 
11.242  68.379  63.361 
11.621  71.241  62.916 
11.009  66.587  65.661 
10.618  64.797  61.210 
10.026  63.385  60.311 
11.387  70.836  65.741 
11.315  62.253  66.427 
11.468  66.029  56.429 
10.716  62.117  62.053 
10.672  65.823  60.282 
10.826  54.652  64.076 
10.520  56.681  58.719 
10.359  57.550  60.777 
10.789  60.915  62.348 
11.259  55.438  54.345 
11.600  52.048  56.129 
11.661  50.049  60.540 
10.976  54.762  59.242 
11.235  53.177  59.814 
12.290  48.457  61.417 
13.269  49.193  48.762 
12.192  49.072  60.179 
13.624  43.571  52.700 
12.372  45.315  56.990 
11.498  49.655  55.423 
12.688  45.054  58.353 
14.173  42.078  60.339 
11.265  51.439  53.808 
13.161  43.012  57.130 
13.705  42.520  59.186 
13.386  41.200  57.989 
13.551  41.010  57.207 
14.168  42.462  62.608 
20.656  29.971  66.548 
14.764  39.411  53.554 
18.115  35.383  69.107 
14.040  41.517  60.919 
17.982  32.231  61.303 
15.196  36.604  58.866 
18.519  32.008  62.774 
20.102  30.543  66.558 
18.509  31.650  59.262 
17.167  33.533  62.734 
16.918  34.705  54.490 
21.933  27.646  59.080 
18.723  34.150  51.416 
27.501  22.588  53.516 
19.220  31.151  58.104 
25.674  23.982  51.379 
28.316  21.956  56.591 
29.143  20.997  55.518 
28.046  21.378  57.159 
28.990  21.292  53.673 
30.364  22.460  47.379 
23.967  28.842  45.217 
25.513  23.112  55.867 
27.585  22.705  51.740 
27.175  22.323  56.426 
26.386  23.165  59.731 
27.147  22.610  52.501 
33.128  17.870  57.831 
32.525  18.950  53.272 
28.857  21.408  51.250 
30.754  19.427  58.173 
34.288  17.418  58.982 
30.047  20.490  58.971 
32.423  17.756  55.496 
39.785  14.374  58.564 
33.605  17.090  57.180 
34.011  17.800  59.853 
38.308  15.850  52.981 
37.613  16.427  52.817 
41.866  14.814  51.176 
41.685  14.323  51.844 
42.286  14.508  53.001 
41.067  15.080  51.795 
42.096  14.766  52.436 
39.311  14.710  56.118 
38.722  16.461  51.325 
42.880  13.407  56.936 
43.340  13.725  53.306 
43.556  13.315  58.118 
44.344  13.114  55.243 
41.866  14.191  56.609 
44.444  13.068  55.967 
45.429  12.821  55.690 
46.438  12.787  54.654 
45.934  12.523  56.322 
46.712  12.580  55.945 
47.844  12.096  55.432 
48.561  12.019  56.252 
49.317  11.998  57.140 
50.442  11.550  57.649 
50.175  10.923  57.344 
50.308  11.544  58.633 
51.133  10.933  57.909 
51.651  11.320  58.640 
51.821  11.322  57.075 
52.586  10.725  57.562 
55.041  10.547  60.399 
57.533  9.977  53.478 
61.716  9.665  55.252 
57.516  9.723  56.915 
54.496  10.254  62.478 
62.670  10.569  59.367 
66.078  11.129  51.826 
69.766  11.335  53.077 
66.973  10.630  53.527 
64.234  12.125  47.016 
59.295  10.283  54.359 
71.771  12.061  54.066 
66.090  10.788  52.313 
71.610  11.189  55.570 
71.888  11.381  54.725 
70.701  11.637  53.040 
72.089  11.207  56.367 
69.572  11.890  50.066 
72.612  12.420  53.120 
74.352  12.843  55.476 
70.892  11.815  54.389 
72.394  11.867  56.994 
74.901  12.094  57.762 
71.556  13.473  46.309 
76.054  12.750  62.096 
75.852  14.459  51.801 
71.321  12.685  51.441 
75.630  14.605  50.525 
74.830  14.831  47.514 
77.985  15.798  52.351 
78.716  15.432  54.160 
74.209  13.330  52.422 
78.003  14.887  53.950 
79.406  15.702  54.704 
80.059  15.991  54.464 
80.781  16.476  54.233 
82.307  17.420  54.335 
82.029  16.411  55.195 
83.651  17.716  55.779 
84.739  18.626  54.779 
85.370  18.616  54.903 
86.122  19.690  54.659 
85.483  19.196  56.025 
87.471  20.731  53.256 
88.025  21.233  52.973 
87.999  21.910  53.721 
89.245  22.475  54.314 
90.549  22.576  55.767 
90.460  22.862  53.976 
92.269  23.869  55.115 
91.929  23.536  56.861 
89.840  21.905  55.393 
91.849  23.728  54.813 
92.502  23.558  56.282 
100.482  33.036  51.288 
93.783  25.688  52.768 
97.200  27.913  54.910 
95.107  25.447  57.244 
95.353  29.192  48.904 
94.554  27.232  50.554 
93.552  25.356  54.323 
95.562  28.180  52.982 
103.158  33.549  60.261 
94.392  26.575  51.697 
97.961  29.163  55.413 
96.438  26.387  55.509 
98.194  31.694  48.766 
100.670  31.943  54.866 
100.237  31.175  54.907 
101.176  33.341  51.624 
99.807  31.671  52.960 
101.237  33.909  52.622 
99.074  31.931  49.706 
103.338  37.389  51.778 
101.638  33.578  52.883 
103.304  35.446  53.265 
104.480  38.247  57.916 
102.909  34.298  54.039 
103.384  38.577  50.816 
104.042  36.581  55.248 
105.183  38.161  59.185 
104.953  40.256  57.572 
105.383  42.189  53.499 
105.576  42.077  52.761 
106.286  43.302  56.104 
105.980  45.309  53.466 
105.893  44.983  55.284 
106.634  46.130  57.078 
107.282  46.697  56.318 
107.241  45.793  58.194 
106.938  47.934  57.560 
106.860  48.900  56.838 
106.743  47.928  56.843 
107.302  49.547  57.573 
107.515  49.106  58.645 
107.964  50.124  57.387 
108.142  50.729  57.598 
108.119  51.718  57.249 
108.224  51.870  58.154 
107.916  53.463  58.302 
108.766  54.009  57.233 
108.749  53.425  58.556 
109.123  55.618  55.855 
109.543  57.378  59.050 
108.829  61.738  54.564 
109.102  56.724  54.644 
108.313  56.752  51.258 
108.359  62.227  53.049 
109.099  61.585  59.490 
108.191  61.718  56.211 
108.307  63.001  55.803 
109.041  61.885  57.434 
108.653  63.706  55.445 
108.723  66.271  55.167 
108.652  66.468  57.132 
109.029  66.039  58.639 
108.204  66.352  56.838 
108.211  67.871  57.181 
108.137  68.605  57.530 
108.087  69.603  57.350 
107.956  70.045  57.853 
107.526  70.998  57.761 
107.794  71.795  56.600 
107.113  73.549  56.770 
106.837  73.392  56.178 
106.755  74.506  56.523 
105.344  78.215  56.305 
105.366  79.066  55.970 
102.974  84.539  61.410 
106.229  75.450  54.524 
106.764  76.014  57.689 
104.925  79.585  54.418 
103.857  80.962  50.093 
105.802  78.876  59.333 
102.255  85.156  56.667 
102.953  84.845  58.051 
104.258  79.039  51.222 
101.550  87.610  62.666 
99.697  90.352  57.824 
100.037  90.027  61.312 
98.032  92.142  58.541 
100.285  88.583  60.975 
104.232  80.984  56.648 
99.125  91.245  61.742 
100.942  86.948  54.863 
102.365  85.692  53.017 
97.045  92.615  52.480 
95.033  95.706  56.738 
97.404  90.272  67.991 
97.923  89.148  69.228 
97.599  92.162  61.117 
91.156  98.224  55.957 
93.612  96.926  61.396 
93.954  96.524  59.095 
97.422  91.918  64.384 
93.553  96.795  57.882 
96.527  91.622  66.018 
97.830  91.168  52.027 
91.395  98.623  61.314 
87.432  100.924  54.755 
94.417  95.290  53.609 
92.954  96.990  57.405 
92.939  95.884  65.882 
91.844  97.798  56.339 
88.940  100.443  60.643 
91.136  98.849  53.988 
91.263  98.594  60.359 
89.917  99.187  59.427 
82.168  103.065  60.449 
91.745  98.444  57.180 
89.178  99.788  53.023 
87.713  101.118  52.923 
83.740  103.457  53.264 
90.610  99.267  56.433 
84.565  101.931  60.528 
89.305  99.476  51.855 
86.680  101.688  58.938 
78.717  105.757  55.298 
82.629  103.434  61.642 
85.483  102.180  59.101 
82.069  103.760  58.792 
80.736  104.256  58.323 
75.778  106.603  54.292 
78.563  105.148  59.397 
76.391  106.226  60.329 
81.569  104.904  56.844 
73.363  106.837  54.524 
80.842  104.335  59.856 
82.292  104.437  55.346 
75.606  105.776  49.870 
70.090  107.563  53.582 
79.104  105.446  58.066 
69.200  107.591  56.345 
71.190  106.205  50.143 
68.892  107.231  53.189 
70.832  107.382  56.429 
66.687  107.908  54.085 
67.283  107.955  54.620 
68.099  107.890  55.026 
66.703  108.484  55.476 
65.217  108.351  55.162 
64.588  108.802  56.649 
64.247  109.042  56.071 
62.982  109.414  56.537 
62.895  109.252  55.832 
62.088  109.320  56.331 
62.355  109.680  56.856 
59.424  109.844  60.733 
53.422  109.556  60.734 
59.260  109.025  51.996 
54.557  109.039  63.113 
54.636  109.761  56.614 
55.118  108.854  53.239 
55.899  109.889  55.051 
50.867  107.222  53.618 
53.347  108.193  52.686 
52.110  107.188  48.110 
50.236  106.459  49.606 
54.357  108.149  51.036 
43.798  106.851  64.484 
47.769  107.385  58.257 
46.497  106.721  61.541 
46.358  107.045  58.443 
44.462  106.336  60.242 
44.642  106.098  57.363 
45.809  107.041  58.733 
43.290  105.962  57.136 
45.007  105.906  56.645 
42.905  106.241  57.784 
41.971  105.796  60.464 
39.995  104.769  57.959 
39.751  104.734  57.418 
38.304  104.383  58.046 
38.527  104.118  57.366 
37.638  103.958  57.569 
36.833  103.492  57.734 
36.544  103.102  58.540 
35.634  102.854  57.308 
33.985  102.634  56.612 
33.917  102.196  64.297 
33.734  102.584  55.876 
36.978  103.947  65.906 
29.399  99.753  60.897 
30.326  100.189  59.342 
29.974  100.435  56.929 
33.364  101.520  59.081 
31.556  100.425  63.379 
33.722  101.219  48.641 
33.010  100.768  51.024 
28.696  99.459  59.674 
29.335  99.915  58.046 
25.762  96.992  58.958 
24.511  94.011  68.417 
26.884  96.760  62.472 
23.539  95.150  63.925 
23.047  94.535  62.777 
20.747  91.828  57.947 
25.546  96.258  56.342 
24.343  95.717  56.565 
24.270  95.571  59.491 
28.185  98.318  52.095 
26.086  96.937  60.987 
26.274  97.111  52.452 
20.378  90.329  53.772 
29.878  100.424  57.633 
23.671  95.078  56.445 
20.687  91.180  60.388 
21.079  91.124  55.320 
20.251  89.377  57.942 
17.913  86.501  57.850 
15.657  82.448  62.671 
20.071  90.099  63.085 
16.529  83.594  60.780 
17.145  84.118  62.209 
19.694  90.504  59.851 
16.528  82.882  58.118 
16.790  81.440  58.564 
15.999  81.398  59.146 
15.835  81.173  57.735 
15.373  80.182  58.655 
15.553  79.584  58.414 
14.791  78.169  58.369 
14.773  78.732  59.290 
14.437  77.798  59.580 
13.804  76.686  60.386 
14.347  76.419  59.646 
13.441  76.067  60.748 
14.172  76.708  60.779 
13.203  74.018  62.808 
13.700  77.065  62.908 
13.547  72.856  56.543 
12.250  70.714  61.637 
12.784  70.888  56.005 
13.033  70.462  55.504 
11.612  70.518  61.522 
12.109  69.532  56.805 
12.634  68.239  54.579 
11.945  72.185  62.831 
13.060  73.615  59.668 
12.503  73.579  62.820 
13.069  71.144  57.876 
13.061  72.507  61.197 
10.419  67.700  62.832 
11.839  65.996  55.867 
10.987  64.407  55.955 
11.391  70.872  62.356 
11.209  68.700  63.808 
11.559  65.588  55.775 
10.669  58.396  60.151 
11.116  55.431  64.156 
10.199  60.656  63.468 
10.185  57.598  59.030 
11.858  51.174  57.344 
10.666  57.098  64.632 
10.277  56.838  62.676 
11.872  55.869  68.578 
11.536  48.985  53.684 
11.678  49.158  56.139 
12.124  52.178  60.021 
11.581  51.926  55.252 
11.635  49.671  58.083 
13.049  50.954  48.052 
11.736  52.862  56.017 
12.109  46.787  59.030 
11.893  48.521  59.355 
14.601  42.414  53.482 
12.644  46.586  59.147 
12.731  46.171  53.923 
12.210  47.927  54.008 
12.591  44.499  57.692 
11.796  48.681  54.909 
15.113  39.211  54.904 
15.513  38.722  63.751 
17.162  34.656  57.377 
22.988  26.819  56.207 
16.417  34.898  55.695 
15.691  41.418  49.909 
20.589  32.077  72.065 
14.601  40.022  60.740 
19.684  30.023  62.845 
15.270  37.085  55.086 
20.213  29.544  62.535 
14.441  38.924  58.861 
20.727  29.744  52.281 
21.743  29.801  49.009 
14.566  39.412  58.225 
16.490  35.922  53.953 
22.457  26.956  54.462 
20.608  29.361  58.531 
21.938  29.422  49.273 
21.111  28.737  54.141 
21.468  29.302  52.071 
21.372  27.995  56.761 
25.619  23.533  53.859 
31.173  19.191  54.549 
35.663  16.669  56.565 
25.465  24.400  55.060 
34.112  17.129  53.351 
27.395  22.940  49.425 
26.943  23.058  51.244 
27.587  22.615  50.016 
32.576  18.450  52.554 
28.483  21.407  59.332 
23.721  26.154  54.675 
27.982  22.583  61.136 
33.260  17.919  56.984 
34.440  17.476  58.510 
31.027  20.102  59.840 
33.867  18.235  59.205 
38.670  14.577  57.297 
34.096  18.045  60.826 
40.317  14.448  53.822 
36.582  15.850  57.134 
39.418  16.001  51.682 
33.865  17.320  53.889 
37.000  17.362  49.753 
40.232  15.640  50.220 
36.416  16.242  53.482 
37.427  16.151  53.169 
40.854  14.302  55.319 
41.249  13.480  58.808 
43.207  13.088  56.838 
43.430  13.606  54.473 
43.515  13.500  55.092 
43.525  13.280  56.344 
44.363  13.495  54.893 
45.633  12.916  55.057 
46.013  12.376  55.464 
47.107  12.982  55.132 
47.230  12.510  55.741 
48.074  12.113  55.004 
48.962  11.791  56.426 
50.522  11.169  56.635 
50.238  11.608  55.987 
50.755  11.569  55.770 
50.876  11.642  57.413 
50.938  11.081  56.942 
51.418  10.946  57.239 
51.974  10.897  57.998 
55.752  10.106  61.034 
55.746  10.240  55.535 
53.348  10.487  60.805 
58.433  9.771  58.269 
53.315  10.698  62.400 
56.121  10.566  53.617 
55.595  10.822  49.434 
55.166  12.940  42.757 
63.308  9.666  55.616 
61.948  13.134  42.144 
53.164  12.262  45.035 
63.468  10.052  54.604 
69.890  13.479  46.903 
73.991  15.273  45.643 
63.736  9.913  55.758 
66.155  11.280  50.792 
71.674  11.728  55.738 
66.020  10.465  55.670 
70.283  13.265  46.114 
74.113  11.983  56.798 
69.461  11.057  52.771 
77.559  13.917  57.015 
73.329  15.391  44.567 
74.440  12.514  56.192 
70.055  11.483  57.427 
75.175  12.423  61.188 
74.793  11.866  61.356 
74.416  16.022  45.281 
77.734  14.904  53.123 
77.155  14.104  54.506 
79.120  15.633  56.003 
77.130  14.333  56.387 
77.826  15.044  51.073 
79.101  16.261  51.787 
80.610  16.035  54.395 
81.438  16.962  53.880 
81.626  16.761  53.405 
82.918  17.926  54.523 
83.717  18.317  53.402 
83.997  18.215  55.120 
85.103  18.871  53.618 
85.741  18.927  55.163 
85.879  20.032  52.445 
86.576  20.202  54.162 
86.957  20.507  52.423 
86.827  20.191  53.283 
89.914  22.414  53.413 
89.595  22.903  52.563 
90.793  23.339  55.383 
89.701  22.605  55.257 
90.936  23.350  54.493 
91.617  23.629  55.568 
93.862  25.808  51.967 
94.222  25.643  54.681 
91.926  24.140  53.823 
92.974  24.070  56.887 
94.652  27.703  48.896 
95.255  28.135  50.329 
99.252  31.154  53.374 
95.096  26.232  53.796 
94.110  26.186  52.351 
101.643  31.836  57.036 
94.446  26.111  53.136 
100.101  30.258  57.923 
98.686  29.846  52.563 
97.629  28.615  53.506 
97.061  27.901  55.785 
100.166  32.068  52.130 
101.545  32.860  56.458 
99.181  34.709  47.875 
102.008  34.763  51.152 
103.515  36.286  55.839 
101.760  33.512  54.951 
101.660  35.320  49.519 
100.774  32.385  52.558 
102.538  35.169  51.673 
99.964  33.206  51.489 
104.195  37.921  54.568 
103.051  34.236  54.885 
104.960  40.219  53.219 
104.116  37.918  53.176 
106.085  39.386  59.335 
106.280  42.289  57.857 
105.494  42.245  56.686 
105.042  41.802  52.661 
105.486  41.194  53.870 
104.927  42.726  53.020 
106.699  45.447  56.479 
106.629  46.125  56.059 
106.544  45.259  55.826 
107.141  46.664  56.897 
107.362  47.474  56.954 
107.332  47.175  56.162 
106.780  47.478  55.321 
107.318  47.978  56.354 
107.777  49.824  56.923 
107.516  50.440  57.198 
107.730  51.020  57.326 
108.338  51.676  57.709 
108.069  52.401  57.492 
108.546  52.477  57.655 
108.372  53.930  56.538 
108.799  53.679  59.578 
110.103  56.025  62.251 
109.132  58.468  56.318 
109.473  59.221  56.774 
109.542  60.152  58.892 
109.598  56.891  58.070 
108.980  59.149  57.803 
108.908  62.874  56.645 
109.090  63.227  58.386 
108.784  62.244  56.133 
108.355  62.761  56.725 
108.232  64.784  55.468 
108.354  65.684  54.176 
108.434  64.435  53.179 
108.272  66.167  55.427 
108.012  66.846  56.114 
107.506  68.407  57.102 
108.225  68.810  56.931 
107.530  69.306  57.201 
107.561  70.291  57.012 
108.109  70.460  56.410 
107.768  71.825  55.649 
107.591  72.699  55.594 
106.477  73.752  56.994 
105.947  74.457  54.941 
106.112  75.051  54.813 
106.295  75.290  56.191 
106.371  76.709  57.210 
106.208  75.510  52.133 
104.950  77.787  50.555 
105.589  77.467  53.796 
105.273  76.656  49.582 
105.496  81.180  59.510 
104.037  83.272  56.648 
105.926  79.967  60.738 
102.320  85.993  59.990 
104.337  82.105  54.625 
100.778  87.117  49.667 
103.038  85.152  59.242 
102.946  84.261  54.849 
97.183  92.505  59.493 
102.011  86.089  57.912 
102.824  85.621  60.533 
100.578  87.835  54.743 
96.882  91.576  49.675 
99.170  90.091  55.395 
90.036  97.450  49.728 
99.159  90.879  63.289 
99.033  89.994  66.462 
96.571  93.740  57.945 
95.467  91.949  68.349 
93.176  97.229  54.788 
96.640  92.979  52.041 
98.501  91.379  63.407 
92.159  96.192  48.552 
95.925  93.638  59.350 
90.875  98.820  53.260 
92.306  96.430  65.476 
92.577  93.741  46.384 
90.983  98.720  58.569 
88.964  97.501  46.925 
99.789  89.338  52.020 
93.461  97.299  60.158 
92.209  97.374  52.012 
93.308  96.400  64.110 
94.637  94.599  66.083 
92.379  97.512  60.227 
88.098  100.828  57.391 
90.051  99.535  56.341 
86.982  99.982  49.700 
88.258  100.156  55.980 
89.427  99.543  56.311 
91.112  98.793  54.901 
85.337  102.862  55.115 
86.093  102.367  57.894 
86.146  101.615  58.928 
78.405  105.783  56.467 
83.899  103.145  55.747 
83.284  103.081  61.889 
75.328  106.789  57.892 
81.491  103.859  60.406 
79.733  105.268  56.639 
81.132  104.051  51.339 
88.899  100.001  61.995 
76.628  106.153  54.665 
77.467  105.390  59.252 
74.819  106.993  58.558 
75.475  106.076  50.968 
77.613  106.118  56.634 
74.514  106.986  56.811 
70.564  107.649  53.574 
79.333  104.762  57.854 
74.095  105.995  53.048 
69.009  107.623  51.592 
67.068  107.423  52.912 
67.440  107.901  53.738 
66.755  107.718  52.028 
66.102  108.082  53.611 
65.929  108.369  55.103 
65.236  107.855  54.997 
64.684  108.919  55.234 
63.814  109.022  55.289 
63.687  108.592  54.895 
62.631  109.151  55.327 
62.408  109.739  56.006 
59.967  109.582  56.737 
58.049  110.083  59.020 
60.853  109.370  55.805 
56.481  110.185  58.095 
58.986  109.396  55.471 
52.186  108.046  52.956 
57.758  109.166  54.502 
56.347  108.349  50.813 
55.687  109.707  54.194 
55.737  110.059  58.257 
54.710  109.547  54.235 
48.470  107.161  54.717 
47.681  107.482  57.063 
52.337  108.737  56.341 
45.083  106.809  58.739 
44.539  106.161  61.618 
44.578  106.318  59.373 
45.734  106.405  57.978 
44.651  106.489  57.925 
43.595  105.658  58.076 
43.277  106.068  58.509 
43.407  106.116  59.236 
42.338  105.151  56.463 
44.291  106.073  58.353 
39.839  105.263  57.414 
40.529  105.004  56.902 
39.002  104.590  57.736 
39.024  104.176  57.050 
38.204  103.636  57.341 
37.461  103.736  56.869 
35.952  102.736  57.889 
35.643  102.876  54.815 
34.695  101.891  58.447 
28.218  99.580  59.919 
35.634  102.292  55.915 
31.171  100.841  55.129 
21.547  92.728  58.420 
21.923  93.910  57.308 
32.251  101.083  61.006 
31.994  100.621  56.332 
29.182  99.163  52.676 
29.469  99.851  59.504 
28.922  99.075  57.213 
23.221  94.345  63.568 
32.922  101.675  59.691 
26.418  96.674  65.000 
22.658  94.119  66.503 
33.169  101.500  52.515 
24.409  95.450  63.469 
22.520  92.456  68.918 
26.250  96.522  66.405 
29.140  99.803  60.090 
23.007  94.126  54.429 
31.281  100.413  54.374 
32.912  101.572  55.996 
19.267  87.670  57.014 
25.348  96.538  55.144 
19.833  89.919  62.125 
20.320  90.720  56.657 
22.427  92.949  56.682 
20.859  91.777  55.883 
20.176  89.418  53.087 
22.328  93.642  57.625 
16.627  84.348  62.671 
18.886  86.571  55.291 
17.579  85.259  58.520 
16.871  83.796  58.571 
17.678  84.203  57.197 
17.515  84.172  58.217 
16.885  82.137  57.794 
16.148  81.916  58.737 
15.563  80.971  58.594 
15.473  80.357  58.126 
15.304  79.403  57.889 
15.472  79.297  59.096 
15.107  77.935  58.985 
14.230  76.882  58.320 
14.372  77.404  59.065 
13.917  76.554  59.256 
13.690  75.936  59.968 
13.681  75.832  59.010 
13.612  76.770  62.004 
14.012  75.506  61.380 
13.788  74.926  58.739 
13.995  73.752  55.738 
13.169  72.070  56.318 
13.740  74.407  58.072 
12.777  72.947  63.745 
13.214  73.794  58.884 
12.031  70.757  60.765 
12.735  73.397  63.574 
11.412  69.182  60.361 
11.139  65.678  59.475 
12.026  68.869  58.427 
10.792  67.912  68.385 
11.875  72.106  65.862 
10.638  65.603  64.508 
9.768  57.877  57.541 
12.544  69.720  57.378 
10.857  63.734  55.849 
10.567  58.551  54.263 
10.586  59.603  60.189 
10.465  55.681  56.882 
11.595  68.291  57.706 
11.071  54.454  54.661 
10.159  59.825  62.535 
11.010  62.951  54.525 
11.269  51.982  54.645 
11.369  51.558  57.649 
10.487  57.393  56.516 
12.980  43.887  55.522 
11.832  49.654  58.846 
12.377  50.859  59.544 
11.738  52.563  59.341 
11.065  53.827  60.385 
9.921  59.110  56.301 
11.429  57.401  50.261 
13.964  48.919  48.765 
11.312  48.804  55.691 
13.100  44.430  54.303 
13.224  43.007  55.612 
13.240  43.446  58.468 
15.362  41.329  51.800 
15.040  38.341  60.714 
13.035  46.945  54.154 
14.683  40.014  56.539 
20.499  29.441  57.677 
14.100  40.180  54.642 
17.487  34.850  64.707 
11.692  53.276  51.696 
13.521  42.169  58.853 
17.944  32.581  58.866 
17.222  33.728  55.919 
18.272  33.324  52.409 
16.571  34.853  56.432 
15.954  36.004  61.325 
20.319  30.560  52.921 
20.169  30.908  51.259 
21.276  27.896  54.540 
21.459  31.717  48.460 
17.987  37.121  50.398 
15.259  37.026  56.204 
24.722  26.738  48.121 
19.845  30.510  55.350 
26.264  25.661  46.756 
24.391  25.001  52.784 
29.673  20.353  56.650 
20.792  29.169  60.722 
30.487  20.804  49.348 
30.471  20.307  54.355 
26.385  25.349  47.578 
30.142  19.823  58.381 
27.186  22.739  55.230 
29.980  20.385  57.662 
28.683  22.255  49.483 
22.957  30.357  44.777 
35.191  16.970  58.797 
30.997  19.742  51.965 
28.418  21.632  50.569 
36.302  16.280  59.685 
27.788  21.704  53.188 
34.057  17.463  58.144 
28.228  23.001  49.582 
35.915  16.025  56.520 
38.239  15.392  53.919 
34.631  17.655  51.421 
29.259  21.211  50.204 
36.717  15.712  57.949 
41.279  15.861  48.651 
37.715  16.468  53.427 
42.379  14.043  53.152 
41.891  14.005  54.351 
39.093  15.376  52.005 
42.630  14.560  51.750 
37.520  17.008  51.862 
42.534  13.852  53.835 
43.212  14.072  53.666 
44.859  13.015  53.738 
44.954  13.467  53.759 
45.107  12.780  55.317 
46.818  12.462  54.412 
47.090  12.375  55.141 
47.468  12.759  54.865 
47.789  12.391  54.269 
48.913  12.473  55.335 
48.680  11.692  55.623 
49.500  11.879  55.809 
49.808  11.826  55.081 
51.504  11.271  54.827 
51.841  10.897  56.532 
52.661  11.155  56.534 
52.320  10.706  57.110 
53.576  10.802  56.305 
52.869  10.944  58.304 
55.306  10.035  56.744 
55.072  10.379  57.816 
55.899  10.715  60.357 
73.152  13.619  50.231 
64.306  11.908  47.634 
63.400  10.210  58.331 
65.044  12.921  44.113 
67.387  12.619  45.792 
73.789  12.627  55.477 
73.379  14.564  45.598 
62.483  10.539  51.550 
69.735  11.116  58.612 
70.664  11.124  56.641 
68.572  11.553  54.363 
63.799  13.333  43.472 
65.441  10.628  53.344 
69.567  11.409  51.688 
72.435  12.389  55.230 
71.845  12.966  48.589 
75.451  12.831  63.470 
76.317  14.964  49.355 
75.136  13.097  54.807 
74.399  13.559  54.072 
73.812  11.972  57.878 
75.372  13.947  52.814 
75.690  12.300  59.394 
78.278  15.859  50.916 
76.139  14.602  52.575 
78.428  14.627  55.494 
73.252  12.347  54.761 
80.540  17.042  51.621 
79.868  16.594  52.341 
80.769  16.267  55.428 
80.352  16.207  52.832 
80.648  16.607  53.570 
81.201  17.077  52.765 
82.986  17.240  54.055 
83.619  17.449  55.011 
84.094  18.018  54.620 
84.208  18.442  53.850 
86.103  20.328  52.033 
86.181  19.588  53.168 
87.687  21.089  52.504 
87.241  20.438  52.940 
88.045  21.270  53.676 
90.860  23.607  53.321 
89.396  22.805  53.958 
91.522  24.288  53.053 
91.343  22.941  55.815 
92.310  25.282  51.415 
92.831  24.515  54.923 
96.675  28.112  53.062 
92.194  25.080  53.208 
92.786  25.466  50.065 
92.705  25.143  54.001 
92.589  25.013  51.794 
96.189  27.658  53.703 
92.980  25.323  53.488 
97.513  29.388  51.217 
95.857  28.333  50.009 
96.665  29.741  49.358 
95.077  26.872  52.209 
101.489  32.932  54.110 
96.764  30.688  47.819 
99.273  30.523  52.858 
97.260  27.857  53.682 
102.414  35.563  51.245 
100.626  33.843  49.994 
98.911  34.412  46.945 
103.691  35.792  53.929 
100.315  32.348  52.962 
101.067  31.234  56.898 
99.982  35.296  47.985 
105.115  38.522  57.354 
103.797  37.505  55.582 
100.332  34.572  49.822 
104.478  39.419  53.361 
104.368  39.823  52.788 
104.577  39.471  54.693 
104.318  37.451  53.907 
104.839  40.242  54.525 
104.790  40.324  55.748 
105.522  42.998  53.747 
104.818  41.761  53.286 
106.347  46.040  55.569 
105.086  42.520  54.274 
106.295  44.924  53.694 
105.963  43.412  55.738 
106.085  46.189  54.652 
107.054  46.723  55.526 
107.333  47.683  55.776 
106.694  46.953  54.775 
106.743  48.310  55.103 
107.054  48.429  56.769 
107.503  49.416  55.826 
107.941  51.069  55.544 
107.900  51.327  56.533 
108.125  52.205  56.618 
108.100  53.017  56.633 
108.675  53.220  57.885 
108.962  54.411  56.785 
109.062  56.081  56.153 
109.254  54.634  60.725 
109.208  54.265  62.680 
108.731  58.100  52.761 
110.031  57.300  61.980 
108.923  56.217  59.113 
108.065  62.645  53.741 
109.005  61.689  53.220 
108.187  61.915  55.189 
108.079  64.282  50.837 
108.818  63.845  57.469 
107.728  65.063  51.061 
107.627  65.222  52.879 
108.182  66.098  54.542 
108.336  67.358  56.498 
108.010  68.156  56.601 
107.806  68.026  55.948 
107.734  68.905  56.249 
108.170  69.666  56.494 
107.920  70.151  55.789 
107.706  70.946  55.610 
107.160  72.065  55.927 
107.502  73.069  55.908 
106.954  74.182  56.177 
106.907  73.090  54.607 
105.720  75.695  53.348 
106.094  76.181  55.140 
105.534  77.242  51.809 
105.628  78.171  54.335 
106.117  79.181  58.329 
102.871  82.918  50.633 
105.848  77.699  51.634 
103.474  81.945  49.999 
105.436  79.155  54.994 
104.242  81.161  53.099 
104.285  82.443  57.079 
103.007  85.181  60.155 
101.052  88.715  58.356 
99.777  89.654  51.549 
100.279  89.384  54.940 
97.912  92.556  56.231 
100.012  89.658  57.380 
97.926  92.035  62.453 
98.775  91.778  58.189 
101.614  82.518  45.572 
98.046  90.868  49.944 
99.126  89.491  53.420 
98.120  91.605  54.132 
100.498  89.651  64.321 
98.633  90.538  56.408 
93.514  96.181  54.262 
98.056  91.798  59.505 
92.846  96.579  65.378 
95.747  94.300  56.608 
94.562  94.567  50.097 
97.887  90.987  65.100 
94.483  95.589  55.073 
97.329  91.054  51.463 
95.205  94.916  61.123 
92.545  97.195  54.169 
88.681  100.360  59.802 
93.378  97.330  58.834 
92.579  96.608  50.052 
94.131  95.238  63.398 
95.626  94.477  61.947 
93.254  97.244  56.768 
87.771  100.882  58.774 
88.062  99.979  51.407 
84.667  103.455  54.011 
91.048  98.410  62.780 
87.790  100.236  59.424 
82.674  103.540  55.856 
85.093  102.666  52.807 
80.174  104.869  58.574 
73.696  105.090  44.619 
79.509  103.743  60.187 
84.368  103.279  57.993 
80.057  104.351  62.688 
78.689  104.729  59.122 
78.456  105.015  58.316 
80.179  103.723  48.243 
77.390  105.780  57.002 
74.496  106.415  60.297 
73.471  106.193  47.223 
77.368  106.073  53.151 
73.398  107.086  60.479 
81.819  104.547  56.247 
77.314  105.963  57.733 
71.744  107.512  58.867 
71.443  107.059  52.029 
73.346  105.714  47.656 
70.780  107.343  51.400 
67.221  107.669  51.649 
68.608  106.964  51.646 
68.888  107.393  55.383 
67.887  107.372  52.238 
66.776  107.667  53.240 
65.505  107.835  53.997 
65.170  108.327  54.650 
64.475  108.727  54.468 
64.049  108.940  54.691 
63.622  108.890  54.389 
62.398  108.543  54.664 
62.231  109.450  55.321 
61.943  108.743  55.564 
61.341  109.304  55.746 
51.251  107.101  51.215 
51.910  108.727  60.864 
52.502  108.022  50.559 
56.770  109.175  54.727 
60.288  109.302  55.796 
53.522  109.313  58.546 
51.647  109.318  59.500 
54.475  108.205  51.985 
49.597  107.840  56.116 
47.961  107.077  57.277 
46.680  106.671  58.306 
47.245  107.240  58.191 
45.522  106.877  58.024 
48.212  107.381  60.651 
46.231  106.825  57.339 
45.206  106.685  68.526 
43.143  105.474  56.238 
43.828  106.085  56.805 
45.774  106.878  57.202 
43.726  106.217  57.785 
42.341  105.232  55.409 
42.743  106.008  57.353 
40.021  105.315  56.650 
39.198  105.117  56.851 
39.496  104.477  56.377 
38.206  104.156  56.733 
37.866  104.242  56.363 
36.894  103.584  56.358 
36.239  103.308  57.162 
34.703  102.532  56.187 
31.972  100.534  53.915 
35.393  102.196  56.554 
26.680  97.458  62.735 
35.357  102.998  58.875 
28.025  98.782  60.198 
33.344  101.407  58.453 
34.393  102.308  57.477 
28.070  98.762  62.133 
25.399  96.293  64.667 
24.698  95.949  55.758 
31.949  101.416  60.128 
33.321  101.841  60.455 
28.539  98.852  61.006 
30.697  99.590  63.048 
21.642  92.161  66.925 
22.734  94.426  59.347 
31.080  100.377  60.783 
31.002  100.721  58.237 
19.341  89.638  61.416 
29.426  99.283  53.494 
30.393  100.219  56.470 
30.933  100.730  53.441 
24.917  96.206  59.521 
29.223  99.038  54.465 
25.246  95.783  57.365 
20.906  90.635  51.645 
20.466  90.614  60.539 
20.071  88.148  50.854 
18.341  86.704  56.058 
19.806  90.361  62.291 
20.247  89.063  52.153 
17.709  86.164  61.492 
20.530  90.823  54.506 
19.044  87.020  55.643 
17.465  84.574  56.850 
17.236  83.571  56.841 
17.013  83.009  57.649 
17.020  82.335  57.271 
16.306  81.238  58.448 
16.154  80.841  56.990 
15.914  80.518  57.437 
15.155  78.989  57.659 
14.976  78.660  58.484 
14.441  77.353  58.256 
14.260  76.928  57.473 
14.074  76.275  58.401 
13.763  75.657  59.470 
13.293  74.940  59.493 
13.062  75.178  61.019 
12.341  72.008  61.024 
13.654  73.448  57.412 
14.018  75.449  54.153 
13.800  72.252  50.282 
12.440  70.381  53.816 
13.320  72.593  57.691 
13.222  73.663  58.028 
13.109  71.299  51.115 
12.976  74.435  61.517 
12.544  68.668  55.757 
12.007  67.732  54.035 
11.064  61.390  67.530 
11.256  66.874  57.734 
11.480  65.445  55.288 
13.438  73.352  59.532 
10.625  66.701  60.547 
10.573  60.474  60.487 
10.513  59.432  61.090 
11.922  69.069  57.167 
11.185  53.945  59.559 
10.307  62.721  58.287 
11.061  57.033  54.661 
10.694  58.215  61.661 
12.149  51.185  58.566 
11.420  50.841  57.102 
10.773  55.596  60.233 
11.770  52.002  58.412 
11.683  67.675  56.446 
12.645  47.374  53.162 
11.907  50.928  60.249 
11.465  52.412  53.460 
13.803  52.557  46.676 
11.026  56.625  51.576 
12.259  49.512  51.460 
11.132  55.651  53.693 
12.738  48.890  51.167 
12.690  49.725  51.280 
13.246  50.102  48.377 
11.360  55.613  52.656 
12.249  48.761  58.419 
12.165  47.046  58.245 
14.442  43.349  50.489 
17.776  34.269  65.498 
14.307  39.626  60.489 
14.900  39.249  60.940 
16.492  38.015  52.597 
15.915  38.082  65.668 
15.289  37.252  55.610 
15.745  36.738  59.999 
15.568  37.847  61.721 
14.493  39.918  59.638 
14.153  40.438  57.515 
17.234  34.635  56.148 
17.093  35.666  53.312 
16.744  38.528  50.116 
22.034  27.019  55.313 
21.800  26.961  59.422 
18.238  32.927  56.643 
24.654  25.153  50.500 
17.761  33.207  58.326 
20.022  31.377  51.535 
21.789  28.765  49.307 
24.017  25.363  55.863 
24.234  25.237  54.931 
27.059  22.681  57.847 
28.204  21.879  54.305 
22.535  26.480  57.798 
26.464  23.422  52.695 
27.115  23.074  50.344 
27.146  24.995  47.508 
30.696  20.258  57.087 
35.173  17.614  51.260 
30.076  23.118  46.395 
25.861  24.910  48.687 
30.157  20.203  53.019 
32.569  18.067  54.933 
34.518  18.527  49.829 
33.290  18.407  51.204 
32.433  19.076  52.196 
31.405  18.296  55.889 
36.961  15.593  59.257 
33.368  17.342  57.580 
42.718  13.382  62.568 
35.472  16.573  59.321 
37.830  15.002  56.368 
38.863  17.034  50.078 
40.141  16.190  48.792 
44.027  14.053  51.253 
39.483  16.641  50.969 
38.856  14.782  55.595 
41.405  14.106  56.871 
34.925  17.034  58.302 
42.572  14.681  50.772 
44.169  13.608  52.818 
42.586  14.234  52.123 
42.056  15.182  50.373 
42.893  13.734  55.362 
45.901  12.848  53.300 
45.097  13.317  54.591 
44.796  12.834  54.567 
46.720  12.613  52.915 
47.033  12.757  53.939 
48.774  11.988  54.708 
49.320  11.693  55.005 
49.976  12.057  53.953 
49.777  12.006  54.598 
50.581  11.692  54.962 
52.127  10.956  54.486 
51.156  11.252  55.378 
51.485  11.187  56.231 
54.756  10.679  55.433 
54.448  10.446  56.515 
57.412  10.017  52.390 
54.581  10.697  57.365 
64.057  12.440  46.190 
61.778  10.985  51.759 
63.583  12.122  46.279 
56.981  9.701  58.600 
69.790  12.283  50.274 
61.193  9.812  55.896 
63.283  10.521  51.207 
69.081  12.028  51.727 
67.054  11.701  49.823 
65.264  9.985  55.762 
64.932  12.112  46.420 
61.417  11.421  46.317 
68.012  11.831  50.428 
64.506  12.797  44.127 
75.855  13.756  56.130 
75.782  12.255  62.731 
70.580  11.438  58.649 
74.711  12.216  62.099 
68.937  12.187  48.184 
73.460  11.834  57.473 
77.410  14.655  52.325 
76.529  13.558  55.640 
76.118  13.576  57.432 
78.489  16.213  48.437 
78.188  15.861  49.551 
80.556  17.379  47.626 
76.286  14.073  54.957 
78.352  14.775  54.653 
80.782  16.471  52.598 
77.384  16.487  47.692 
80.006  15.945  53.611 
80.457  16.300  51.833 
81.327  16.858  51.930 
80.767  16.708  51.181 
83.679  17.852  52.188 
83.175  17.681  55.196 
83.089  18.339  54.390 
83.534  17.988  53.935 
84.469  18.999  53.046 
85.699  19.591  53.209 
86.582  20.863  53.012 
87.076  20.725  51.977 
87.359  21.014  51.197 
88.089  21.888  52.482 
88.917  22.141  52.574 
90.642  23.051  52.698 
91.382  24.096  52.611 
91.199  23.563  53.723 
90.491  23.359  51.316 
91.462  23.961  54.313 
91.765  24.566  54.849 
93.867  26.468  50.820 
93.150  25.591  51.707 
94.966  28.493  49.031 
93.007  26.209  51.075 
96.162  26.545  54.926 
94.428  27.925  47.652 
96.949  29.309  50.384 
94.136  26.899  51.358 
94.579  27.637  51.312 
93.959  26.257  53.489 
99.056  30.413  52.023 
95.362  29.906  47.753 
98.758  32.174  49.060 
100.236  33.565  50.248 
95.399  26.063  54.652 
98.417  29.274  54.596 
97.539  31.227  48.489 
97.361  30.994  50.038 
100.892  34.358  50.284 
98.387  30.853  51.056 
100.735  34.819  49.449 
102.972  36.106  51.452 
103.269  36.746  52.666 
104.013  39.440  52.711 
103.470  39.081  52.545 
103.047  37.822  51.154 
104.738  36.746  58.994 
104.620  38.182  56.892 
104.578  39.712  53.705 
105.592  43.311  54.513 
105.361  42.483  52.006 
105.343  41.396  53.329 
105.678  42.952  52.565 
105.757  42.180  54.800 
106.471  45.312  54.188 
106.803  46.166  54.030 
106.613  45.565  54.746 
106.895  46.424  54.990 
107.102  47.435  54.849 
107.171  48.128  54.617 
106.930  49.067  55.490 
107.670  48.948  56.575 
107.859  50.356  56.279 
107.339  50.470  55.693 
107.492  51.883  55.958 
107.962  52.699  55.871 
108.480  52.994  57.040 
109.001  54.856  55.394 
108.966  56.443  56.765 
