29.538  63.831  97.574 
28.915  62.738  96.960 
29.626  61.688  97.129 
28.612  61.685  96.249 
29.065  56.441  97.470 
28.821  57.075  97.483 
27.365  59.691  95.535 
27.014  58.426  95.821 
27.722  58.333  96.456 
28.816  57.756  97.072 
29.143  55.160  97.041 
28.290  55.206  96.939 
28.371  54.396  97.086 
28.219  53.258  96.921 
28.363  52.491  96.686 
27.745  51.425  96.184 
25.921  45.928  93.337 
25.597  45.538  93.299 
25.089  45.711  93.126 
27.790  45.204  93.457 
28.760  45.325  94.496 
25.962  50.387  94.124 
31.077  50.221  98.522 
31.296  46.238  95.697 
30.896  44.443  95.114 
30.869  44.010  95.340 
32.320  44.099  96.036 
31.252  42.823  95.530 
32.969  43.252  96.931 
32.024  42.724  95.999 
34.843  37.880  96.056 
33.343  40.329  95.966 
33.905  37.999  95.056 
34.763  38.212  95.702 
35.605  39.332  96.419 
36.719  36.855  96.688 
36.289  37.159  96.546 
36.343  36.665  96.014 
37.422  35.999  96.018 
38.638  35.287  96.873 
38.280  36.801  97.424 
41.887  38.443  100.228 
39.484  35.071  96.862 
39.618  33.657  96.379 
38.781  33.874  95.837 
40.332  31.763  95.704 
42.406  23.731  91.695 
40.406  33.600  96.864 
42.340  36.463  99.186 
47.666  37.075  102.552 
42.284  35.967  99.354 
46.862  29.537  97.575 
42.521  31.219  96.316 
44.298  27.024  95.635 
44.031  30.542  97.140 
40.229  25.449  90.098 
50.299  24.617  94.781 
42.309  32.338  96.808 
42.035  29.613  94.652 
43.230  26.820  94.057 
47.584  24.202  93.377 
47.708  33.452  100.514 
44.298  25.891  94.068 
42.365  24.739  92.472 
49.886  32.677  100.643 
53.558  21.096  91.676 
51.789  27.103  97.353 
47.144  28.910  98.081 
49.918  25.481  95.782 
53.485  23.462  94.505 
57.632  29.065  98.883 
51.359  28.432  98.583 
53.280  31.413  101.321 
55.905  29.952  100.641 
54.513  25.095  95.734 
64.516  24.408  92.900 
59.185  25.193  95.483 
61.935  30.875  99.292 
61.631  23.377  92.912 
63.741  24.553  93.457 
64.128  22.017  91.338 
65.412  25.590  94.276 
66.974  25.154  93.944 
67.584  25.543  93.995 
68.121  25.786  94.083 
68.289  25.871  93.448 
69.288  26.058  93.713 
69.095  25.593  93.522 
70.551  26.482  93.275 
72.015  25.946  93.485 
71.614  25.936  93.744 
72.557  26.266  92.887 
72.599  26.608  93.589 
73.471  26.660  93.525 
74.110  27.252  93.386 
74.814  27.076  92.955 
75.155  28.421  94.520 
75.811  28.204  93.829 
79.959  27.562  92.530 
79.180  29.471  93.931 
78.217  28.649  93.686 
82.810  26.725  90.033 
85.748  33.973  93.604 
80.943  30.348  93.822 
79.184  31.551  95.380 
83.094  31.668  93.895 
82.170  30.828  93.748 
88.820  33.520  90.249 
84.981  34.886  94.694 
83.352  38.448  96.982 
84.452  36.038  95.231 
85.501  37.269  95.610 
86.319  37.360  95.371 
85.267  39.769  96.116 
84.503  39.425  96.935 
84.017  35.846  95.654 
87.918  39.492  94.389 
85.482  41.768  97.546 
88.159  38.821  93.496 
89.892  42.616  94.337 
91.657  45.115  94.633 
95.786  46.972  91.099 
92.587  46.219  94.384 
93.560  48.664  95.281 
95.887  45.225  91.541 
92.835  47.353  94.869 
96.815  48.281  90.893 
94.342  47.245  93.454 
95.381  47.497  93.101 
96.066  43.840  90.158 
92.916  45.662  94.881 
93.318  50.726  96.374 
94.382  51.475  95.635 
93.091  57.347  96.349 
93.429  50.333  95.841 
95.961  54.850  94.485 
96.099  52.860  94.493 
95.587  55.606  95.057 
96.518  51.040  92.896 
94.830  56.530  96.024 
93.281  58.688  97.167 
96.098  57.547  94.327 
95.306  51.885  94.277 
93.916  55.494  96.623 
93.836  61.362  96.101 
95.894  60.201  94.965 
94.581  59.182  96.048 
95.240  60.006  95.882 
97.587  60.576  93.399 
95.368  64.577  95.122 
95.418  65.985  95.229 
94.937  66.107  95.356 
94.547  66.843  95.818 
95.102  68.377  95.345 
94.874  67.637  95.789 
93.633  68.202  96.274 
94.123  70.250  95.958 
94.454  69.987  95.607 
93.323  70.055  96.520 
93.412  70.811  97.129 
94.356  74.252  94.367 
87.890  76.699  97.606 
94.161  76.459  93.615 
90.512  73.888  97.533 
96.269  74.129  92.413 
93.448  80.890  89.825 
88.750  73.314  98.451 
92.673  74.288  95.806 
91.754  74.698  95.484 
86.273  75.243  99.575 
90.009  80.602  93.555 
91.320  78.892  93.580 
87.640  80.696  94.787 
87.980  77.841  96.749 
84.216  80.990  97.489 
85.674  81.232  95.966 
84.473  82.245  96.601 
84.000  82.366  97.086 
83.132  82.321  97.770 
83.168  82.878  96.359 
83.352  83.760  96.363 
83.967  83.271  96.170 
82.713  84.548  95.643 
82.067  84.625  96.469 
82.661  84.080  96.754 
78.467  80.087  101.496 
75.900  86.660  99.060 
77.726  83.197  100.790 
78.772  85.591  97.955 
70.823  84.943  101.940 
73.435  89.640  96.403 
75.140  89.920  95.880 
70.661  89.982  96.363 
74.506  86.145  99.702 
73.974  91.216  94.667 
74.698  91.458  93.623 
71.173  89.733  97.171 
72.925  90.181  95.270 
77.842  90.810  93.961 
75.165  90.178  95.219 
73.412  91.969  93.713 
68.381  92.951  93.996 
67.211  89.510  97.511 
71.345  90.120  95.950 
67.541  90.521  96.526 
66.868  93.700  94.043 
67.634  90.607  97.007 
61.528  95.803  93.588 
63.338  95.340  93.115 
63.530  94.972  93.848 
62.014  96.339  93.038 
62.153  97.865  91.006 
62.316  95.999  92.796 
59.360  97.697  91.050 
56.270  94.243  95.160 
60.062  91.510  98.080 
56.695  95.912  93.501 
61.526  96.391  92.917 
58.059  94.903  94.758 
51.661  94.213  93.870 
54.619  96.624  92.259 
54.397  91.168  97.832 
53.748  92.721  96.194 
53.449  92.758  95.538 
53.775  94.094  94.525 
52.629  93.028  95.776 
50.648  92.113  96.020 
49.664  91.344  95.279 
50.378  91.823  95.630 
49.202  91.386  96.328 
48.382  91.302  95.913 
47.625  90.396  96.833 
46.909  90.449  96.099 
46.541  89.049  96.709 
46.440  88.544  96.741 
45.626  88.432  97.388 
45.330  89.224  97.027 
44.238  88.411  97.348 
42.725  87.718  97.006 
43.402  87.409  98.134 
42.078  87.279  97.244 
41.265  87.553  96.874 
40.806  86.836  96.588 
39.931  87.596  96.118 
34.394  83.491  95.600 
40.067  87.091  96.869 
39.230  87.403  95.637 
35.681  83.591  96.058 
37.647  90.540  93.634 
32.691  82.173  94.590 
35.401  84.562  95.237 
38.806  79.108  101.180 
36.544  81.980  97.764 
33.394  80.166  96.018 
36.897  83.804  97.745 
32.563  79.837  95.766 
34.283  79.776  96.762 
32.353  78.313  95.952 
32.686  78.046  96.638 
31.833  77.520  96.614 
31.639  75.826  96.241 
32.158  76.859  96.100 
31.177  74.110  96.240 
31.784  73.919  96.568 
31.268  73.285  96.816 
30.393  72.798  95.325 
31.025  72.403  96.448 
31.111  70.983  96.640 
30.777  70.575  96.471 
30.872  69.860  96.796 
29.954  68.792  96.470 
30.314  68.331  96.743 
30.365  67.573  97.166 
30.141  66.465  97.268 
28.924  65.947  96.054 
29.327  66.669  96.968 
27.916  63.006  96.401 
27.259  62.838  95.402 
28.569  63.419  96.555 
27.728  62.271  96.274 
27.912  61.906  96.542 
28.450  60.781  96.905 
28.409  59.726  97.108 
27.260  59.931  95.936 
26.659  59.818  94.860 
29.190  59.887  96.641 
28.037  56.603  95.832 
28.263  55.906  96.566 
28.489  55.876  97.348 
27.468  55.549  95.915 
27.752  54.109  96.289 
28.357  53.598  95.845 
27.930  52.370  95.954 
26.846  48.993  95.411 
26.545  49.806  93.971 
26.640  48.032  95.045 
29.060  48.553  96.669 
27.582  50.407  95.940 
26.099  47.016  94.050 
29.089  46.224  95.652 
29.218  44.488  94.775 
31.869  47.427  97.919 
30.592  44.623  95.585 
29.916  42.383  94.646 
30.662  43.363  95.481 
31.471  41.803  94.674 
31.611  42.467  95.371 
32.774  40.610  94.786 
31.987  40.490  94.901 
33.429  39.853  95.563 
34.403  39.360  95.593 
34.052  38.197  95.764 
35.271  37.396  95.599 
36.313  37.960  96.696 
35.530  36.929  95.108 
36.490  35.986  95.695 
36.862  36.386  96.401 
37.815  35.435  96.448 
37.360  35.159  96.099 
38.214  35.350  96.064 
39.197  34.470  96.213 
39.021  32.035  94.845 
46.438  28.464  97.336 
39.522  32.155  95.564 
51.838  29.131  98.684 
40.086  32.775  95.889 
40.078  30.695  94.695 
41.372  31.157  95.183 
41.128  26.979  92.051 
40.808  30.354  95.036 
39.442  23.727  89.010 
45.060  34.216  100.126 
45.385  35.194  100.535 
44.784  25.130  93.706 
45.240  22.877  90.544 
43.170  23.538  91.891 
45.340  24.149  92.973 
55.692  26.881  97.740 
42.532  29.746  95.384 
50.483  27.356  97.571 
45.788  22.452  91.172 
56.382  24.596  95.468 
50.938  28.721  98.379 
45.420  21.647  90.237 
45.312  23.241  92.645 
46.250  24.740  93.778 
50.326  27.445  96.810 
57.737  23.230  94.146 
56.176  27.700  97.908 
53.693  24.682  95.257 
57.988  27.368  97.678 
58.712  26.757  96.755 
57.630  23.890  95.247 
58.537  31.344  100.584 
62.007  25.890  95.328 
62.542  16.714  86.511 
57.133  25.033  96.110 
62.053  24.391  94.176 
63.140  28.418  97.078 
64.084  24.703  94.187 
65.457  24.880  93.680 
66.633  24.473  93.285 
68.695  24.210  92.522 
67.903  24.938  93.117 
68.335  25.018  92.875 
69.348  25.101  92.923 
69.687  24.668  92.681 
70.152  25.975  93.816 
71.103  25.738  93.047 
71.881  25.223  93.056 
73.096  25.684  93.045 
73.481  26.154  93.168 
74.168  26.510  93.471 
74.911  27.172  93.528 
75.355  27.772  93.432 
76.386  28.662  94.061 
76.917  28.113  93.469 
77.425  27.844  92.383 
77.495  30.126  94.256 
78.774  30.217  93.805 
80.161  30.452  94.379 
78.551  29.460  94.052 
82.314  31.613  94.243 
84.212  35.335  94.830 
81.632  31.645  94.697 
83.804  34.201  95.088 
85.025  36.714  95.654 
88.472  31.623  89.332 
84.110  36.634  95.908 
88.438  35.922  92.640 
84.566  31.296  92.627 
88.895  36.030  92.453 
86.340  39.185  95.705 
88.391  41.501  95.563 
87.059  39.732  95.664 
87.115  39.034  95.293 
92.683  39.685  91.059 
88.931  41.506  94.944 
90.110  41.469  93.668 
95.702  34.060  82.945 
91.805  44.686  94.298 
88.522  42.051  95.518 
89.708  41.089  94.325 
91.403  41.882  93.712 
90.317  41.166  93.191 
92.752  40.527  91.288 
92.357  41.114  92.544 
94.505  42.593  91.110 
95.398  45.614  91.579 
94.106  52.989  95.687 
94.713  52.614  95.677 
96.134  46.102  90.034 
94.994  58.350  95.639 
96.028  52.426  94.138 
96.453  48.768  92.410 
93.937  47.356  94.440 
95.365  54.869  95.633 
100.756  61.475  88.779 
97.156  58.328  94.701 
93.217  56.933  97.201 
96.964  58.575  94.223 
92.756  58.790  97.543 
94.801  59.800  96.015 
96.736  59.386  94.486 
98.412  60.489  92.390 
96.674  57.869  94.941 
95.984  51.079  93.253 
95.715  62.382  95.284 
98.262  63.147  92.518 
96.698  63.978  94.309 
95.942  65.268  94.896 
95.149  66.911  95.275 
95.123  66.880  94.809 
94.682  67.531  95.400 
94.406  68.252  96.063 
94.607  68.403  95.339 
94.251  68.872  95.569 
94.577  70.696  94.999 
95.366  70.550  94.697 
95.401  73.128  93.048 
92.180  71.236  97.348 
95.518  76.532  92.306 
96.491  70.429  93.737 
89.121  72.307  99.005 
95.541  71.363  93.994 
92.523  75.675  94.881 
93.586  81.671  88.218 
93.062  76.509  94.233 
94.856  73.548  93.701 
87.622  75.529  98.641 
92.248  79.922  92.743 
91.944  79.672  93.282 
94.098  78.819  91.435 
87.610  77.112  97.370 
86.424  81.866  94.977 
86.628  79.588  96.344 
84.943  82.319  95.816 
84.679  80.824  97.263 
82.738  80.493  98.950 
84.132  82.816  95.558 
82.423  83.197  96.951 
84.024  83.968  95.954 
84.034  84.698  95.468 
82.066  85.380  95.916 
81.850  84.966  95.934 
79.681  85.439  98.124 
79.870  87.679  96.006 
79.026  87.724  96.086 
79.253  84.350  98.311 
81.593  87.641  95.442 
76.712  89.079  95.781 
80.194  90.892  93.103 
74.768  83.228  101.268 
73.654  89.987  94.919 
73.018  87.118  99.519 
77.049  88.606  96.458 
76.971  91.249  93.721 
75.883  88.370  97.263 
69.816  89.805  97.293 
69.034  91.323  95.177 
72.112  90.769  95.937 
70.393  92.386  94.652 
69.273  92.121  95.197 
68.546  92.479  95.081 
67.424  89.885  97.794 
68.771  92.704  94.674 
66.163  90.297  96.812 
64.272  92.851  95.986 
64.137  92.798  95.470 
69.825  92.963  94.204 
62.682  95.731  93.073 
62.696  96.233  92.296 
57.359  93.739  96.509 
63.884  95.436  93.433 
60.404  95.865  93.560 
61.457  97.238  90.762 
53.905  93.355  95.589 
66.777  88.219  99.171 
57.404  96.018  92.479 
59.841  93.633  95.435 
60.096  93.046  96.561 
55.394  92.235  97.338 
51.227  94.237  94.368 
51.699  93.088  95.747 
49.485  94.514  93.250 
58.148  93.416  96.242 
56.681  89.418  98.697 
50.108  92.438  95.317 
51.267  93.101  94.933 
50.299  93.531  95.029 
49.091  91.689  95.579 
48.735  91.472  95.392 
47.572  91.132  95.863 
46.185  90.839  95.870 
46.241  90.304  96.379 
46.326  89.713  96.314 
45.180  89.260  96.397 
44.647  89.057  96.928 
43.843  89.036  96.773 
43.413  88.189  96.747 
43.127  89.020  96.360 
42.595  88.533  96.826 
40.717  87.863  96.233 
41.415  88.112  96.274 
40.372  87.101  96.471 
39.394  86.514  97.243 
38.164  86.384  96.507 
37.004  90.005  93.916 
32.836  87.683  92.501 
37.602  84.438  97.977 
37.064  79.587  99.455 
37.602  87.388  95.044 
36.091  79.955  98.040 
35.178  82.723  96.293 
34.695  80.356  96.887 
32.521  80.800  94.517 
34.617  79.062  96.992 
31.106  79.188  95.070 
33.590  79.160  96.867 
32.000  77.739  96.194 
31.796  77.653  95.509 
30.831  76.992  95.888 
31.636  74.898  96.280 
31.266  76.074  96.021 
30.667  74.760  96.193 
30.330  74.392  96.133 
31.245  73.485  95.953 
30.726  71.997  95.864 
31.386  71.516  96.073 
30.154  71.141  95.864 
30.740  71.114  95.896 
30.271  70.268  96.170 
30.453  69.307  96.312 
30.146  67.167  97.101 
29.552  66.619  96.454 
29.581  66.274  97.184 
29.288  65.424  97.020 
28.916  65.043  97.141 
29.103  64.409  96.717 
26.746  63.832  95.611 
28.066  62.968  95.813 
27.424  61.265  96.114 
27.846  60.959  96.311 
28.215  61.488  96.832 
28.683  59.116  96.643 
26.109  58.731  95.246 
26.500  59.064  95.371 
27.353  57.483  95.311 
27.810  55.848  96.243 
26.617  57.077  95.426 
27.924  55.042  96.611 
26.673  55.681  95.369 
28.304  54.105  96.239 
27.314  53.672  95.072 
27.783  52.879  95.537 
26.954  50.588  95.615 
26.713  49.737  95.383 
28.248  49.353  95.980 
24.071  46.444  92.174 
29.349  48.491  97.094 
21.814  45.764  89.607 
25.357  46.456  93.072 
31.808  51.460  99.331 
30.421  45.873  95.492 
28.687  43.964  94.321 
28.462  50.753  96.998 
30.559  42.696  95.064 
32.299  41.640  95.779 
31.878  41.961  95.613 
32.735  42.004  95.779 
31.054  40.281  94.481 
32.795  39.162  95.469 
33.417  39.122  95.771 
33.714  38.539  94.982 
33.865  37.435  95.199 
35.671  37.549  96.289 
34.461  37.505  95.478 
36.199  35.954  94.780 
36.170  35.792  95.316 
37.263  35.832  95.549 
36.920  35.087  95.833 
37.932  34.612  96.036 
40.058  34.512  96.559 
38.673  33.064  95.403 
40.533  31.206  95.387 
38.711  31.425  94.339 
40.698  24.706  90.308 
40.014  33.208  96.251 
41.738  34.813  98.521 
44.619  31.009  98.165 
41.025  27.947  93.715 
40.705  29.603  93.522 
48.121  25.308  95.350 
42.792  25.551  92.615 
49.271  26.813  96.707 
47.120  26.862  96.547 
47.091  28.323  97.066 
41.428  28.378  94.152 
45.592  25.995  95.035 
49.573  24.470  94.626 
51.409  22.297  91.972 
44.923  25.952  94.719 
44.335  26.508  94.640 
40.777  29.219  94.346 
54.014  22.953  93.765 
41.373  26.342  92.585 
42.619  32.994  97.593 
50.767  28.778  98.817 
60.888  19.853  90.678 
55.779  25.586  96.750 
43.441  27.714  94.866 
59.000  27.183  97.411 
57.020  21.090  92.243 
59.938  23.165  94.365 
54.090  28.186  98.213 
55.105  25.106  96.237 
53.211  22.763  93.746 
56.181  24.011  95.278 
66.999  24.752  92.689 
58.212  26.728  97.306 
59.738  30.048  99.619 
69.114  23.181  91.047 
64.889  23.164  92.209 
64.013  23.074  91.893 
52.111  24.146  95.130 
67.175  24.967  93.553 
68.111  24.029  92.577 
67.352  24.343  92.806 
70.130  25.352  92.625 
68.864  23.791  92.250 
70.999  24.774  92.845 
70.326  24.788  92.553 
71.364  25.221  93.244 
72.511  25.462  92.509 
74.510  26.066  92.802 
73.543  24.816  92.675 
74.988  26.617  92.258 
75.290  26.343  92.623 
76.583  27.323  93.352 
76.317  28.027  93.625 
77.614  27.419  92.444 
77.812  28.784  93.180 
82.420  29.281  92.232 
81.693  28.138  92.515 
80.071  28.064  93.033 
83.638  30.474  92.791 
86.129  29.935  90.518 
86.460  27.463  87.832 
79.680  32.218  95.337 
83.252  36.569  95.405 
83.221  35.698  95.234 
81.807  37.298  97.537 
83.342  34.599  95.866 
85.166  32.109  91.891 
87.721  34.867  92.897 
89.121  37.476  92.464 
88.102  37.258  93.431 
86.821  38.621  94.915 
87.412  37.206  93.989 
92.166  36.308  89.672 
86.281  41.808  97.287 
88.088  39.960  94.740 
90.913  42.463  93.979 
88.041  40.539  94.768 
89.259  42.661  94.927 
92.173  42.300  92.710 
89.726  39.065  92.951 
92.614  43.883  93.419 
94.926  45.731  92.777 
97.763  41.464  86.266 
95.094  40.430  89.951 
96.261  38.291  87.283 
97.078  49.383  90.979 
94.746  55.500  96.415 
96.152  44.934  90.692 
92.039  48.154  95.941 
95.586  52.478  94.989 
95.821  49.272  93.459 
92.355  49.774  96.475 
94.370  47.735  93.707 
91.753  57.032  97.729 
92.272  56.864  97.535 
94.601  57.396  96.367 
93.293  59.647  96.861 
95.668  59.545  95.670 
95.721  53.637  95.001 
96.688  55.560  94.682 
95.730  60.767  95.451 
96.318  62.391  94.493 
101.094  63.868  87.339 
101.652  66.815  86.387 
97.619  57.106  93.599 
96.982  63.630  94.151 
97.216  63.282  93.515 
95.765  66.397  94.599 
95.498  67.796  94.477 
95.748  68.577  94.588 
95.931  70.199  94.309 
95.783  68.551  94.098 
94.888  69.929  95.230 
94.163  71.586  95.958 
96.198  71.419  94.093 
92.514  71.976  96.443 
95.216  69.263  95.265 
92.603  73.798  96.496 
93.330  71.436  96.587 
94.261  73.766  94.804 
95.428  75.113  92.137 
93.396  73.056  96.336 
93.676  73.012  95.111 
92.021  81.928  90.483 
87.037  77.007  98.048 
90.306  77.717  95.267 
91.569  79.323  93.956 
95.474  72.864  94.150 
95.696  79.282  89.483 
92.184  81.099  91.384 
96.114  71.976  92.818 
85.701  79.654  97.271 
86.864  80.777  95.878 
83.865  81.468  97.600 
85.806  81.711  96.002 
84.911  82.798  96.059 
84.875  83.237  94.803 
84.066  81.996  97.474 
84.629  83.695  95.537 
83.906  85.204  94.815 
82.608  86.489  95.135 
77.966  86.337  98.215 
79.705  86.110  96.493 
80.385  86.343  96.661 
83.852  88.009  93.199 
80.028  90.038  93.840 
82.795  91.069  90.851 
78.327  89.366  94.869 
82.478  88.661  93.947 
80.334  84.767  98.024 
73.338  88.873  96.221 
76.491  90.044  94.373 
74.340  92.308  93.373 
77.077  85.288  99.612 
70.664  89.294  97.042 
77.484  88.261  97.213 
74.795  91.105  94.169 
71.859  90.911  94.940 
64.820  90.438  97.434 
68.447  90.301  96.198 
69.105  89.976  96.708 
66.763  93.189  94.788 
69.641  92.456  94.689 
68.529  90.744  95.421 
67.062  92.773  94.220 
66.380  93.818  94.322 
63.503  94.001  94.947 
65.000  95.383  93.202 
62.386  94.734  94.482 
61.978  92.499  96.310 
63.059  97.143  92.058 
60.386  97.371  91.339 
61.820  97.418  91.458 
60.841  96.790  92.574 
58.137  90.162  99.451 
57.227  91.960  98.216 
55.670  91.671  97.936 
60.479  89.717  99.990 
54.612  93.074  95.749 
64.065  90.482  97.858 
53.801  95.076  94.159 
52.569  94.538  94.164 
51.840  95.071  93.805 
57.471  95.421  94.185 
57.111  92.391  96.966 
50.968  93.339  95.259 
49.610  92.993  94.789 
49.529  92.132  94.606 
48.708  91.843  94.742 
48.200  92.188  95.014 
47.488  91.603  95.579 
47.075  90.783  95.619 
46.753  91.469  95.519 
45.851  89.585  96.726 
44.976  89.815  96.455 
44.252  89.511  95.970 
44.474  89.650  96.684 
43.878  89.251  96.109 
41.400  89.644  95.173 
41.966  87.811  97.012 
41.981  87.976  96.401 
40.362  88.655  95.187 
39.979  88.832  95.552 
39.541  88.263  95.818 
40.176  86.553  97.193 
39.880  85.213  98.106 
38.450  83.201  98.763 
35.706  81.697  97.222 
32.929  84.867  93.520 
38.304  83.554  99.141 
35.240  81.093  97.000 
34.033  80.076  96.091 
30.528  80.186  93.531 
34.196  80.724  96.179 
33.297  79.502  95.918 
31.679  80.105  94.052 
36.931  79.953  98.653 
33.529  79.329  96.338 
31.615  78.637  95.096 
31.274  77.354  96.084 
31.708  75.499  95.628 
31.208  75.114  96.181 
30.883  74.541  95.396 
30.061  74.537  95.748 
30.976  73.121  95.860 
30.015  73.431  95.644 
29.906  72.483  95.331 
29.953  71.610  95.103 
29.697  71.639  95.574 
30.041  70.748  95.271 
29.129  69.701  95.544 
29.509  68.886  95.725 
29.770  67.933  96.872 
29.823  67.254  96.413 
28.649  66.772  96.392 
27.837  64.275  96.131 
27.191  64.650  95.707 
28.023  63.810  96.305 
27.142  61.737  95.780 
27.968  61.774  95.637 
27.033  60.883  95.716 
26.355  61.384  95.219 
27.098  60.592  95.224 
27.478  60.574  96.288 
27.943  59.788  96.465 
25.956  59.643  95.390 
25.560  58.157  94.791 
26.500  56.731  95.131 
27.087  56.545  95.790 
27.259  54.791  95.417 
27.483  54.893  96.175 
27.234  54.210  95.888 
26.983  53.201  95.658 
26.914  52.728  95.326 
27.211  52.445  95.616 
26.852  51.682  95.016 
28.199  47.535  96.070 
26.442  48.633  94.817 
28.075  43.998  93.281 
28.258  46.286  94.534 
27.122  43.765  92.224 
22.566  46.250  89.693 
30.080  45.037  95.054 
24.869  44.571  92.113 
30.596  46.672  96.553 
29.941  43.987  94.809 
31.384  42.376  94.645 
30.933  41.498  94.139 
31.872  40.860  95.226 
32.641  39.409  94.762 
32.132  39.190  94.624 
32.149  38.063  94.336 
33.953  38.726  95.714 
33.138  38.127  94.552 
34.701  36.735  95.046 
34.606  36.001  94.869 
35.323  36.032  94.763 
35.414  35.563  95.087 
36.808  35.687  95.470 
36.323  34.983  95.596 
37.327  34.500  95.363 
37.911  33.072  94.408 
39.137  33.400  95.940 
38.345  22.390  87.028 
38.570  30.094  92.819 
38.953  32.573  95.229 
38.839  30.178  93.798 
40.096  29.905  94.028 
39.309  29.867  93.875 
41.007  29.684  94.363 
45.633  27.463  96.205 
43.542  30.082  96.828 
40.731  24.901  91.011 
46.951  25.791  94.956 
43.806  29.248  96.513 
40.676  23.486  89.475 
43.010  25.831  93.100 
44.779  23.909  92.704 
38.263  26.190  89.485 
49.908  23.915  93.735 
46.482  21.327  89.331 
44.407  22.681  90.607 
45.507  25.584  94.327 
56.532  23.146  94.437 
44.414  29.854  97.567 
40.154  25.033  89.529 
46.972  21.018  89.213 
52.661  23.965  94.582 
44.968  25.763  94.202 
56.467  22.441  92.784 
58.052  25.267  96.028 
54.283  24.604  95.746 
55.493  28.407  98.880 
59.819  27.615  97.252 
47.517  27.449  97.198 
64.222  26.007  95.043 
60.115  24.088  94.569 
52.967  21.511  92.265 
54.293  28.354  99.105 
61.446  20.707  91.285 
62.466  23.266  93.268 
69.153  22.196  90.410 
64.663  24.826  93.908 
63.164  20.539  90.814 
66.792  21.972  90.351 
60.950  26.828  96.314 
64.653  17.414  86.471 
68.221  23.926  91.655 
69.865  23.969  92.102 
70.400  23.580  91.373 
70.943  25.083  92.009 
71.730  25.194  92.591 
72.582  24.040  91.764 
73.393  25.201  92.403 
73.870  25.859  92.912 
75.165  25.936  92.102 
75.475  26.657  92.935 
77.677  26.508  92.317 
76.048  26.790  92.785 
77.244  26.845  92.882 
77.772  26.902  91.738 
77.043  27.685  93.080 
81.162  27.456  91.605 
85.226  28.424  90.131 
77.807  28.039  93.344 
85.682  31.035  91.930 
87.736  34.145  92.202 
81.927  33.909  94.887 
83.356  32.518  93.798 
87.737  36.148  93.015 
85.744  35.781  94.768 
86.552  36.296  94.491 
86.435  34.820  93.625 
86.693  35.465  94.093 
94.483  41.393  90.765 
87.022  32.758  91.542 
91.908  38.355  90.825 
85.039  35.019  93.875 
89.688  34.198  90.161 
86.865  36.026  94.117 
88.660  39.031  93.222 
85.879  37.966  95.667 
88.007  37.879  93.969 
94.789  43.420  91.341 
88.877  37.775  92.994 
89.103  42.722  95.683 
89.885  39.642  92.305 
94.539  45.092  92.692 
89.979  37.521  92.112 
92.474  43.369  93.554 
91.076  41.309  92.805 
92.495  42.300  92.348 
95.192  47.974  92.425 
94.069  45.629  93.016 
95.854  48.349  91.943 
92.666  46.440  94.992 
98.539  56.128  91.116 
92.848  52.076  96.101 
96.137  54.936  95.242 
95.120  48.274  93.300 
97.347  54.069  93.226 
94.697  51.349  94.966 
96.667  61.571  94.466 
96.686  53.045  92.083 
99.899  61.200  89.934 
96.025  62.035  94.541 
97.489  57.455  94.281 
95.921  56.369  95.061 
96.100  61.581  95.210 
98.108  67.104  92.401 
100.819  66.880  89.297 
98.029  62.041  93.523 
99.342  60.104  91.462 
97.125  62.852  94.118 
96.146  64.974  93.873 
97.792  64.812  93.098 
95.687  66.960  94.051 
95.365  67.305  94.954 
96.528  68.683  94.016 
95.548  69.569  94.668 
93.973  70.683  95.625 
93.305  72.104  95.891 
96.948  68.515  93.334 
92.857  71.558  96.984 
95.230  71.359  94.541 
96.664  66.772  93.984 
96.278  76.332  91.239 
96.934  72.513  92.970 
95.866  75.877  91.720 
85.452  77.387  98.694 
95.088  73.485  94.315 
93.858  79.299  91.449 
92.128  70.698  97.440 
87.136  78.145  97.049 
89.144  74.855  97.679 
90.275  80.070  93.976 
94.002  77.635  92.083 
88.348  77.455  96.993 
91.733  75.399  96.093 
87.281  81.775  94.957 
87.474  80.376  95.584 
86.619  81.544  95.514 
85.436  82.033  96.088 
86.505  82.494  94.901 
85.778  83.051  94.807 
85.526  82.731  95.312 
84.522  83.972  95.066 
83.862  84.440  94.991 
83.338  85.143  95.340 
69.921  86.969  100.395 
82.993  85.980  95.163 
81.773  86.437  95.734 
78.900  87.153  97.307 
80.355  87.086  96.476 
79.915  91.644  92.637 
74.661  87.663  98.560 
78.222  88.976  95.670 
79.951  85.397  97.304 
77.154  86.978  97.258 
74.253  89.635  96.171 
73.620  88.693  97.562 
73.818  85.861  99.891 
78.424  90.951  93.401 
73.800  90.484  95.040 
72.103  91.570  94.324 
71.762  91.241  95.306 
70.777  92.709  94.105 
75.817  89.536  94.971 
70.075  92.334  93.845 
71.095  92.480  93.495 
66.449  92.821  94.889 
67.160  94.885  93.446 
67.463  93.973  93.499 
64.072  93.967  94.901 
67.832  94.150  93.843 
65.429  93.824  94.619 
62.569  95.367  93.875 
63.749  94.662  94.475 
64.889  94.517  94.112 
59.644  95.569  93.984 
57.438  94.581  95.301 
55.107  99.470  88.370 
55.384  94.500  95.388 
61.012  97.117  91.684 
59.732  93.181  95.591 
59.416  90.619  98.945 
52.260  95.430  93.682 
56.318  96.120  92.010 
55.476  98.387  89.689 
54.911  95.120  94.490 
54.843  94.026  95.972 
57.804  92.905  97.701 
51.578  95.514  92.996 
49.957  94.419  93.653 
50.462  93.148  94.733 
48.913  93.679  93.973 
48.709  95.407  92.582 
48.046  92.766  94.337 
47.757  91.852  94.368 
47.921  91.523  95.205 
46.640  92.003  94.951 
45.505  90.394  96.121 
45.499  90.210  95.654 
44.010  90.633  95.087 
43.984  90.110  95.492 
43.760  89.810  96.310 
42.894  89.280  96.012 
42.712  90.052  95.414 
42.085  89.262  95.844 
39.470  86.571  96.260 
39.002  90.092  93.517 
40.866  88.477  95.867 
39.471  87.349  96.134 
38.954  85.094  97.474 
38.565  85.856  97.327 
34.652  82.045  95.920 
29.973  87.283  90.562 
34.096  82.529  95.588 
37.319  85.152  97.151 
35.373  86.653  94.732 
39.727  82.004  99.810 
32.730  84.919  92.953 
31.262  82.845  93.022 
37.367  84.288  97.563 
30.926  81.268  93.436 
32.841  80.665  95.276 
31.233  79.563  94.582 
31.839  78.355  95.766 
30.245  77.435  95.231 
29.775  76.936  94.836 
30.885  76.246  95.562 
30.735  75.533  95.659 
29.251  74.017  95.089 
30.450  75.160  95.783 
30.037  73.905  95.458 
29.761  73.274  94.921 
29.449  72.257  94.896 
29.244  71.284  94.887 
28.811  70.637  94.896 
29.841  69.533  96.006 
28.792  68.844  95.364 
29.310  68.641  96.115 
28.429  67.371  96.269 
29.057  64.968  96.286 
28.001  66.007  95.880 
28.177  65.573  96.004 
27.515  65.197  95.191 
27.232  63.531  96.152 
26.975  63.302  95.356 
27.177  62.076  94.953 
25.979  61.868  95.132 
25.615  61.800  94.145 
25.237  59.407  94.260 
26.524  60.020  95.486 
28.421  59.920  96.484 
25.369  59.956  94.625 
26.397  58.128  95.018 
26.769  57.843  95.339 
26.270  55.931  94.539 
26.690  54.918  95.636 
26.408  54.461  95.405 
26.492  53.571  95.127 
25.953  54.033  94.694 
26.674  52.994  94.828 
26.897  51.538  94.170 
26.529  51.214  94.960 
25.709  47.307  93.340 
25.205  47.816  93.165 
26.464  47.799  94.577 
28.910  47.800  96.385 
24.242  44.468  91.075 
27.407  46.547  94.979 
27.276  45.803  93.906 
28.186  43.387  93.658 
29.579  43.834  93.758 
30.071  43.425  95.093 
30.659  42.034  94.709 
31.028  40.983  94.911 
31.623  41.451  95.098 
32.494  38.774  94.157 
32.308  39.891  95.252 
33.436  38.912  94.972 
32.541  37.685  94.377 
33.420  36.759  94.717 
33.914  36.553  94.259 
34.242  36.247  94.586 
34.727  35.547  94.635 
35.260  34.877  94.696 
35.958  35.044  95.208 
36.483  34.387  94.954 
37.105  33.748  95.167 
38.548  34.405  95.526 
38.379  32.563  94.722 
37.713  32.280  93.493 
38.185  32.202  94.952 
42.975  30.886  96.815 
39.174  28.421  92.040 
41.392  32.185  96.666 
44.625  31.751  98.493 
39.373  31.900  94.366 
41.501  28.948  94.341 
37.458  26.452  89.779 
38.871  28.713  92.602 
40.966  25.919  91.343 
46.941  23.583  93.358 
49.760  27.140  97.428 
40.936  21.558  86.359 
53.274  24.052  95.092 
40.872  27.370  92.898 
55.083  21.673  92.906 
42.502  28.037  93.698 
47.059  27.106  95.868 
55.162  23.612  95.081 
37.007  23.185  86.793 
46.711  24.426  93.166 
45.433  22.825  92.324 
51.036  28.072  97.759 
43.961  25.287  93.392 
51.381  25.454  95.876 
50.883  24.250  94.229 
49.775  26.438  96.603 
57.629  28.040  98.130 
60.573  29.602  97.937 
64.687  18.748  89.123 
58.888  25.064  96.150 
59.494  20.968  92.132 
63.431  17.643  87.585 
58.448  26.183  96.755 
58.726  27.463  97.121 
60.776  26.006  95.755 
54.027  27.354  98.119 
53.470  27.925  98.475 
67.696  20.746  89.439 
67.137  23.050  91.616 
65.243  22.141  91.025 
70.574  23.074  90.618 
66.072  22.372  91.154 
69.539  24.370  91.914 
72.277  22.667  90.280 
69.019  24.141  91.036 
72.059  23.986  91.224 
71.214  24.479  91.540 
71.376  24.683  91.958 
72.648  24.961  92.673 
74.011  25.089  92.494 
74.266  25.396  92.250 
74.899  24.829  90.868 
79.624  25.130  89.742 
76.586  26.524  92.322 
76.051  27.308  93.453 
76.629  27.470  92.499 
79.353  28.395  92.615 
78.851  27.633  92.647 
80.430  29.264  93.522 
81.038  29.510  93.283 
79.662  29.123  93.550 
87.216  34.134  92.785 
83.517  29.295  92.611 
84.564  32.055  93.079 
85.566  34.642  93.656 
81.017  27.992  91.501 
85.481  35.106  94.532 
82.817  32.657  94.632 
85.840  30.671  91.016 
87.399  36.498  93.706 
87.181  38.028  93.734 
87.620  37.844  93.520 
83.998  31.933  92.991 
85.159  39.581  96.909 
86.325  37.831  95.289 
86.032  36.620  94.969 
86.612  38.387  95.341 
88.477  36.953  92.778 
87.211  38.107  94.815 
90.321  42.082  94.601 
92.703  44.732  93.575 
89.363  42.069  95.037 
93.208  47.031  94.935 
89.229  40.138  93.696 
91.947  41.609  92.353 
93.032  36.811  89.328 
96.790  46.829  89.756 
93.344  43.940  92.751 
96.630  48.871  91.375 
94.203  48.459  94.805 
95.467  50.410  93.280 
96.485  47.525  91.107 
94.424  48.760  93.995 
97.073  52.124  91.293 
95.520  50.952  93.966 
99.078  57.096  90.493 
96.458  49.557  92.986 
93.995  50.716  95.084 
97.082  56.583  94.413 
93.493  54.847  96.720 
95.246  46.554  92.764 
95.289  57.239  95.813 
95.886  57.726  95.195 
97.163  59.251  93.778 
96.832  55.274  94.213 
101.291  67.289  88.362 
102.860  63.489  84.239 
98.181  63.922  93.140 
99.549  66.087  90.600 
99.129  69.804  90.497 
100.256  68.304  89.491 
100.618  70.590  87.973 
96.233  67.781  94.293 
98.172  67.735  92.413 
96.538  66.425  93.716 
96.570  71.151  93.728 
96.773  67.633  93.461 
95.587  69.534  93.790 
96.204  72.846  93.236 
94.235  72.149  95.150 
93.887  81.097  89.624 
92.303  76.607  94.789 
93.794  81.772  87.433 
92.133  78.054  94.092 
88.759  77.875  96.375 
95.402  79.061  89.910 
94.605  77.869  91.669 
91.360  77.442  94.938 
88.678  76.836  97.411 
91.079  80.499  92.356 
93.005  77.507  93.729 
90.936  77.297  95.526 
90.787  79.576  93.991 
89.027  78.920  95.194 
90.283  74.515  96.629 
88.526  79.928  95.031 
89.864  79.787  93.817 
86.285  81.191  95.807 
86.546  83.115  94.251 
86.911  81.819  94.557 
86.601  82.497  93.898 
85.618  83.445  94.211 
85.533  84.456  94.267 
85.201  84.139  94.493 
84.768  84.812  94.693 
82.790  85.269  95.780 
83.346  85.859  94.868 
81.996  89.813  93.082 
82.364  88.076  94.348 
78.617  88.004  96.730 
79.144  87.562  96.542 
80.434  87.033  95.743 
77.558  89.839  94.653 
80.017  82.976  99.222 
76.616  90.562  94.258 
75.888  89.428  96.148 
74.358  89.995  95.540 
73.854  91.316  94.156 
74.167  92.742  92.510 
75.741  93.651  91.146 
73.751  92.413  93.455 
73.861  93.318  92.200 
72.094  92.935  93.650 
76.527  91.643  92.646 
69.554  93.659  93.445 
69.019  93.064  94.257 
68.167  93.480  94.003 
69.560  90.798  95.639 
68.759  93.827  93.872 
68.175  94.208  93.442 
66.393  94.401  93.659 
67.966  92.229  94.882 
65.648  95.728  92.433 
65.233  94.107  93.575 
65.764  93.410  94.326 
64.175  96.861  91.301 
63.378  96.018  92.689 
61.706  99.754  87.719 
61.547  98.558  89.309 
58.991  97.108  91.211 
60.335  88.565  100.860 
56.405  96.464  92.773 
56.852  94.010  95.764 
62.786  90.955  97.989 
56.912  99.200  89.117 
58.588  95.776  93.421 
50.079  100.836  87.027 
51.450  94.820  93.707 
49.335  95.206  92.334 
51.342  94.720  92.849 
50.707  94.045  94.404 
48.413  94.599  92.504 
49.021  93.767  93.163 
50.376  95.645  92.707 
48.024  93.673  93.476 
47.381  92.953  94.332 
47.110  92.255  94.905 
46.584  91.275  94.677 
45.465  91.123  95.590 
44.655  91.192  95.085 
44.836  90.231  95.658 
43.491  90.045  95.554 
42.113  90.564  94.389 
41.562  90.451  94.692 
42.183  89.575  95.432 
42.237  88.733  96.299 
37.769  90.308  94.125 
39.408  89.829  94.285 
39.243  89.293  95.010 
36.821  88.095  94.615 
35.334  89.075  93.634 
40.538  83.329  99.710 
38.218  85.878  96.934 
34.792  82.834  95.982 
35.672  88.003  94.265 
34.050  85.837  93.859 
30.062  87.726  89.982 
31.857  87.790  90.824 
34.979  80.969  96.206 
34.368  81.485  96.302 
32.931  81.254  95.084 
29.873  82.179  92.224 
33.189  81.567  94.889 
32.170  80.482  94.819 
30.301  80.654  93.308 
30.506  78.655  94.537 
31.661  78.839  95.524 
30.410  75.974  95.717 
29.945  75.454  95.191 
29.999  74.635  94.817 
28.831  74.507  94.317 
28.908  73.376  94.779 
28.901  73.901  94.242 
29.351  73.102  94.595 
28.851  72.388  94.248 
29.212  71.244  94.384 
28.389  70.428  94.595 
29.014  70.164  94.787 
28.571  68.875  94.903 
28.805  67.678  95.532 
28.834  68.179  95.877 
29.145  67.509  96.317 
28.730  66.437  95.965 
27.917  64.696  95.708 
26.813  65.638  95.022 
27.159  64.025  95.854 
26.528  63.245  95.012 
26.405  62.590  94.952 
25.842  60.363  95.116 
25.792  60.895  94.746 
25.305  60.523  93.821 
24.105  59.513  93.718 
25.394  58.781  93.646 
25.706  59.243  95.021 
25.223  57.307  94.490 
26.832  56.508  94.781 
26.050  57.374  94.872 
26.232  55.341  94.552 
26.368  54.877  94.820 
25.663  54.458  94.585 
25.988  52.904  94.398 
25.764  52.106  94.460 
26.317  52.376  94.390 
26.157  51.185  94.549 
25.833  48.574  93.590 
25.585  48.098  93.870 
26.092  45.211  92.955 
26.385  44.359  92.422 
26.938  44.651  93.640 
28.759  42.882  94.097 
30.666  48.559  97.609 
29.225  45.289  95.295 
27.858  42.726  93.144 
29.592  43.132  94.049 
29.961  41.625  94.164 
29.017  41.581  93.726 
30.999  39.436  93.997 
31.650  39.767  94.698 
31.126  38.688  93.862 
30.860  38.301  93.165 
31.957  37.486  93.743 
33.413  37.461  94.925 
33.185  36.665  93.897 
33.588  35.943  94.191 
34.153  35.054  93.948 
34.644  34.980  94.014 
36.098  34.981  94.606 
35.807  34.214  94.619 
36.891  34.433  94.650 
37.668  33.315  95.018 
37.833  32.033  94.205 
37.695  33.392  94.069 
38.628  30.610  92.648 
38.169  31.155  93.025 
40.071  31.121  94.298 
39.278  30.790  94.290 
42.068  28.212  94.446 
41.242  30.271  95.385 
46.625  31.596  99.474 
42.607  33.665  98.414 
41.545  31.704  95.748 
42.850  28.658  94.424 
40.471  26.711  91.437 
44.212  22.075  89.172 
46.932  32.299  99.840 
38.797  24.108  88.697 
45.082  27.942  96.242 
42.978  30.971  95.993 
56.398  22.542  94.146 
48.245  24.178  94.293 
42.302  23.417  90.541 
45.832  21.444  89.752 
50.075  29.201  99.169 
42.594  21.403  87.972 
49.451  25.009  95.160 
42.625  23.985  91.350 
43.210  24.859  92.737 
54.434  21.742  92.393 
50.032  25.738  96.777 
50.539  26.368  96.568 
52.514  28.562  98.820 
60.164  22.504  93.554 
51.025  21.163  91.154 
63.261  24.026  93.649 
55.607  24.324  95.163 
56.554  17.105  87.482 
64.532  17.271  87.156 
55.737  23.510  93.917 
63.877  20.719  89.936 
61.180  23.982  94.154 
48.914  31.433  100.037 
61.100  28.187  96.657 
66.576  23.363  91.373 
68.371  22.245  90.348 
70.034  22.437  90.480 
70.468  24.486  92.162 
68.113  23.586  91.962 
71.345  22.972  90.617 
70.596  24.225  91.775 
69.872  23.791  91.270 
73.051  24.268  91.354 
71.867  23.188  90.841 
73.351  23.435  90.366 
71.879  24.695  92.724 
74.587  24.997  91.767 
76.997  25.207  91.055 
76.911  26.233  92.108 
76.322  25.545  91.653 
78.338  27.006  92.220 
83.473  24.982  88.266 
83.554  29.002  92.108 
79.689  26.211  90.836 
84.309  26.356  89.192 
83.135  33.590  94.850 
79.677  24.110  88.711 
80.215  29.733  93.805 
80.610  30.988  94.901 
84.589  33.847  93.422 
86.209  35.585  94.097 
84.716  33.368  93.573 
83.504  29.557  92.017 
83.819  27.873  90.360 
84.794  30.396  91.572 
85.126  29.246  90.299 
86.341  32.913  92.608 
87.372  31.947  90.727 
88.748  36.541  91.989 
88.447  33.695  91.539 
89.922  35.231  91.595 
86.495  39.269  95.022 
84.926  35.792  95.070 
91.308  39.503  91.615 
87.466  35.694  93.359 
93.069  42.888  92.567 
91.208  43.745  94.468 
90.306  43.654  95.128 
95.275  47.398  92.560 
92.104  43.853  94.339 
94.389  40.598  90.414 
97.092  45.137  88.898 
96.633  45.443  90.111 
95.604  40.998  89.451 
96.537  45.074  89.722 
94.792  49.394  94.430 
94.150  50.805  95.569 
92.246  46.169  95.309 
96.597  49.195  92.211 
95.987  46.149  91.613 
98.398  55.213  91.400 
92.748  51.401  96.406 
95.608  54.298  95.409 
93.516  52.229  95.654 
97.893  53.490  91.622 
98.263  57.057  92.965 
96.361  60.673  94.714 
94.415  54.830  96.170 
95.127  51.976  95.320 
96.209  59.012  95.237 
97.735  65.896  93.013 
97.967  57.523  92.864 
99.842  60.871  91.340 
96.907  60.146  94.198 
102.673  65.125  84.553 
97.786  56.520  93.776 
97.690  64.031  93.220 
98.779  71.870  89.654 
101.425  66.513  87.810 
97.735  65.678  93.460 
98.339  65.702  92.236 
97.377  64.117  93.654 
97.431  66.464  93.617 
96.383  69.086  93.138 
95.442  74.663  93.320 
93.750  77.000  93.122 
97.639  73.260  90.533 
91.271  77.908  94.291 
97.312  66.826  93.229 
92.351  74.107  95.482 
101.130  67.371  87.482 
89.689  75.607  97.125 
91.557  73.061  96.864 
91.794  74.387  96.377 
89.646  76.845  96.515 
92.927  73.527  95.771 
93.907  74.878  94.963 
90.517  81.652  92.044 
92.670  77.800  93.349 
90.813  82.205  91.516 
91.949  77.654  94.576 
92.622  81.664  90.652 
90.485  78.713  93.991 
89.977  81.186  93.156 
88.092  80.719  94.942 
87.352  81.559  94.518 
87.190  82.495  94.526 
88.327  82.357  93.422 
85.435  83.556  94.804 
86.136  83.823  94.333 
86.384  84.001  93.894 
84.684  84.699  93.898 
85.054  85.297  93.885 
83.231  85.371  94.481 
84.565  85.535  94.486 
83.896  86.047  94.423 
82.794  87.470  94.435 
82.323  89.827  92.717 
82.813  87.965  93.611 
77.019  89.356  95.503 
78.970  88.503  95.433 
74.047  89.157  96.850 
75.981  91.325  93.811 
75.352  92.228  91.963 
74.581  90.791  94.897 
75.487  90.520  95.392 
76.332  92.416  92.876 
75.896  93.109  91.954 
74.356  93.804  91.427 
73.350  92.986  92.484 
72.142  93.240  93.264 
73.124  91.685  94.452 
74.678  91.486  94.435 
70.500  93.356  94.113 
70.090  93.324  93.465 
69.369  93.663  92.974 
68.953  94.277  93.333 
67.738  95.133  92.881 
66.586  94.820  92.810 
65.500  94.842  93.748 
66.771  95.259  92.843 
66.271  94.898  93.510 
64.123  94.476  94.112 
65.223  95.965  92.519 
58.040  96.644  91.391 
57.727  95.161  93.444 
56.791  98.016  90.568 
60.202  97.811  90.787 
53.525  95.683  93.663 
56.595  99.658  88.576 
58.418  97.744  91.234 
59.530  92.818  97.180 
58.739  92.998  96.932 
48.404  100.891  85.247 
56.714  100.049  88.033 
53.604  96.338  92.921 
54.011  94.890  94.638 
52.474  96.987  91.933 
52.406  97.832  90.803 
51.243  95.446  92.073 
48.877  95.821  92.316 
47.428  94.320  93.107 
48.723  93.269  94.323 
48.022  93.510  93.924 
47.071  92.872  93.963 
46.667  92.542  94.647 
46.000  91.624  95.121 
45.624  90.943  95.006 
44.568  90.678  95.625 
42.503  90.911  94.601 
43.053  90.671  94.852 
41.703  91.213  94.191 
42.044  89.818  94.823 
40.739  89.044  95.354 
41.304  89.168  95.348 
39.604  90.470  94.060 
36.546  91.618  91.926 
37.785  89.411  94.034 
39.121  87.795  95.935 
36.980  85.423  96.806 
37.177  83.298  97.500 
37.144  91.326  92.415 
33.896  84.802  94.395 
35.316  85.441  94.962 
32.938  85.651  92.765 
34.013  83.607  94.966 
33.420  82.347  94.917 
34.072  81.807  95.340 
34.984  83.398  95.804 
33.076  82.952  94.381 
33.392  83.654  94.757 
32.547  78.821  96.205 
30.583  79.431  94.133 
31.551  79.927  94.906 
30.760  78.580  95.199 
29.415  77.435  94.251 
29.128  76.163  94.254 
30.223  75.247  94.407 
29.540  74.825  94.848 
28.973  75.231  94.293 
28.574  74.299  93.481 
28.348  73.762  94.309 
28.189  72.660  94.026 
28.909  71.747  94.946 
28.523  71.249  94.420 
27.914  70.709  93.929 
27.913  69.534  94.537 
28.168  68.259  95.381 
27.496  66.699  95.511 
27.287  68.169  95.116 
27.930  66.678  96.024 
27.569  65.415  96.168 
27.905  65.680  95.231 
26.551  65.031  94.293 
26.811  64.657  95.180 
25.864  63.249  94.747 
25.788  62.449  94.407 
25.622  61.286  94.396 
25.132  61.012  94.097 
24.529  60.876  93.829 
24.254  58.858  93.612 
25.986  59.144  94.526 
25.425  58.554  94.456 
26.101  57.119  94.425 
25.195  56.701  93.717 
25.455  56.027  94.430 
25.838  55.856  94.882 
25.509  55.164  93.872 
25.288  53.973  94.052 
25.153  53.012  93.999 
25.139  52.006  93.815 
25.983  51.949  94.052 
25.578  50.939  93.293 
25.404  49.494  92.977 
25.690  49.659  93.832 
25.110  48.638  93.308 
31.827  47.007  97.455 
27.523  45.343  93.944 
27.161  43.555  92.756 
22.417  44.511  89.176 
29.616  44.643  95.326 
29.359  43.065  94.443 
28.463  42.022  93.291 
29.831  42.376  93.860 
29.289  41.105  93.863 
30.461  41.441  94.319 
31.712  39.276  93.796 
31.626  39.021  94.353 
31.114  37.299  93.102 
32.023  37.818  93.439 
32.274  36.954  93.728 
32.827  37.273  94.318 
33.650  36.367  93.869 
33.728  35.545  93.420 
34.450  34.275  93.627 
35.637  34.985  93.896 
35.753  34.007  93.704 
36.231  33.617  94.204 
36.869  33.060  93.896 
36.564  32.743  93.342 
37.051  32.613  94.102 
37.437  30.802  92.892 
38.415  32.261  94.275 
38.320  26.350  89.955 
39.267  31.205  94.655 
38.115  31.624  93.814 
39.577  28.529  92.866 
44.988  29.341  97.388 
43.089  30.406  96.071 
47.244  25.760  95.428 
37.431  24.715  88.379 
41.237  30.613  94.981 
42.748  27.382  93.825 
41.721  26.801  92.948 
42.124  24.599  91.853 
48.806  26.313  96.096 
44.327  29.754  97.071 
42.233  21.886  88.211 
48.218  30.008  98.999 
40.628  22.636  89.097 
46.260  19.297  86.900 
46.298  29.598  98.409 
46.154  21.109  88.999 
54.453  21.172  91.677 
53.575  25.187  95.889 
60.423  23.167  93.879 
56.240  21.619  92.944 
47.235  21.709  91.857 
50.728  22.344  92.961 
39.501  23.054  88.340 
57.352  24.715  95.187 
42.215  28.739  94.071 
56.484  21.131  92.243 
49.575  26.031  96.324 
60.602  18.080  87.967 
65.037  24.728  93.449 
60.277  22.060  92.279 
58.381  24.742  95.464 
62.294  16.143  85.121 
59.655  22.453  93.671 
67.577  23.580  91.364 
69.956  20.781  88.580 
66.355  23.689  92.284 
69.881  23.068  90.839 
61.214  26.069  95.077 
70.176  21.238  89.040 
71.226  23.602  91.280 
68.972  23.838  91.755 
64.787  20.551  90.298 
72.724  23.584  91.120 
67.285  18.549  87.555 
73.383  23.652  91.152 
73.450  25.066  91.274 
72.753  24.710  92.037 
73.850  24.353  91.065 
75.563  25.949  91.475 
75.639  23.732  90.366 
76.524  26.409  91.462 
79.007  25.842  90.974 
78.149  26.255  91.542 
81.233  24.113  88.213 
81.254  27.022  90.692 
82.145  28.257  91.880 
83.874  29.233  91.687 
81.361  25.479  89.029 
87.620  37.084  92.984 
83.515  28.364  91.700 
82.280  33.888  95.329 
82.113  33.083  94.395 
86.959  36.420  92.919 
85.309  33.801  93.336 
84.516  29.703  91.518 
83.308  34.348  95.073 
83.385  30.033  92.323 
90.818  34.590  89.777 
90.141  33.232  89.834 
85.067  30.616  92.072 
85.642  32.469  92.503 
91.477  37.432  90.915 
90.433  34.718  90.550 
89.425  38.766  92.163 
92.304  35.440  89.265 
96.663  39.576  86.846 
88.423  39.389  94.076 
88.631  40.806  94.891 
89.185  40.999  93.729 
93.002  41.828  91.650 
91.684  43.837  94.692 
92.787  48.332  95.489 
91.192  39.798  92.473 
93.726  46.359  93.875 
97.339  47.963  89.926 
95.189  40.211  88.460 
96.256  48.937  90.741 
97.170  51.648  91.534 
95.653  44.085  90.906 
96.063  50.962  92.725 
97.677  50.834  90.350 
98.022  55.311  91.962 
97.899  55.796  92.772 
97.278  50.110  90.731 
93.834  54.066  96.172 
95.298  54.070  95.717 
94.618  51.925  95.825 
93.654  56.035  97.373 
97.214  59.940  93.618 
98.611  59.556  92.407 
96.206  57.154  95.022 
95.907  51.911  94.568 
97.335  62.446  93.577 
95.280  53.231  95.119 
101.137  64.399  87.281 
100.667  63.486  88.708 
96.244  51.800  92.051 
98.963  69.555  90.076 
100.235  61.978  89.693 
103.365  66.441  84.095 
96.544  64.682  94.664 
102.126  64.850  86.181 
97.382  67.766  93.378 
100.254  64.354  89.328 
96.936  64.866  93.989 
98.464  69.702  91.416 
94.998  71.337  95.079 
101.587  68.077  86.290 
99.047  68.039  91.059 
96.359  74.417  91.665 
101.188  72.510  86.056 
97.264  74.006  91.224 
98.821  72.935  89.629 
93.465  76.768  93.440 
95.300  77.576  91.488 
90.372  76.645  96.153 
95.423  78.315  89.888 
89.484  78.087  95.209 
97.958  74.028  90.084 
95.061  80.002  89.620 
93.128  81.519  89.399 
95.740  75.779  92.435 
91.244  73.438  97.496 
88.676  78.599  95.880 
90.396  81.993  90.671 
88.910  80.551  94.630 
88.116  82.009  94.118 
89.218  81.427  93.522 
88.268  82.963  92.735 
87.757  82.764  93.695 
87.639  83.151  93.387 
86.990  83.985  93.374 
86.097  84.348  93.694 
85.554  85.653  92.771 
85.419  85.811  93.241 
84.642  85.833  93.891 
83.365  87.047  93.539 
83.414  86.718  94.445 
82.632  88.386  93.507 
83.200  87.280  93.987 
82.292  87.324  94.962 
75.499  88.764  96.971 
81.863  93.339  88.440 
83.505  93.052  87.284 
75.530  88.233  97.773 
82.476  86.493  94.657 
76.283  88.583  96.566 
78.276  90.430  94.154 
77.953  90.385  93.642 
75.506  95.038  89.539 
75.015  91.589  93.070 
74.324  93.216  91.473 
71.596  93.633  92.677 
71.744  92.525  94.246 
71.286  92.367  94.286 
70.529  94.870  92.629 
70.325  93.750  93.138 
69.957  94.452  92.711 
68.233  95.315  92.693 
67.588  94.375  92.884 
68.090  95.615  92.250 
66.832  96.000  92.382 
65.806  95.341  93.102 
63.625  95.976  92.154 
64.994  96.166  91.987 
58.765  97.110  91.802 
60.537  98.337  90.222 
64.722  94.981  93.422 
62.216  99.439  88.347 
57.434  97.375  91.427 
60.967  95.510  93.068 
58.635  99.597  88.580 
58.642  96.722  92.265 
60.586  94.011  95.307 
55.687  96.599  92.260 
53.173  98.927  89.756 
56.333  98.878  89.452 
56.636  94.749  94.864 
52.117  95.775  93.101 
46.570  95.615  91.260 
50.441  94.621  93.898 
52.045  93.794  95.123 
49.643  93.476  94.365 
49.793  94.897  92.514 
48.597  94.168  93.069 
49.032  94.714  93.086 
47.256  93.613  93.502 
46.236  91.971  94.091 
45.877  92.640  94.469 
45.372  91.551  94.606 
43.630  90.459  94.473 
43.259  91.146  94.121 
44.251  90.970  94.131 
42.444  91.403  94.242 
40.832  89.425  94.627 
40.491  89.463  95.308 
40.327  90.117  94.494 
39.050  91.795  93.092 
37.565  92.092  92.212 
37.274  89.268  94.300 
38.768  88.589  95.255 
35.999  89.145  93.440 
36.339  86.768  95.574 
32.522  87.563  92.100 
35.227  88.572  93.463 
34.399  85.437  94.050 
34.522  84.286  95.252 
32.889  83.795  93.378 
35.771  82.205  97.133 
33.158  82.943  93.577 
36.724  80.307  97.926 
