35.796  66.043  101.985 
35.112  68.476  101.141 
35.046  67.516  100.668 
34.352  67.889  100.514 
35.085  66.392  101.859 
34.362  64.589  101.055 
34.221  66.118  101.239 
33.478  66.201  100.571 
32.415  62.817  100.168 
32.853  61.618  100.804 
31.570  63.415  98.749 
33.522  62.036  101.170 
33.835  59.869  101.349 
29.445  58.359  97.869 
33.540  59.120  100.849 
35.062  59.564  101.503 
33.508  58.741  101.537 
31.884  58.499  99.713 
29.876  51.650  98.081 
32.749  58.148  100.905 
32.302  54.439  99.662 
29.389  51.419  98.360 
28.526  49.758  97.261 
31.125  49.971  98.990 
30.788  47.554  98.371 
32.906  49.303  100.034 
28.917  44.864  94.695 
35.895  47.965  101.301 
31.071  49.922  99.535 
32.956  49.671  100.413 
35.498  47.442  99.991 
36.364  44.466  100.741 
35.821  43.941  99.579 
36.296  43.774  100.312 
36.503  43.056  99.274 
37.953  42.428  100.046 
37.270  43.633  101.030 
40.338  41.059  101.561 
37.253  39.768  99.484 
38.890  42.787  100.790 
37.662  41.606  100.083 
39.616  41.181  101.093 
38.044  41.629  100.470 
39.969  38.915  100.633 
40.829  38.836  100.466 
42.940  40.079  102.318 
42.853  37.096  101.032 
41.937  38.486  100.687 
46.145  35.474  101.778 
41.141  36.055  98.902 
44.042  34.551  99.517 
50.365  38.407  104.302 
50.943  37.038  103.484 
44.184  35.425  99.943 
53.863  42.196  106.477 
55.492  32.163  101.028 
44.256  26.018  93.877 
51.885  32.570  101.694 
46.938  32.417  100.057 
46.742  34.959  101.700 
56.039  35.443  104.101 
55.919  34.695  103.809 
50.353  29.587  98.716 
46.321  30.524  98.806 
53.016  36.387  104.202 
51.816  27.409  97.320 
63.593  28.589  98.108 
46.784  31.474  99.649 
52.777  33.459  102.562 
51.847  31.694  101.161 
55.847  32.746  102.545 
62.155  29.046  98.480 
61.251  28.633  98.549 
62.660  35.807  103.283 
59.676  24.848  95.839 
62.305  29.114  97.852 
64.442  27.796  97.032 
61.557  32.558  101.246 
59.743  28.772  99.046 
64.233  29.531  97.552 
65.663  30.708  98.092 
67.331  29.905  97.973 
68.331  29.043  97.475 
68.481  28.404  97.024 
69.945  29.959  97.701 
70.678  28.842  96.892 
70.706  29.918  97.533 
71.006  30.801  97.962 
71.527  30.921  97.478 
71.901  31.224  98.093 
72.353  30.575  97.585 
72.729  31.500  97.639 
74.951  32.618  97.071 
75.839  31.972  96.875 
74.868  32.947  97.849 
76.864  32.836  96.796 
76.859  32.854  97.302 
76.853  34.458  98.149 
76.489  34.932  98.627 
79.663  34.604  96.859 
78.337  35.110  97.826 
78.845  36.220  98.129 
81.344  34.753  96.561 
80.522  38.060  98.007 
81.825  35.524  96.541 
81.208  36.441  97.499 
83.614  40.575  97.759 
81.136  41.608  100.159 
84.997  44.076  98.507 
81.746  42.586  99.765 
86.291  44.092  98.386 
86.392  40.401  96.642 
85.732  44.256  98.924 
88.272  45.996  97.731 
87.909  44.244  97.473 
87.854  46.949  98.428 
87.769  46.223  98.541 
88.112  47.325  98.567 
87.918  47.634  98.930 
88.772  47.897  98.741 
88.377  49.431  98.505 
89.143  50.426  98.962 
90.112  50.892  98.450 
89.924  51.678  98.755 
90.379  52.146  98.142 
91.148  51.414  97.813 
90.135  53.451  98.492 
90.802  54.436  98.359 
90.631  53.802  97.710 
91.924  54.754  97.451 
89.554  58.583  99.338 
91.586  57.433  98.113 
90.345  55.460  98.003 
91.188  59.492  98.070 
89.765  59.966  98.904 
89.665  61.076  99.131 
90.633  62.104  98.086 
90.652  63.220  98.406 
91.560  63.978  98.074 
91.048  63.728  98.281 
90.279  64.714  98.939 
90.982  65.010  98.746 
89.221  65.822  99.883 
90.417  66.543  99.067 
89.851  65.913  99.202 
89.183  67.053  99.850 
90.993  69.018  97.824 
81.860  75.710  102.448 
89.365  69.017  98.930 
90.205  69.047  98.418 
88.269  69.222  99.742 
90.301  77.369  95.698 
81.555  70.990  103.086 
85.287  75.443  99.792 
87.849  72.515  100.146 
85.215  73.884  100.391 
86.810  74.707  98.770 
77.508  77.363  102.492 
81.741  73.044  103.047 
90.049  79.345  93.668 
85.448  79.242  97.186 
89.309  80.902  93.626 
82.116  77.522  101.867 
74.172  78.797  103.248 
81.010  82.578  98.858 
83.324  77.572  100.445 
77.293  84.049  100.545 
80.873  79.195  101.206 
80.022  83.242  99.482 
79.681  86.795  96.804 
74.823  88.338  98.341 
73.085  80.824  103.117 
77.235  87.601  98.457 
76.810  89.256  96.376 
74.010  84.652  101.067 
73.893  85.871  100.101 
73.813  84.069  100.887 
72.559  80.537  103.635 
71.901  82.829  102.472 
73.966  85.427  100.939 
77.260  84.502  99.940 
72.712  87.641  99.226 
77.666  80.372  102.081 
66.284  91.880  96.396 
65.187  89.733  99.011 
63.248  93.256  95.254 
62.892  86.549  101.621 
61.639  86.502  102.277 
67.799  86.606  101.071 
65.040  93.213  94.597 
62.777  89.011  99.708 
66.961  87.349  101.263 
63.484  87.224  101.435 
63.339  90.457  98.170 
64.204  91.754  96.434 
62.922  90.061  98.825 
55.947  94.107  96.008 
61.172  92.890  95.955 
60.030  83.611  103.794 
60.532  86.356  101.585 
51.628  85.511  101.594 
57.958  89.558  99.879 
57.835  92.875  97.836 
56.202  87.368  100.647 
56.862  88.155  100.808 
57.350  87.166  101.493 
51.560  86.812  101.046 
50.270  84.450  101.538 
51.206  86.036  101.069 
51.235  86.892  100.584 
49.791  88.153  99.403 
50.718  86.511  100.043 
48.157  84.478  101.329 
46.015  86.151  98.563 
47.054  84.706  100.399 
43.206  82.099  101.365 
42.903  81.361  101.041 
43.170  83.930  100.189 
46.429  83.135  101.163 
40.234  81.750  100.206 
43.731  80.774  102.172 
39.970  84.825  98.885 
37.412  79.378  99.325 
39.964  84.159  99.198 
35.158  83.511  95.694 
39.701  80.129  100.127 
46.535  82.624  101.874 
36.552  78.700  98.970 
38.189  82.206  99.329 
38.552  80.160  99.541 
37.159  78.039  99.034 
43.456  76.920  103.604 
37.102  82.013  98.215 
39.391  81.640  99.791 
36.031  75.404  99.484 
35.420  74.728  99.213 
36.105  73.431  99.889 
36.145  69.817  100.455 
34.634  72.990  99.273 
35.189  69.056  100.331 
35.470  67.988  101.514 
34.629  69.555  100.211 
35.700  69.405  101.163 
34.691  67.860  101.006 
34.222  68.168  99.982 
33.475  64.566  100.841 
34.507  66.521  101.133 
33.191  66.824  99.933 
33.625  66.600  100.738 
32.019  64.826  99.389 
31.540  60.691  98.834 
32.959  63.948  100.148 
30.761  60.031  98.959 
32.020  59.905  99.983 
30.383  59.106  99.198 
29.919  59.981  98.491 
31.977  56.929  100.063 
32.250  57.527  99.496 
32.169  59.245  99.633 
32.547  55.624  100.675 
35.460  56.672  103.171 
36.423  51.514  102.715 
34.884  52.199  102.419 
30.748  51.428  99.737 
30.345  52.482  98.748 
33.933  54.821  101.449 
31.373  50.773  99.753 
33.248  46.117  99.120 
35.071  47.525  100.198 
34.416  49.118  100.938 
34.498  47.533  100.333 
33.773  46.885  99.824 
33.179  45.764  98.586 
35.638  45.451  100.100 
35.272  44.909  99.729 
35.795  42.724  99.009 
36.797  41.869  99.376 
37.041  42.293  99.956 
37.401  42.822  100.562 
36.823  40.655  99.396 
35.993  40.180  98.481 
38.813  41.647  100.966 
39.308  40.306  99.699 
38.562  39.919  99.385 
39.871  40.460  101.144 
40.259  37.918  99.087 
42.336  38.810  101.372 
40.050  37.087  99.076 
41.540  40.155  101.287 
40.871  38.861  101.013 
41.804  34.714  98.010 
43.330  35.501  99.815 
41.306  34.639  98.027 
45.809  36.463  101.952 
46.886  38.781  102.929 
43.112  38.145  101.511 
45.236  30.456  97.685 
44.562  34.177  99.332 
42.833  23.076  90.886 
47.688  36.796  102.727 
56.400  29.722  100.140 
49.249  32.332  101.616 
54.548  36.496  104.623 
51.169  32.095  100.664 
53.284  29.445  100.476 
60.816  38.741  105.952 
56.516  37.022  104.792 
60.291  36.875  104.786 
55.803  28.375  99.095 
60.593  33.030  101.315 
63.893  26.971  96.189 
44.705  29.397  96.791 
57.330  30.648  101.373 
58.188  28.571  99.260 
54.371  32.151  101.992 
61.615  25.669  96.156 
61.737  27.024  96.971 
58.610  25.692  96.739 
60.073  32.369  101.700 
62.615  35.101  102.935 
62.954  28.545  98.222 
64.917  28.762  97.230 
66.301  29.238  97.021 
67.147  28.472  97.149 
67.932  29.321  97.738 
68.791  29.131  97.619 
69.981  29.671  96.782 
70.608  29.424  97.242 
71.363  28.802  96.540 
71.655  30.414  96.685 
71.689  30.274  97.572 
72.470  31.070  97.552 
73.401  30.540  96.810 
74.512  31.921  96.878 
73.605  31.694  97.308 
73.234  32.053  97.139 
76.356  32.067  96.874 
76.251  33.402  97.759 
76.304  32.761  97.070 
77.660  33.659  97.588 
78.438  34.235  97.398 
77.916  34.821  97.530 
78.770  35.174  97.129 
79.903  35.174  97.075 
80.572  38.260  98.595 
81.978  34.276  96.242 
80.395  34.155  96.010 
81.566  37.133  97.232 
85.795  40.609  96.730 
86.577  39.147  95.617 
85.472  42.003  97.701 
85.007  45.565  99.284 
85.718  44.802  98.788 
85.148  39.656  96.605 
86.323  43.280  97.236 
88.164  42.075  95.821 
86.444  42.668  96.844 
87.923  45.435  97.296 
89.148  46.207  97.667 
88.727  47.062  98.329 
89.245  47.469  98.016 
88.978  47.795  98.173 
88.826  48.420  98.054 
89.536  48.854  98.317 
89.580  49.860  98.371 
90.573  50.112  98.082 
90.271  51.367  98.092 
90.661  50.890  97.670 
89.100  54.514  98.896 
91.520  54.713  97.865 
91.659  53.530  97.459 
91.410  55.583  97.889 
89.520  56.405  98.888 
89.809  60.468  99.235 
89.981  61.137  98.669 
92.159  60.627  97.335 
88.669  61.328  99.489 
92.474  60.052  96.844 
90.496  57.657  98.791 
90.469  61.811  97.506 
91.312  62.216  97.743 
91.200  63.109  97.719 
91.619  63.483  97.400 
91.218  64.506  98.610 
91.286  65.638  98.475 
90.680  65.670  99.036 
90.220  66.273  98.653 
89.931  68.142  98.545 
91.315  68.418  97.703 
89.980  69.854  97.975 
89.215  67.169  99.046 
89.757  69.761  98.579 
88.675  72.231  99.385 
82.898  76.391  101.911 
88.833  68.752  99.593 
83.405  72.078  102.669 
91.220  73.204  96.850 
90.976  76.765  95.695 
89.090  75.897  97.821 
92.135  76.253  94.630 
75.089  77.568  103.054 
86.424  78.322  97.510 
85.169  76.190  99.385 
84.625  73.205  102.165 
79.591  76.540  102.883 
81.088  84.725  97.913 
82.656  80.341  99.423 
83.387  78.706  99.274 
83.265  81.420  98.410 
75.438  82.450  101.159 
79.339  87.834  96.773 
72.886  85.864  100.979 
69.420  81.879  103.881 
80.551  82.985  99.107 
77.923  83.748  100.365 
70.716  89.208  98.435 
78.447  82.399  100.880 
66.574  88.894  99.481 
69.932  88.416  99.477 
75.376  85.594  99.829 
68.054  86.123  102.010 
71.078  92.768  94.952 
69.415  89.745  97.596 
72.996  88.779  97.261 
63.911  85.706  102.545 
72.268  87.063  99.647 
71.023  88.929  97.758 
63.889  89.180  100.075 
66.777  89.815  97.591 
60.932  88.142  100.934 
65.247  87.160  101.608 
62.226  89.538  99.310 
63.232  82.805  104.120 
64.200  84.449  102.720 
75.402  79.066  102.320 
61.667  88.122  101.094 
63.943  91.762  97.258 
61.894  90.248  99.632 
60.809  88.930  100.524 
59.037  92.887  97.300 
57.849  91.991  98.380 
62.151  91.461  97.382 
61.221  91.725  97.938 
55.286  89.690  98.988 
53.011  93.219  96.224 
61.404  89.210  99.921 
55.902  91.187  98.079 
52.968  88.729  98.732 
54.263  88.921  99.574 
53.653  86.982  100.418 
51.272  87.818  99.833 
52.030  85.390  100.890 
46.162  84.751  100.454 
51.822  87.490  100.404 
50.508  87.323  100.212 
48.078  86.964  99.836 
50.134  87.664  100.008 
49.778  86.478  100.566 
44.557  84.649  99.444 
45.906  82.082  101.966 
49.199  84.637  101.119 
40.106  80.530  100.841 
45.687  83.087  100.688 
44.455  83.755  100.560 
37.565  82.325  98.824 
41.979  77.315  102.942 
42.779  81.952  101.181 
45.654  81.742  101.630 
43.143  80.368  101.791 
37.419  78.721  99.803 
38.629  74.935  102.043 
39.686  78.639  101.770 
42.281  80.717  101.519 
38.288  77.583  100.561 
38.350  80.555  100.314 
37.923  76.894  100.711 
40.394  83.814  99.214 
36.056  78.039  98.563 
36.755  75.354  99.821 
35.893  73.918  99.345 
35.620  73.005  99.628 
35.174  72.203  99.460 
34.510  71.108  98.983 
34.876  70.805  99.421 
35.465  71.070  100.287 
34.018  69.057  99.879 
35.886  68.696  101.501 
35.129  68.214  100.723 
34.525  68.787  100.381 
34.315  67.152  100.445 
33.627  65.135  100.362 
32.051  64.817  98.868 
32.205  64.354  99.682 
33.173  64.682  99.614 
32.981  62.454  100.588 
31.889  62.937  99.637 
32.353  61.295  100.060 
30.016  55.682  98.318 
31.262  57.285  99.790 
31.633  59.100  99.741 
30.326  56.871  98.551 
33.219  57.987  100.542 
37.935  55.671  104.701 
30.570  56.578  99.390 
30.385  57.276  98.890 
33.507  51.749  101.579 
32.550  56.208  99.907 
28.589  51.247  97.872 
29.200  52.367  98.325 
30.576  53.211  99.247 
27.062  47.606  95.791 
34.922  50.416  101.059 
35.112  48.930  101.362 
32.383  53.820  100.701 
32.962  47.372  99.488 
33.465  50.946  101.281 
33.109  44.685  98.388 
34.519  46.138  100.000 
34.266  45.157  98.955 
35.419  44.564  99.450 
35.142  42.367  98.405 
34.104  42.830  98.037 
35.881  42.524  98.519 
35.566  41.985  98.710 
35.817  41.049  98.689 
38.215  39.578  99.236 
40.131  40.160  100.346 
38.248  42.453  100.967 
40.952  39.709  101.196 
39.538  38.643  99.990 
42.690  37.508  100.152 
40.203  39.486  100.735 
44.837  32.424  98.730 
39.536  36.679  98.312 
40.981  37.471  99.630 
42.471  32.623  97.655 
42.417  37.069  100.146 
44.388  36.506  101.046 
45.132  32.922  99.398 
46.159  34.198  101.177 
53.117  44.867  107.343 
46.734  36.837  102.957 
48.584  34.863  102.326 
50.777  40.336  105.852 
44.913  28.694  96.346 
49.159  26.930  96.781 
56.138  28.892  99.977 
48.359  32.061  101.163 
59.524  32.065  102.190 
50.350  32.873  101.691 
59.604  24.527  95.311 
49.393  30.390  100.549 
50.809  30.489  100.386 
46.802  29.953  99.245 
54.007  39.939  106.169 
50.720  34.316  102.765 
49.462  29.043  98.738 
46.737  22.073  90.625 
49.228  26.440  96.690 
58.990  30.479  100.643 
55.944  36.328  104.542 
58.002  32.551  102.311 
60.374  29.886  100.042 
60.985  32.266  101.694 
63.874  28.966  98.294 
63.528  28.254  96.835 
64.361  28.375  96.800 
66.208  29.407  97.712 
66.563  28.421  96.994 
67.570  29.255  97.210 
67.617  28.499  97.278 
68.778  28.184  96.348 
69.838  28.882  97.062 
69.535  28.194  96.648 
70.800  30.404  97.256 
72.196  29.774  96.860 
72.149  29.565  96.309 
72.655  30.587  96.876 
73.899  30.377  96.236 
74.019  31.043  96.725 
74.138  30.903  95.823 
74.271  31.749  96.506 
76.306  31.710  96.188 
75.500  32.428  96.789 
76.896  32.086  96.110 
77.731  31.868  96.356 
77.021  35.256  98.388 
78.853  32.761  96.452 
78.431  33.628  97.190 
77.804  35.354  98.404 
81.484  34.867  95.965 
81.138  35.001  96.957 
79.171  35.095  97.661 
80.615  35.786  97.359 
81.591  39.177  98.384 
84.954  39.859  96.992 
83.285  42.334  99.207 
83.357  37.296  97.057 
84.167  42.675  98.348 
85.124  41.839  97.230 
86.232  43.843  97.963 
87.158  42.979  96.497 
88.473  44.892  96.970 
87.035  44.086  97.338 
87.475  44.873  97.770 
88.894  45.792  97.335 
88.498  46.999  97.785 
89.331  46.660  97.861 
89.502  47.621  97.527 
89.515  48.481  97.710 
90.153  49.747  97.775 
90.285  49.620  97.098 
90.922  50.148  97.319 
91.055  50.476  97.711 
89.992  54.424  98.100 
91.093  53.560  97.262 
93.210  55.044  96.124 
92.426  54.364  97.216 
90.926  55.274  98.198 
94.845  55.690  96.152 
91.611  59.234  97.736 
90.406  59.251  97.852 
90.013  56.213  99.041 
89.698  58.950  98.988 
91.415  60.721  97.727 
90.983  61.214  97.856 
92.529  61.428  96.425 
91.636  62.639  97.664 
91.771  63.180  97.740 
91.663  64.253  97.124 
91.512  64.938  98.029 
92.265  65.093  97.598 
91.864  65.796  97.801 
91.011  65.927  98.051 
89.746  67.111  99.258 
90.804  67.628  97.845 
91.450  67.687  98.110 
86.937  71.718  100.732 
88.844  71.486  99.292 
89.732  73.153  98.741 
86.447  69.153  101.333 
88.641  72.100  100.012 
90.444  76.652  96.141 
83.088  71.069  103.407 
86.037  76.221  99.061 
86.929  75.645  99.118 
86.481  78.627  96.752 
85.209  79.302  98.152 
85.436  76.953  98.873 
84.992  78.903  98.583 
82.435  77.663  101.048 
86.879  78.064  97.185 
86.062  79.371  96.939 
81.808  79.960  100.661 
79.977  74.661  103.414 
80.335  78.376  101.290 
83.730  79.352  99.056 
71.279  81.768  103.524 
81.064  85.168  97.324 
73.873  79.380  103.662 
73.838  88.111  98.225 
79.878  80.441  101.073 
74.396  88.642  98.389 
77.019  83.541  100.663 
79.575  87.287  96.063 
76.995  88.756  97.168 
72.607  86.419  100.259 
74.677  89.529  96.755 
74.548  88.672  97.835 
72.766  89.457  97.692 
75.792  87.911  98.453 
73.150  87.137  99.698 
71.073  87.985  99.454 
70.310  88.636  98.456 
67.957  89.418  98.392 
63.893  88.346  100.678 
66.120  91.387  96.878 
67.662  92.179  95.996 
65.997  89.914  98.517 
63.485  83.671  103.697 
60.017  84.990  102.481 
57.498  90.994  98.131 
58.568  89.106  99.655 
67.214  87.760  100.512 
64.447  85.007  102.240 
65.142  90.238  98.303 
65.956  88.918  100.087 
57.639  93.209  97.202 
59.552  91.728  98.492 
54.731  96.474  93.615 
59.427  92.299  97.810 
59.620  88.963  100.795 
54.809  90.392  98.265 
56.191  88.208  100.693 
53.632  91.510  97.387 
54.679  88.874  99.888 
52.124  86.394  100.773 
53.233  87.870  99.757 
52.763  87.651  100.386 
51.883  89.420  99.339 
51.204  86.867  100.077 
52.834  86.259  100.661 
51.249  88.371  99.155 
49.512  86.563  99.839 
48.753  86.902  99.619 
49.614  86.998  100.077 
49.087  86.324  100.520 
44.131  85.397  98.902 
39.558  84.722  98.639 
46.869  84.375  100.924 
43.829  84.622  99.968 
42.225  84.615  99.423 
51.594  81.449  102.637 
46.308  83.722  100.471 
38.770  77.651  101.390 
45.597  84.965  100.262 
44.490  79.750  103.101 
39.182  79.404  101.229 
41.963  72.932  104.232 
41.632  76.418  103.496 
41.238  75.665  103.256 
36.801  76.348  98.913 
38.257  79.554  100.264 
38.732  71.821  103.823 
39.798  75.055  102.922 
34.805  76.849  98.203 
35.734  76.708  98.336 
35.482  74.946  98.401 
34.954  74.095  98.803 
35.293  73.693  99.503 
34.631  73.645  98.691 
34.331  71.727  99.298 
35.241  70.173  100.184 
34.205  70.585  99.035 
33.270  69.215  99.109 
34.333  69.592  99.832 
34.969  68.942  99.667 
33.709  69.003  99.407 
33.384  67.751  99.829 
33.765  67.202  100.179 
31.445  61.357  99.356 
32.848  64.867  99.908 
31.716  62.075  99.240 
30.288  62.395  98.080 
31.116  61.804  98.763 
30.618  59.626  98.508 
30.956  61.392  99.305 
29.200  59.727  98.216 
29.627  59.234  98.154 
30.093  57.910  98.671 
31.756  55.159  99.129 
31.013  56.237  99.276 
30.102  53.978  98.708 
29.477  55.211  98.017 
31.658  54.150  99.855 
30.021  51.732  98.882 
33.530  48.469  100.107 
33.847  52.674  101.672 
32.594  52.628  100.715 
32.963  52.293  101.446 
32.545  51.587  100.561 
32.334  48.206  99.459 
28.215  46.455  96.040 
29.992  49.141  98.637 
31.432  48.515  99.155 
34.090  48.482  100.566 
34.665  45.374  99.340 
34.756  44.874  99.447 
36.481  43.884  99.666 
35.610  43.096  98.747 
34.401  44.066  98.741 
34.751  41.751  98.223 
34.895  40.495  97.565 
36.084  42.182  99.374 
38.654  40.981  100.049 
36.148  39.496  97.785 
36.628  39.722  98.893 
37.131  41.049  99.203 
38.231  40.144  99.927 
37.345  41.379  99.790 
38.476  38.046  98.347 
44.286  39.504  102.163 
41.961  33.271  97.739 
41.290  35.295  98.774 
41.117  40.449  100.576 
43.237  35.276  99.356 
43.607  36.861  100.839 
49.338  35.928  102.705 
47.498  35.363  101.662 
47.407  33.677  101.199 
49.698  31.715  100.286 
48.479  32.041  100.522 
45.259  36.998  101.222 
43.420  27.114  93.737 
48.416  30.692  99.929 
43.576  29.891  95.444 
53.422  31.402  101.346 
53.893  41.167  106.565 
47.895  35.834  102.415 
52.059  31.061  100.791 
45.672  26.089  95.277 
57.707  35.498  103.928 
51.132  25.767  97.023 
58.131  26.849  98.327 
54.395  34.115  103.237 
51.741  37.296  103.951 
47.772  30.931  99.855 
48.828  31.086  100.384 
52.146  23.898  94.916 
47.795  29.504  98.794 
61.081  27.769  97.942 
60.979  30.408  99.957 
57.887  28.167  98.454 
61.763  30.301  99.667 
47.371  25.278  95.470 
64.280  26.842  96.481 
64.287  27.689  96.461 
65.550  28.140  96.720 
66.186  27.687  96.451 
67.014  28.275  96.269 
67.691  27.903  96.888 
68.325  27.796  96.292 
69.002  28.469  97.082 
69.972  28.694  96.270 
70.401  28.231  96.151 
70.994  29.107  96.544 
71.369  29.458  97.046 
72.951  29.516  96.317 
73.409  30.210  95.864 
74.365  30.189  95.349 
74.917  30.162  95.795 
74.861  30.685  96.425 
75.258  30.945  95.986 
75.919  32.903  97.336 
77.497  32.350  96.587 
78.230  32.084  95.812 
77.877  34.290  97.530 
78.280  33.390  96.432 
80.302  33.779  96.532 
81.200  33.230  95.443 
82.643  32.567  94.467 
79.494  33.705  96.369 
78.933  34.339  97.438 
85.096  38.181  96.596 
80.054  38.896  98.769 
83.294  38.225  96.634 
83.138  39.746  97.670 
85.984  41.362  96.807 
82.823  38.553  98.045 
86.646  40.799  96.372 
89.100  44.322  95.841 
89.553  44.738  96.556 
87.037  43.079  97.011 
86.780  43.317  97.505 
90.194  44.510  95.888 
90.977  45.177  96.156 
89.304  44.991  96.851 
89.388  46.476  97.300 
89.390  45.753  96.891 
89.890  48.035  97.992 
90.507  48.188  97.401 
89.328  49.298  97.674 
91.626  49.439  97.025 
92.745  51.229  96.631 
91.096  52.114  97.460 
90.970  52.951  97.829 
91.232  53.704  97.769 
92.111  52.932  97.238 
89.691  55.071  99.169 
91.681  57.525  97.235 
91.369  56.214  98.215 
91.067  58.279  98.471 
90.097  58.479  98.429 
93.021  59.530  96.730 
91.848  58.301  97.299 
92.236  61.948  96.994 
91.624  61.402  97.203 
92.911  62.393  96.655 
92.414  62.251  96.590 
92.514  63.146  96.626 
93.004  64.718  96.795 
91.851  64.590  97.919 
92.341  65.786  97.067 
91.667  66.061  97.104 
91.634  66.755  97.870 
90.251  67.107  98.496 
90.430  67.630  98.681 
91.544  66.986  97.455 
90.288  69.408  97.573 
89.569  70.840  98.630 
89.220  70.863  99.553 
87.787  72.091  100.666 
88.278  71.483  100.101 
84.986  70.481  102.388 
90.511  75.232  97.175 
84.140  75.731  100.749 
85.360  69.753  102.292 
82.459  78.890  100.474 
88.094  74.602  99.129 
85.115  77.679  99.197 
85.349  80.092  97.551 
84.867  74.668  100.484 
85.192  77.869  98.216 
85.982  78.386  98.144 
81.379  74.766  102.402 
86.041  79.881  97.258 
81.603  82.461  98.780 
82.293  82.771  97.573 
83.645  81.708  97.418 
72.340  89.465  96.806 
75.937  83.034  100.952 
77.188  84.930  100.197 
74.508  84.205  100.555 
73.392  82.987  101.973 
80.282  85.532  97.069 
76.199  88.741  97.576 
75.488  84.358  100.618 
75.492  87.862  98.927 
67.868  81.936  104.212 
68.849  88.908  98.021 
73.139  89.875  97.020 
74.130  81.175  102.312 
68.518  85.380  102.044 
68.079  89.023  98.639 
71.943  90.732  96.729 
71.493  88.348  98.563 
70.193  91.877  96.309 
70.967  84.661  101.479 
67.856  90.688  96.672 
64.870  90.712  97.491 
68.685  86.195  101.523 
63.801  92.121  96.885 
63.390  91.281  97.636 
65.702  92.359  96.018 
64.111  92.766  96.036 
64.360  92.245  96.259 
62.370  94.078  94.873 
62.801  94.639  94.088 
60.541  91.262  97.922 
62.678  93.784  94.594 
62.794  92.182  95.818 
60.244  92.632  96.739 
61.170  92.460  96.710 
56.404  91.838  97.622 
54.776  89.314  99.026 
55.073  90.617  98.929 
56.688  93.069  97.067 
54.299  90.520  98.555 
53.609  88.787  99.956 
54.807  87.788  100.734 
53.538  87.925  100.203 
52.187  87.610  100.026 
51.099  89.138  98.812 
50.211  88.884  98.525 
50.499  88.341  99.672 
48.972  87.989  98.941 
48.960  87.648  99.289 
48.137  87.511  99.220 
47.686  86.374  98.930 
48.549  85.690  100.458 
45.856  85.413  99.800 
40.511  84.672  99.082 
43.217  84.312  99.352 
41.639  81.146  100.471 
41.523  80.671  101.757 
40.921  81.782  100.299 
35.412  82.588  96.220 
42.896  85.044  99.576 
43.529  79.938  102.177 
38.058  80.685  98.980 
38.030  78.366  100.633 
35.055  81.084  96.698 
41.377  80.532  101.321 
38.088  80.787  99.789 
38.910  78.672  100.768 
42.743  83.154  100.168 
38.821  82.877  99.518 
35.099  78.816  98.231 
35.169  77.214  98.247 
35.318  75.860  98.592 
36.045  75.960  98.919 
34.788  75.071  98.428 
35.031  74.036  98.059 
34.199  73.666  97.987 
34.442  72.775  98.333 
34.283  72.099  98.702 
33.538  70.878  98.557 
32.410  70.436  98.079 
33.582  69.897  98.965 
34.468  68.755  99.919 
34.575  69.614  99.321 
32.901  67.335  99.230 
33.528  67.374  99.265 
33.174  66.447  99.166 
33.212  65.696  100.220 
31.659  63.910  99.329 
32.350  63.985  99.021 
31.802  62.141  99.861 
29.829  61.170  98.273 
30.351  61.674  98.423 
30.254  62.686  97.295 
31.676  57.647  99.915 
29.976  61.689  97.579 
29.562  60.475  97.941 
29.726  57.251  98.354 
31.324  59.752  99.542 
30.556  57.471  99.315 
32.571  56.656  100.636 
31.227  53.633  99.509 
32.419  58.955  100.156 
29.862  52.725  98.040 
28.872  49.007  97.815 
29.983  49.932  98.812 
29.512  49.210  97.556 
32.592  46.877  98.519 
25.903  45.798  93.675 
31.211  50.443  100.131 
32.687  54.338  100.644 
32.482  45.250  98.369 
34.832  45.856  99.365 
34.069  45.650  98.940 
34.035  44.290  98.382 
35.155  44.040  99.002 
35.186  43.526  98.978 
35.067  42.838  98.849 
35.291  39.780  97.531 
37.147  38.967  98.445 
36.188  40.711  98.333 
37.526  40.636  99.881 
35.752  39.396  98.175 
37.824  39.929  99.946 
39.023  39.367  100.123 
40.873  38.318  99.873 
39.737  39.191  100.157 
39.101  37.394  98.253 
40.466  37.620  99.497 
39.390  37.121  98.835 
43.792  34.869  99.827 
40.545  35.652  98.442 
40.946  29.424  94.079 
43.327  27.840  94.344 
46.745  30.832  99.372 
50.195  39.172  105.109 
45.091  35.285  100.743 
41.131  35.056  98.325 
41.686  29.122  94.443 
42.904  25.641  92.791 
46.532  33.125  100.416 
42.134  31.178  96.536 
50.325  34.662  102.826 
48.989  30.661  100.664 
55.440  35.142  104.092 
54.837  33.314  102.432 
54.226  31.363  101.643 
53.161  33.057  101.998 
52.777  32.001  101.316 
57.955  30.259  100.597 
49.900  37.813  103.606 
50.884  24.279  94.818 
45.869  26.977  96.128 
53.039  25.098  96.222 
60.115  26.390  97.462 
52.307  25.117  96.649 
58.072  29.300  99.957 
63.674  25.567  94.736 
55.316  27.927  98.861 
48.474  29.258  98.734 
65.479  25.526  94.179 
61.163  30.816  100.207 
63.949  27.556  96.896 
65.054  25.466  94.783 
65.181  27.155  95.806 
65.162  27.319  96.464 
65.518  26.787  96.133 
67.009  27.485  95.910 
67.201  27.863  96.797 
69.335  27.708  96.056 
70.064  27.934  95.930 
70.885  28.178  96.188 
71.366  28.541  95.773 
71.908  28.536  95.946 
71.763  29.170  96.417 
72.931  29.271  95.887 
73.738  29.441  95.907 
75.296  29.484  95.308 
75.882  30.195  95.629 
76.362  30.906  95.565 
76.874  32.163  96.695 
75.507  31.288  96.371 
77.171  31.515  96.348 
78.616  30.736  95.193 
76.851  33.357  97.564 
85.916  31.850  92.291 
79.724  33.883  97.095 
81.774  32.948  94.952 
79.259  33.830  97.166 
81.709  33.904  96.058 
80.614  33.242  95.891 
92.612  38.708  91.192 
82.434  34.607  95.601 
80.421  34.438  96.978 
84.599  38.812  96.813 
85.856  40.178  96.063 
81.623  37.715  97.888 
84.652  43.417  98.720 
88.161  43.039  95.844 
87.599  43.505  97.038 
87.747  40.417  95.583 
86.434  41.917  96.269 
88.647  45.382  97.008 
92.708  45.309  94.823 
90.605  46.064  96.404 
89.694  45.655  96.387 
90.183  46.117  96.810 
90.073  46.396  97.240 
90.076  46.903  97.204 
90.669  47.465  97.047 
90.151  48.980  97.671 
90.788  49.084  97.363 
91.183  49.718  96.880 
93.434  52.914  96.290 
92.047  50.940  97.001 
91.658  52.039  97.253 
91.543  50.908  97.371 
93.310  57.892  97.055 
96.943  53.229  92.493 
93.394  55.761  96.864 
91.373  58.128  97.984 
96.599  53.663  94.332 
92.020  56.106  97.722 
90.676  60.278  98.026 
94.159  62.346  95.883 
94.555  61.656  95.127 
93.471  61.643  96.226 
93.048  63.312  96.303 
92.488  64.019  96.465 
93.397  64.435  96.498 
92.255  64.355  97.106 
92.037  65.126  97.159 
91.409  65.916  97.643 
91.030  66.570  98.334 
92.034  67.043  97.114 
92.182  68.287  97.205 
91.956  67.678  97.789 
91.497  69.511  97.650 
89.907  74.930  97.727 
87.672  73.488  99.700 
89.640  76.080  96.390 
86.388  71.275  101.271 
89.453  72.691  98.782 
91.390  74.467  96.473 
86.543  77.869  98.041 
86.978  73.417  99.865 
90.733  75.331  96.137 
81.977  80.421  99.989 
86.542  69.710  101.336 
87.250  79.551  96.291 
86.380  78.953  97.467 
96.311  70.650  92.210 
88.418  78.533  95.474 
84.003  77.055  100.121 
83.651  73.024  103.032 
83.282  80.662  98.898 
79.409  74.904  102.790 
81.634  83.965  97.490 
82.765  81.553  98.579 
78.693  79.825  101.894 
77.307  85.615  99.741 
79.073  88.955  96.133 
76.522  87.443  98.861 
79.958  77.910  102.402 
74.979  81.651  102.204 
80.953  89.059  94.119 
77.500  79.639  102.731 
74.968  89.513  96.006 
78.275  86.204  98.740 
77.815  81.203  101.686 
70.595  90.048  97.296 
69.913  87.511  99.531 
60.067  86.911  102.279 
70.132  89.265  97.827 
67.995  84.945  102.612 
76.032  79.520  102.977 
68.683  87.051  100.760 
66.916  90.968  97.053 
59.125  82.391  103.850 
68.799  91.084  96.812 
65.647  90.768  97.624 
59.173  93.116  96.568 
66.263  93.651  94.533 
63.563  93.323  94.843 
61.628  93.645  95.082 
58.075  93.772  96.111 
55.780  96.167  92.881 
61.653  92.908  96.159 
67.287  86.493  101.555 
59.892  94.925  93.537 
58.807  89.979  99.359 
61.624  90.291  98.322 
52.497  99.069  90.518 
60.573  92.882  96.372 
54.095  92.395  97.239 
52.688  92.831  96.075 
55.615  88.802  100.286 
53.338  92.557  96.662 
55.092  91.311  98.095 
54.145  89.402  99.365 
52.675  89.455  99.003 
51.611  89.639  98.442 
51.982  88.171  99.459 
52.596  88.532  99.475 
49.785  88.612  98.086 
49.740  88.598  99.083 
48.469  87.532  98.647 
47.580  87.262  99.022 
46.385  86.725  98.372 
48.208  86.279  99.505 
44.956  85.726  98.799 
44.919  86.379  98.760 
44.229  85.941  98.818 
44.398  86.302  98.029 
43.993  84.126  100.029 
41.866  83.095  100.232 
40.664  85.336  98.720 
43.653  82.977  100.736 
40.166  85.464  98.456 
36.002  84.573  96.185 
38.861  83.538  99.440 
36.368  85.965  94.770 
37.635  77.092  100.289 
37.769  81.513  98.522 
35.738  81.206  97.713 
40.440  78.301  102.256 
35.807  77.538  98.898 
35.552  78.354  98.495 
35.160  78.052  97.316 
34.540  75.939  98.133 
34.513  76.202  97.358 
35.126  76.040  97.946 
33.938  74.474  97.910 
34.296  74.344  98.205 
33.753  73.667  98.239 
33.261  72.477  98.045 
33.719  72.703  98.406 
33.172  71.151  98.500 
33.074  70.017  98.125 
32.865  69.691  98.618 
33.714  68.411  99.241 
32.747  68.087  99.161 
31.699  66.963  98.635 
32.275  67.533  98.797 
32.578  66.031  99.704 
31.105  65.078  98.627 
30.511  63.446  98.468 
31.256  63.035  98.974 
30.590  61.867  98.788 
31.117  62.216  99.090 
29.944  63.105  98.000 
30.076  60.741  97.922 
28.815  57.880  97.762 
30.695  60.699  98.336 
30.637  58.580  99.197 
30.325  55.403  98.980 
30.130  58.621  98.427 
29.916  56.533  98.364 
29.010  53.588  97.829 
30.078  53.103  98.380 
30.890  53.703  98.647 
28.009  48.975  96.893 
28.638  52.762  97.684 
29.293  50.902  98.024 
30.570  48.211  98.242 
31.765  49.974  100.094 
31.825  46.625  98.558 
32.703  51.024  100.631 
30.809  45.634  96.819 
26.502  47.943  95.267 
29.485  44.310  95.557 
32.959  45.171  97.987 
31.946  45.651  98.120 
33.819  44.927  98.712 
34.511  43.501  98.501 
34.340  41.184  97.672 
34.391  42.117  97.902 
33.940  39.644  96.687 
35.398  40.024  97.965 
34.464  39.973  97.249 
36.553  39.364  98.585 
37.568  39.996  99.161 
37.898  38.466  98.360 
38.725  36.924  98.369 
42.084  39.347  101.133 
37.672  38.590  99.149 
45.139  37.878  101.853 
39.301  37.892  99.122 
40.467  33.894  96.919 
40.794  34.190  97.638 
41.736  35.759  99.128 
42.344  31.461  95.811 
44.352  29.769  96.074 
49.310  36.246  103.230 
44.704  33.573  99.970 
43.530  31.565  97.235 
46.014  27.627  96.549 
44.758  27.358  95.328 
50.168  25.095  96.109 
47.790  34.134  101.290 
46.311  31.698  99.456 
49.671  30.950  100.187 
44.271  24.597  92.660 
53.255  26.981  97.596 
52.235  27.626  97.465 
44.653  35.920  101.075 
51.098  36.997  104.256 
48.552  36.979  103.074 
51.645  36.400  104.010 
57.381  25.448  96.327 
55.058  27.438  98.331 
49.575  29.101  99.556 
47.081  28.254  97.916 
48.970  29.130  98.578 
62.458  30.029  98.447 
58.997  26.791  98.095 
59.983  29.620  98.855 
57.396  26.484  97.860 
50.941  28.386  98.228 
62.679  24.941  95.320 
49.046  27.343  97.638 
59.759  23.633  95.427 
64.548  25.410  94.615 
63.012  26.844  96.582 
66.272  27.071  96.073 
66.702  27.090  95.596 
67.310  27.275  96.229 
67.624  26.952  95.454 
68.469  27.965  95.423 
68.872  27.593  95.467 
69.589  27.500  95.228 
70.832  28.012  95.463 
71.747  27.794  95.508 
72.533  28.716  95.922 
73.104  28.715  95.250 
72.924  28.292  95.493 
74.577  29.464  95.616 
76.224  29.687  94.621 
77.048  30.562  95.492 
76.225  31.169  96.001 
76.989  31.444  95.337 
78.217  31.353  95.245 
78.219  31.283  95.768 
77.736  33.143  96.932 
78.163  32.472  96.539 
78.660  33.259  96.830 
82.072  33.330  95.590 
80.849  33.900  96.307 
79.924  32.211  94.559 
82.297  35.976  96.550 
84.186  37.620  96.718 
84.895  34.746  94.361 
83.709  37.023  96.489 
81.048  35.603  96.567 
84.638  32.535  93.778 
86.687  39.707  96.180 
87.272  41.574  96.097 
87.051  40.764  95.238 
86.504  41.800  96.779 
87.701  43.941  96.255 
88.182  44.599  96.645 
90.075  43.601  95.139 
88.735  43.542  96.071 
90.135  44.101  95.636 
90.994  44.415  95.581 
91.481  44.788  95.338 
91.673  46.076  95.433 
91.388  46.345  96.030 
91.006  46.822  96.700 
91.851  47.988  96.428 
90.949  48.126  96.677 
90.137  47.970  97.162 
91.559  48.999  96.817 
93.852  50.677  95.478 
95.165  56.435  95.592 
93.214  51.080  96.205 
92.731  53.876  96.972 
94.226  56.866  96.566 
96.598  52.715  93.695 
91.936  53.805  97.151 
90.777  56.420  98.865 
94.400  56.440  96.013 
93.059  57.229  96.987 
92.417  61.006  97.079 
94.678  60.539  95.713 
95.833  61.381  95.079 
93.149  62.556  95.946 
93.732  63.159  95.854 
93.896  63.623  96.179 
93.308  63.671  96.513 
93.807  65.143  96.144 
93.050  65.079  96.279 
93.352  66.410  96.211 
92.600  66.497  96.706 
92.295  67.497  97.495 
92.218  68.448  96.377 
91.630  68.885  97.244 
90.708  70.926  97.363 
88.571  71.253  99.656 
87.330  72.575  100.846 
86.552  72.181  101.128 
92.517  74.167  95.490 
90.994  74.150  97.276 
93.199  73.926  94.956 
82.504  69.188  103.793 
85.099  78.382  98.495 
94.303  78.256  89.828 
89.432  73.643  98.357 
83.556  77.049  100.492 
88.788  73.404  98.911 
88.727  76.538  97.732 
85.103  74.093  101.090 
88.817  78.920  95.587 
86.003  80.918  96.480 
86.589  80.229  96.783 
87.347  76.099  98.473 
81.966  83.465  97.825 
82.261  80.014  100.196 
80.768  86.990  96.368 
79.354  86.503  97.312 
81.311  84.891  96.979 
71.994  88.457  98.445 
77.302  82.668  100.942 
82.022  82.442  98.340 
80.465  84.194  98.058 
79.832  81.560  100.126 
75.838  83.960  100.544 
70.926  89.764  97.610 
77.830  84.960  99.520 
83.336  90.635  90.579 
75.876  87.129  98.682 
75.956  89.469  96.218 
75.355  92.311  93.387 
63.127  88.328  100.826 
65.401  88.172  100.548 
72.325  89.907  97.175 
70.360  91.202  96.515 
72.173  92.217  95.330 
64.218  87.782  101.217 
65.746  91.262  96.299 
63.417  87.664  101.128 
62.139  84.746  102.405 
67.060  92.977  95.090 
59.108  91.554  97.991 
63.931  92.991  94.898 
57.438  90.654  98.866 
67.391  91.698  95.838 
56.579  98.310  90.246 
64.707  92.865  95.477 
53.672  91.862  97.028 
64.764  93.512  94.893 
64.692  89.863  99.099 
56.266  95.762  93.684 
59.326  85.827  101.696 
62.205  94.468  93.594 
56.580  91.498  98.305 
57.670  95.423  94.069 
60.826  93.571  94.881 
51.582  92.072  96.334 
52.313  90.938  97.848 
53.321  89.121  99.309 
53.199  90.913  97.744 
52.450  89.700  98.626 
50.629  88.504  99.120 
50.609  89.659  98.231 
49.578  89.774  97.420 
49.216  88.692  98.619 
47.713  88.019  98.440 
47.213  87.291  98.511 
47.424  86.430  99.507 
45.679  86.016  98.988 
43.321  85.161  98.873 
41.926  85.730  98.468 
45.469  84.619  99.699 
43.410  85.633  98.566 
42.812  84.564  100.027 
41.331  84.866  99.139 
44.783  84.496  100.293 
41.160  81.292  101.082 
36.848  76.925  99.679 
38.973  90.990  92.637 
36.393  87.317  94.761 
39.849  84.893  98.031 
37.767  81.479  99.155 
38.306  85.693  96.474 
37.591  78.736  99.378 
36.651  79.426  98.753 
34.949  77.715  98.131 
35.319  79.957  97.709 
34.623  78.321  97.739 
34.305  77.234  97.851 
34.184  76.482  97.694 
33.858  75.949  97.355 
34.048  75.310  97.396 
32.976  73.442  97.581 
33.518  73.088  97.499 
33.665  72.911  97.913 
33.698  71.804  98.183 
32.223  72.071  97.693 
32.567  71.319  97.867 
33.114  71.567  97.713 
32.998  68.563  98.446 
32.574  68.845  98.634 
33.081  68.447  99.030 
32.151  66.917  98.448 
32.326  65.290  99.344 
31.587  65.124  99.059 
30.656  64.318  98.476 
30.021  63.867  97.914 
29.207  64.429  96.749 
30.653  64.076  97.720 
30.985  64.372  98.870 
30.595  62.659  98.376 
28.908  59.548  97.489 
28.706  58.650  97.132 
27.524  59.545  96.244 
28.898  56.495  97.563 
30.275  57.837  98.111 
29.712  55.602  97.556 
31.528  55.569  99.718 
29.615  53.758  97.914 
31.137  55.479  98.628 
27.822  52.939  97.348 
28.830  51.897  97.978 
29.397  49.746  98.251 
32.374  47.751  98.972 
30.116  47.734  97.696 
29.806  50.530  98.664 
32.750  45.981  98.146 
27.002  45.445  94.355 
29.292  47.482  97.437 
31.262  46.779  98.252 
32.067  45.384  97.521 
31.746  45.134  97.914 
33.442  44.336  98.208 
33.295  43.359  98.127 
33.372  43.297  97.611 
33.849  42.324  97.451 
33.455  42.416  97.825 
34.060  41.780  97.683 
33.877  41.031  97.002 
35.156  40.997  97.745 
36.449  41.558  99.246 
35.617  38.627  97.660 
36.181  38.938  98.011 
37.243  37.635  97.773 
38.357  37.218  97.883 
38.581  37.517  98.805 
37.928  38.034  98.509 
39.341  36.118  97.355 
40.544  32.447  96.772 
47.972  36.456  102.475 
44.083  33.118  98.593 
41.216  32.893  97.258 
43.454  36.169  100.278 
44.201  36.335  100.610 
43.465  33.236  98.751 
43.190  32.700  98.083 
46.835  34.381  100.806 
40.803  27.641  92.632 
43.066  32.090  97.488 
49.520  34.803  102.904 
41.787  30.040  95.578 
53.823  34.224  102.419 
48.126  24.735  95.296 
45.077  33.818  99.172 
48.425  35.873  102.797 
54.810  29.543  99.736 
51.496  29.857  100.122 
48.286  36.557  103.202 
58.991  27.583  98.107 
57.646  28.021  99.232 
48.709  28.397  98.164 
54.995  25.334  96.819 
50.566  27.943  98.269 
58.493  28.218  98.971 
59.271  26.047  97.570 
59.012  22.474  94.003 
56.096  22.004  93.513 
56.999  29.406  99.926 
61.227  26.368  96.574 
44.916  24.738  93.280 
54.937  26.828  97.852 
64.643  22.099  91.928 
62.956  26.776  96.130 
62.791  25.874  95.798 
65.370  26.514  95.153 
66.067  26.414  95.545 
66.272  26.539  94.885 
66.769  26.489  95.453 
67.464  26.619  95.069 
68.064  27.351  95.959 
68.581  27.142  95.624 
69.946  27.097  95.010 
70.483  27.664  95.372 
71.906  27.236  95.050 
72.382  27.971  95.273 
73.187  28.331  94.879 
73.730  27.929  95.119 
73.956  28.535  95.594 
74.521  28.959  95.548 
76.645  29.335  94.743 
76.720  30.133  95.300 
76.922  30.061  94.571 
78.058  29.644  94.232 
77.776  30.289  94.852 
78.844  31.184  95.273 
79.350  31.740  95.076 
79.328  32.210  95.768 
80.187  31.172  94.788 
84.129  33.815  94.623 
80.091  33.499  95.867 
82.450  35.290  96.331 
80.106  35.551  97.493 
81.824  36.441  97.077 
83.207  35.852  96.462 
83.193  37.688  97.346 
84.547  35.569  95.574 
81.515  38.513  98.437 
87.350  36.259  94.100 
86.377  40.077  95.945 
86.394  41.438  95.769 
84.430  40.306  97.593 
88.502  41.320  94.837 
87.661  42.627  96.611 
94.235  37.407  88.218 
88.761  44.550  96.726 
90.120  45.364  96.374 
92.423  42.610  93.673 
91.616  45.172  95.691 
91.708  47.141  96.068 
91.060  47.049  96.179 
93.010  47.494  95.557 
91.477  48.500  96.896 
92.720  49.931  95.803 
92.029  48.804  96.160 
91.516  50.499  96.644 
94.075  49.880  95.128 
93.169  54.274  96.530 
92.085  51.778  97.037 
92.246  55.324  97.625 
97.009  54.238  94.163 
93.504  57.220  96.383 
94.103  58.302  96.488 
93.442  59.922  96.754 
92.882  60.287  96.771 
96.816  49.919  92.080 
91.850  59.876  97.490 
96.557  59.771  94.652 
93.678  62.550  95.260 
94.429  64.198  95.558 
95.400  62.581  95.222 
93.587  64.141  95.764 
94.290  65.145  95.506 
93.175  65.617  96.102 
93.876  66.349  96.127 
93.198  65.743  96.625 
93.405  67.129  96.450 
91.621  67.994  97.019 
93.013  68.290  96.470 
91.721  69.546  96.732 
91.839  70.026  97.000 
90.820  71.259  98.012 
92.947  75.568  93.851 
90.201  70.665  98.432 
92.921  73.432  95.872 
89.587  71.594  98.964 
90.719  70.162  97.993 
83.460  73.049  102.502 
92.239  71.248  96.613 
87.144  77.004  97.398 
88.513  75.799  97.707 
87.296  71.321  100.183 
85.840  71.969  101.516 
90.678  72.490  97.711 
85.395  76.340  99.870 
88.160  74.805  98.305 
87.361  81.133  95.542 
87.583  79.019  96.033 
84.435  79.733  97.697 
80.365  85.023  97.759 
84.961  80.162  96.936 
82.288  84.082  97.047 
82.409  82.760  98.428 
83.257  82.238  98.397 
74.113  87.825  99.043 
80.356  89.832  94.176 
73.533  87.792  99.213 
80.714  85.553  96.876 
75.285  88.973  97.279 
78.747  85.604  98.478 
72.968  90.132  96.627 
69.646  86.335  101.576 
73.612  87.077  98.865 
77.443  83.210  100.429 
69.566  86.871  100.927 
71.288  90.561  96.984 
69.685  87.371  100.262 
68.874  84.632  102.363 
71.488  89.171  97.913 
69.816  91.334  96.858 
67.159  89.617  98.505 
70.475  92.450  95.619 
71.512  89.717  97.096 
67.050  91.785  96.626 
65.877  92.340  95.253 
61.754  92.153  97.322 
68.290  91.757  96.268 
60.488  96.726  91.950 
55.439  94.830  95.140 
62.302  92.934  95.276 
64.559  93.960  94.368 
61.082  97.487  90.809 
62.797  96.136  91.348 
60.971  94.108  94.565 
53.988  97.139  92.605 
57.161  96.153  92.738 
65.377  91.592  96.460 
61.542  93.067  95.578 
57.663  89.156  100.008 
52.912  90.146  98.246 
59.594  97.771  90.702 
58.202  85.949  102.263 
53.527  89.830  98.760 
54.351  90.089  98.877 
51.244  89.871  97.760 
52.418  90.227  98.425 
51.246  90.796  97.458 
50.828  89.517  98.675 
49.774  90.565  97.158 
49.371  88.979  97.239 
48.600  88.463  98.189 
48.169  88.853  97.647 
47.236  87.625  97.535 
46.798  87.865  98.164 
45.100  86.867  98.006 
46.223  87.259  97.789 
43.389  86.089  97.886 
42.317  87.098  97.229 
42.730  86.240  98.227 
41.547  85.565  98.852 
41.158  85.967  98.037 
38.605  88.887  93.872 
41.708  82.432  100.812 
41.610  83.879  99.645 
36.999  82.839  96.826 
39.694  80.981  100.489 
36.570  84.149  96.806 
38.742  81.537  99.879 
37.932  87.134  95.601 
39.474  80.072  100.918 
37.115  80.070  98.975 
38.064  83.780  97.856 
32.910  78.479  96.151 
34.579  78.975  97.331 
34.430  77.767  96.681 
33.961  77.444  97.284 
33.681  76.726  97.191 
34.342  75.207  97.986 
34.176  74.812  97.332 
33.620  74.367  96.990 
33.197  74.306  97.432 
32.462  72.808  97.399 
32.264  73.071  97.017 
32.777  72.054  98.013 
31.960  71.169  97.330 
32.428  69.278  97.927 
32.427  70.604  97.116 
31.908  68.722  98.258 
31.473  67.762  98.403 
32.261  67.889  98.418 
31.523  66.424  97.993 
31.777  65.648  99.068 
30.429  64.704  98.168 
32.312  66.214  99.222 
29.648  64.996  97.500 
29.874  62.165  97.883 
29.467  63.726  97.560 
28.483  60.229  97.456 
30.107  59.376  98.845 
27.493  57.734  96.684 
29.598  56.258  98.142 
29.442  58.776  97.401 
29.231  57.665  97.420 
28.471  56.810  97.298 
30.818  55.816  99.553 
31.665  53.330  100.190 
28.649  53.011  97.240 
27.473  49.226  95.972 
28.174  51.920  97.270 
27.231  50.441  95.868 
28.569  50.308  97.229 
29.018  48.991  97.343 
26.955  49.283  95.596 
33.600  49.059  100.578 
27.933  47.656  96.594 
29.838  45.348  96.807 
32.947  48.511  100.059 
32.324  46.095  98.752 
32.369  44.662  97.510 
31.582  43.468  96.772 
32.301  44.583  98.047 
33.026  43.904  97.593 
33.421  41.909  97.007 
32.484  41.876  97.029 
34.134  41.485  96.913 
32.884  40.943  97.026 
35.323  39.284  97.540 
35.036  38.375  97.027 
36.330  38.177  97.526 
37.260  38.857  98.966 
36.915  37.697  97.137 
37.109  38.180  97.749 
37.762  37.385  97.639 
37.285  39.450  98.258 
38.924  35.728  97.424 
40.205  36.570  97.896 
40.869  36.070  98.277 
40.505  35.135  97.666 
39.072  30.232  93.781 
41.525  33.979  97.762 
42.264  33.795  98.403 
46.084  31.224  98.226 
44.960  31.069  97.204 
42.675  36.329  100.091 
44.702  24.255  93.249 
42.018  26.485  92.455 
42.757  32.465  96.837 
42.277  19.377  84.560 
54.046  27.712  98.852 
49.153  33.237  101.494 
50.121  29.177  98.865 
55.196  34.357  103.382 
56.043  32.253  101.864 
47.587  26.042  95.830 
52.518  25.488  97.112 
56.504  31.107  101.109 
50.392  30.276  99.434 
44.589  28.551  95.815 
54.734  30.136  100.650 
56.655  30.462  100.816 
55.089  31.501  101.306 
45.910  28.722  96.867 
59.333  26.494  97.099 
55.505  31.216  100.787 
47.811  28.284  98.052 
50.861  23.574  94.186 
52.056  29.361  99.690 
60.383  29.287  99.329 
62.751  19.922  90.826 
64.451  20.300  89.673 
64.221  28.394  97.529 
62.978  25.668  95.327 
63.602  26.290  96.030 
65.092  24.753  94.421 
66.220  25.483  94.603 
66.756  26.110  94.838 
67.640  26.358  94.710 
68.098  27.042  94.463 
69.738  27.036  94.582 
69.500  26.537  94.687 
71.169  27.452  94.911 
71.374  27.398  94.192 
72.457  27.790  94.363 
72.954  27.425  95.144 
73.360  27.379  94.449 
74.009  29.043  94.955 
74.894  28.731  95.142 
75.822  28.403  94.336 
76.105  30.061  94.920 
78.160  29.554  93.433 
77.854  28.247  93.908 
77.347  31.218  95.595 
79.010  30.426  94.673 
78.702  32.103  96.185 
81.056  31.567  94.739 
79.592  33.234  96.503 
81.560  33.951  95.531 
87.390  35.228  93.106 
80.555  32.370  94.720 
81.334  30.277  93.973 
82.563  33.976  95.567 
85.446  36.960  95.150 
82.912  36.569  96.862 
84.291  37.189  96.013 
87.766  34.647  92.134 
85.357  37.793  96.093 
81.743  35.937  97.177 
87.830  38.274  94.614 
84.110  38.546  97.188 
85.555  38.866  96.767 
90.020  42.948  94.929 
89.547  43.739  95.935 
93.935  44.539  92.537 
92.869  43.725  93.939 
91.189  43.983  95.059 
90.055  46.133  95.984 
96.548  47.108  90.611 
91.516  47.942  95.972 
93.154  51.953  96.084 
92.074  47.289  95.316 
94.132  47.413  94.342 
98.300  51.876  90.771 
94.059  49.056  95.042 
92.329  47.713  95.808 
94.904  46.861  93.186 
93.440  54.548  96.226 
92.643  55.755  97.330 
92.401  53.159  96.915 
92.249  57.128  97.607 
97.261  54.255  93.393 
91.399  56.161  97.708 
92.562  57.902  97.198 
90.502  59.872  98.734 
93.077  61.415  96.735 
94.212  61.581  95.712 
95.271  62.905  94.861 
93.911  60.792  95.946 
98.657  63.405  91.306 
95.329  66.101  94.397 
94.552  63.468  95.320 
94.183  64.384  95.083 
93.452  65.504  95.458 
93.384  66.942  95.643 
92.834  67.057  96.944 
93.846  67.638  95.746 
92.580  67.607  96.422 
93.812  68.748  96.041 
92.473  68.935  96.674 
91.163  70.066  97.272 
90.225  73.032  98.274 
93.522  69.299  95.678 
91.757  73.195  96.338 
92.217  78.812  93.322 
87.566  75.322  98.712 
89.690  73.748  97.771 
90.879  73.407  97.637 
89.950  77.830  95.634 
89.072  77.460  96.377 
90.272  74.717  97.265 
88.009  72.820  99.192 
87.411  78.411  96.850 
94.267  73.885  93.864 
87.929  79.430  95.439 
86.787  81.160  96.000 
85.361  81.435  96.641 
80.330  77.302  102.028 
84.184  80.564  97.755 
84.663  80.632  97.613 
83.673  80.756  98.204 
83.862  80.073  98.575 
81.587  83.968  96.618 
83.125  82.968  97.825 
77.950  87.120  98.498 
80.060  85.494  97.965 
78.359  84.321  99.763 
81.280  83.087  98.269 
81.095  83.954  98.166 
76.870  79.545  102.643 
75.972  80.147  102.433 
72.679  90.778  96.256 
72.183  88.662  97.723 
72.913  84.029  101.231 
71.814  81.022  103.857 
72.449  91.357  95.570 
75.396  89.070  96.823 
73.289  90.701  95.680 
72.692  93.233  94.371 
72.582  86.239  100.809 
66.757  89.160  98.258 
61.678  84.232  102.913 
69.562  93.570  94.733 
64.657  89.695  98.268 
62.719  84.554  102.901 
67.586  85.804  102.188 
