87.732  94.734  79.747 
86.913  95.608  79.913 
85.688  96.360  80.128 
86.227  96.350  79.000 
86.013  96.614  79.719 
83.407  97.205  81.681 
84.488  97.833  79.815 
82.052  100.917  77.339 
78.384  102.161  78.459 
81.061  100.614  79.576 
83.376  96.115  84.027 
77.955  101.010  80.698 
83.674  94.558  85.764 
76.841  99.984  82.706 
83.924  94.096  85.164 
76.091  101.183  82.116 
77.233  103.117  75.963 
72.683  104.599  75.944 
73.800  104.868  71.432 
79.315  102.265  77.599 
71.406  106.055  72.729 
73.705  102.199  80.570 
73.350  105.869  71.116 
70.792  104.497  76.976 
71.315  104.216  77.076 
72.861  104.893  75.265 
74.732  101.033  81.423 
72.312  102.320  80.347 
71.254  101.104  82.010 
72.121  101.991  81.578 
67.563  104.647  78.674 
65.018  108.356  72.029 
68.229  102.776  81.008 
70.952  102.323  81.040 
68.362  103.001  79.744 
70.583  103.626  79.296 
68.021  103.077  80.382 
63.349  102.591  82.059 
58.964  101.947  83.763 
62.045  103.467  81.419 
64.323  103.436  81.009 
56.838  102.298  83.901 
61.886  104.856  79.653 
62.583  105.501  78.292 
60.078  104.216  80.716 
53.666  103.691  82.804 
60.788  105.467  78.466 
58.121  105.552  79.943 
55.094  103.992  82.006 
57.859  106.332  78.481 
60.592  105.029  79.855 
56.569  109.140  69.111 
57.801  106.942  77.257 
59.743  104.928  79.966 
47.612  99.130  87.978 
59.227  108.003  75.024 
48.593  106.354  75.690 
52.845  106.171  77.905 
58.386  104.602  81.846 
60.101  106.064  78.456 
46.338  108.097  67.936 
38.522  99.896  80.778 
46.711  103.826  80.539 
44.273  103.166  79.856 
43.188  98.227  86.775 
41.650  104.004  76.204 
42.001  99.114  85.742 
38.860  100.722  80.530 
34.603  96.214  82.400 
44.963  105.398  75.074 
40.546  104.149  74.665 
36.992  96.676  84.714 
41.365  100.902  81.698 
32.974  93.974  84.731 
34.029  97.588  79.736 
30.181  91.473  85.020 
24.112  93.142  72.783 
30.207  93.524  81.427 
36.184  99.612  79.459 
28.670  86.965  86.881 
39.143  99.557  82.790 
25.567  89.821  80.192 
30.131  87.343  88.884 
21.970  84.439  81.982 
28.757  92.026  82.883 
28.565  85.303  87.491 
34.527  86.732  93.404 
28.310  86.464  87.423 
20.695  88.446  74.557 
27.385  89.877  82.752 
24.852  88.374  81.663 
25.554  84.360  85.835 
14.559  75.027  74.182 
22.193  85.379  81.091 
22.830  89.355  78.061 
22.062  81.286  83.298 
22.062  83.379  82.762 
17.578  75.261  80.975 
16.239  75.463  78.674 
25.024  82.641  84.928 
17.898  83.849  74.044 
21.720  75.501  86.545 
18.493  71.359  84.957 
19.503  74.083  84.318 
22.391  79.940  84.168 
24.103  91.158  76.416 
19.597  77.641  83.126 
15.204  70.688  78.638 
17.850  74.373  82.443 
22.776  82.817  83.592 
17.132  69.840  83.546 
13.209  68.453  75.532 
18.043  73.351  83.797 
16.231  70.312  80.939 
18.133  68.261  84.795 
15.896  70.508  81.792 
21.605  83.449  81.397 
17.640  69.749  84.180 
20.756  68.543  87.095 
18.020  61.880  84.638 
14.396  55.456  79.194 
14.318  56.012  79.110 
18.019  59.472  84.535 
19.209  67.721  85.687 
18.007  63.280  85.040 
14.359  58.254  79.379 
18.585  65.927  85.157 
19.458  53.121  86.855 
16.282  60.152  82.310 
16.038  59.133  82.385 
13.701  51.537  76.942 
15.086  56.133  79.422 
14.589  67.938  79.455 
13.556  52.341  76.592 
16.324  52.975  83.074 
17.616  52.751  84.192 
15.413  55.617  81.435 
16.862  57.317  83.362 
15.813  58.420  82.220 
23.504  43.422  90.202 
17.996  57.521  85.046 
15.605  49.154  80.207 
18.085  56.982  85.123 
17.629  48.310  82.776 
17.203  56.630  83.910 
13.222  56.206  76.382 
17.046  54.721  83.847 
17.431  51.024  84.214 
18.792  50.687  85.950 
24.432  32.649  83.529 
22.736  31.542  79.313 
17.732  48.148  84.132 
22.502  43.914  88.937 
14.934  52.749  80.388 
18.373  40.651  79.695 
20.366  41.211  84.375 
24.823  28.920  79.667 
17.935  43.395  81.049 
16.275  42.762  77.745 
25.267  35.795  85.531 
23.164  35.687  83.804 
23.877  33.776  83.481 
19.424  35.708  75.605 
21.186  42.662  86.906 
16.551  38.286  71.289 
18.198  39.518  77.288 
27.534  28.402  81.799 
26.958  32.760  85.632 
23.063  34.885  82.645 
26.819  29.212  82.033 
22.848  31.064  79.740 
21.756  28.591  69.812 
30.943  25.647  82.122 
23.128  30.161  78.264 
26.636  31.302  83.332 
26.836  27.567  79.860 
28.252  25.993  80.376 
34.258  22.053  79.309 
30.703  22.998  75.495 
26.901  26.864  79.338 
26.567  25.952  75.319 
28.853  24.913  79.040 
32.586  22.688  78.617 
24.055  30.119  79.013 
32.965  23.569  79.941 
32.102  22.817  77.397 
38.915  18.814  76.470 
29.112  25.040  76.048 
32.032  23.019  78.527 
38.031  19.140  77.442 
33.718  21.860  75.910 
35.768  20.645  76.633 
41.428  17.243  77.103 
38.807  19.311  78.855 
34.305  21.782  78.011 
36.934  19.592  76.526 
36.783  21.189  80.915 
39.196  18.516  74.248 
40.554  19.167  81.469 
38.289  18.234  74.371 
44.491  15.930  76.040 
45.491  15.993  80.000 
48.109  16.855  81.959 
40.085  18.852  80.515 
42.909  15.491  72.794 
44.685  15.994  79.960 
40.828  17.809  77.534 
49.488  16.085  80.702 
46.973  17.002  81.349 
46.226  13.964  74.579 
51.758  14.820  81.164 
49.466  15.573  81.985 
54.628  12.458  75.775 
51.651  19.497  89.605 
54.860  12.066  74.957 
48.747  19.809  89.903 
52.589  11.604  71.867 
50.449  11.453  69.260 
60.776  15.267  83.223 
59.806  15.036  81.996 
52.142  12.994  76.070 
60.994  12.404  76.761 
48.504  12.678  72.570 
54.415  13.842  78.661 
59.846  16.029  83.897 
60.186  18.125  87.711 
58.279  11.532  73.953 
61.718  16.025  83.833 
56.971  12.459  76.260 
62.431  13.544  78.319 
70.502  13.653  77.726 
64.084  12.348  72.753 
64.286  13.643  79.190 
66.925  14.262  79.444 
73.745  13.268  72.207 
76.535  15.407  76.619 
61.578  13.185  76.946 
69.415  13.000  75.593 
58.284  12.347  76.524 
83.395  18.800  78.683 
78.062  15.911  77.322 
70.054  12.090  70.478 
72.510  13.074  73.337 
80.139  17.139  78.464 
64.847  12.741  76.287 
76.895  15.309  76.983 
79.374  23.748  88.251 
78.033  15.755  76.833 
86.774  22.493  78.740 
80.934  18.732  80.166 
80.162  16.125  74.779 
81.714  20.216  82.804 
79.671  21.233  86.052 
84.099  22.085  83.167 
82.079  22.291  85.529 
80.754  15.897  71.416 
80.379  21.717  86.102 
85.542  17.967  71.976 
80.834  19.762  82.922 
93.696  27.296  79.122 
88.774  23.475  79.160 
83.517  17.620  72.996 
87.598  20.704  75.986 
90.991  24.793  77.204 
89.793  26.146  82.745 
95.781  31.041  81.392 
90.566  24.846  79.190 
93.246  22.664  70.409 
87.806  19.568  72.193 
98.403  31.087  75.654 
97.337  27.537  68.636 
97.993  29.486  73.243 
95.719  28.744  76.360 
86.537  21.456  77.907 
94.177  27.214  78.494 
93.531  27.535  78.701 
97.499  37.267  84.010 
97.373  30.507  74.615 
95.928  31.066  80.463 
100.984  36.378  77.429 
100.768  40.941  81.668 
98.081  33.753  80.751 
94.999  37.471  87.638 
100.663  41.630  82.297 
97.174  34.631  82.557 
94.365  34.932  86.940 
100.008  40.618  83.275 
95.448  37.145  86.785 
103.263  35.299  67.119 
95.920  33.427  82.656 
102.409  40.141  78.771 
101.927  42.043  80.742 
100.102  40.610  82.247 
102.196  44.546  79.434 
104.083  45.930  76.460 
106.019  45.888  74.128 
103.567  46.970  79.377 
103.406  44.839  78.941 
105.046  49.003  77.657 
104.721  48.759  78.351 
106.267  50.752  75.095 
104.547  50.370  78.943 
107.348  56.033  73.299 
107.686  48.099  69.793 
105.426  55.422  78.708 
103.694  51.113  79.462 
105.220  49.930  77.585 
105.174  54.056  78.889 
105.482  55.110  77.369 
105.759  55.926  76.968 
105.207  56.560  80.298 
104.571  52.569  78.913 
105.405  55.750  79.136 
107.564  59.852  73.503 
104.947  59.428  79.684 
105.426  59.058  78.420 
107.059  61.010  76.802 
105.346  54.177  78.344 
105.761  59.448  78.990 
109.214  55.995  70.026 
104.130  64.362  82.515 
105.542  63.347  79.756 
106.079  60.947  78.411 
106.601  67.857  76.626 
108.315  63.125  75.071 
106.158  71.096  76.030 
107.069  60.567  75.997 
103.085  74.545  78.540 
106.653  70.895  74.945 
98.345  75.828  85.950 
103.083  74.561  77.853 
102.049  75.459  79.140 
104.393  73.061  76.801 
106.192  70.574  76.593 
103.646  75.339  74.902 
102.026  76.065  78.139 
104.333  72.562  79.343 
101.670  76.786  78.355 
101.324  77.684  77.624 
101.016  77.970  78.415 
100.986  77.505  79.917 
100.702  78.784  78.551 
100.026  79.821  78.507 
98.953  80.242  78.890 
98.756  80.625  79.207 
99.341  81.074  78.630 
98.588  82.212  78.385 
97.881  82.356  79.150 
97.872  82.748  78.500 
96.773  84.182  78.628 
96.016  85.214  78.797 
96.191  84.762  79.472 
95.807  85.461  79.651 
94.909  85.802  79.536 
94.467  86.695  79.759 
93.631  87.316  79.835 
93.579  88.440  79.363 
93.354  88.713  78.724 
93.002  89.191  79.362 
92.914  89.736  79.527 
92.433  89.805  79.509 
91.456  91.060  79.838 
91.106  91.366  79.448 
90.478  93.008  79.670 
91.773  91.748  78.509 
89.183  94.121  78.978 
89.812  93.457  79.160 
88.806  95.028  79.029 
87.920  94.942  79.138 
87.706  95.296  79.454 
86.887  95.356  79.069 
85.595  97.227  79.692 
85.206  96.918  79.630 
84.491  96.484  81.631 
84.928  97.084  80.025 
80.889  100.045  81.438 
83.488  97.340  83.293 
83.903  93.562  87.265 
82.337  98.936  81.035 
78.455  102.537  77.530 
83.525  101.931  73.335 
75.347  103.098  78.574 
84.774  98.771  77.039 
78.765  101.318  79.429 
79.424  99.880  81.088 
74.401  103.540  77.309 
75.497  100.746  81.649 
82.277  101.234  76.566 
81.996  99.782  80.703 
70.845  105.478  75.734 
77.335  101.281  80.418 
76.583  104.757  74.810 
68.978  106.958  72.451 
72.713  101.776  82.088 
75.093  103.083  78.041 
72.589  101.257  82.672 
74.617  104.467  74.532 
70.056  107.187  67.895 
71.240  101.516  81.067 
68.920  106.807  74.613 
71.849  104.185  77.782 
76.202  103.405  77.414 
69.761  102.853  80.492 
73.114  102.542  80.606 
68.900  105.396  77.274 
64.380  101.762  83.045 
62.762  104.238  80.453 
62.841  106.850  76.767 
64.460  103.160  81.719 
65.211  102.289  82.168 
65.710  106.717  75.891 
64.377  103.189  80.125 
49.942  103.007  84.223 
60.728  107.437  76.363 
57.745  105.255  80.769 
55.638  107.615  72.661 
62.423  106.967  76.023 
58.700  104.656  81.429 
53.778  106.954  77.136 
56.887  102.015  84.433 
53.828  104.494  81.642 
52.170  103.934  82.098 
54.517  101.729  87.005 
59.174  105.810  79.128 
57.692  108.204  73.624 
57.918  106.336  77.655 
50.573  107.069  74.741 
48.924  96.760  90.316 
49.460  107.803  71.742 
52.927  105.878  78.648 
54.343  107.846  75.027 
40.653  102.220  79.284 
43.888  105.304  73.098 
42.849  101.172  83.322 
46.205  107.106  70.338 
52.391  106.721  77.160 
50.187  104.980  79.789 
41.957  101.393  82.081 
23.892  93.590  69.170 
47.216  103.533  81.640 
37.543  99.143  81.456 
40.201  99.502  84.269 
41.364  102.709  78.987 
25.809  92.110  78.526 
33.228  97.471  79.578 
27.781  89.789  84.453 
33.156  91.927  86.438 
28.000  92.805  79.983 
31.916  93.505  83.388 
28.825  92.956  80.532 
35.260  96.153  83.614 
26.645  85.743  85.367 
32.369  96.127  80.139 
27.108  85.851  86.532 
21.556  79.640  83.510 
28.474  88.651  85.760 
22.017  88.962  75.599 
24.952  89.211  80.659 
36.068  93.563  87.052 
26.635  87.512  84.989 
27.484  84.946  86.384 
22.225  80.258  84.536 
19.030  81.048  80.876 
25.525  85.629  85.215 
22.064  78.986  83.726 
26.629  83.764  86.285 
24.108  89.100  80.084 
22.517  85.216  81.941 
19.251  76.535  82.926 
24.025  85.613  84.067 
18.033  77.678  80.693 
14.127  71.352  75.840 
17.101  71.825  82.910 
18.603  81.740  79.447 
16.693  73.485  81.183 
17.993  61.117  84.022 
17.876  74.344  82.943 
18.386  80.465  78.727 
15.892  75.644  77.918 
15.925  73.396  79.368 
18.589  73.266  84.456 
16.275  68.997  82.174 
19.787  78.209  82.305 
15.383  72.329  78.461 
15.773  69.689  80.445 
16.556  77.284  78.924 
16.899  63.244  84.245 
17.773  60.265  84.284 
19.373  61.994  86.462 
16.953  65.141  84.262 
20.104  70.705  85.494 
16.012  66.091  81.954 
15.618  54.802  81.559 
14.521  60.090  80.261 
14.741  61.624  80.648 
13.339  58.188  77.437 
15.093  67.605  80.319 
15.839  64.323  81.459 
19.578  60.885  85.983 
18.036  55.913  85.172 
18.878  55.964  86.233 
15.370  57.914  80.573 
14.461  53.052  79.913 
14.914  60.246  81.113 
15.611  54.864  80.648 
17.939  47.503  83.049 
17.086  52.975  84.170 
14.379  57.155  78.432 
18.794  40.506  79.974 
14.487  49.447  77.602 
16.077  58.325  81.806 
20.437  43.892  86.537 
14.986  44.721  76.523 
24.429  32.897  82.671 
19.609  43.120  84.402 
18.227  44.575  83.027 
17.849  42.384  79.938 
21.572  42.772  88.063 
15.280  40.269  69.690 
18.444  34.942  73.378 
16.936  44.551  79.678 
17.832  39.725  78.946 
20.617  33.428  77.671 
19.950  42.806  85.561 
20.253  37.215  81.102 
21.647  36.168  82.578 
20.122  36.049  78.700 
21.795  41.633  86.800 
25.799  32.621  84.212 
22.232  31.069  76.570 
30.436  25.480  82.538 
20.127  31.234  73.229 
27.009  31.550  84.032 
24.483  35.486  85.228 
20.984  35.120  80.083 
27.731  32.004  84.194 
30.596  24.754  80.472 
26.379  33.369  85.482 
19.699  34.478  75.398 
26.610  27.920  81.102 
24.493  33.560  83.993 
31.980  26.347  84.895 
24.487  30.046  80.785 
23.011  30.680  78.865 
31.713  24.338  83.248 
29.515  24.826  79.055 
33.432  23.205  80.895 
23.206  31.220  80.389 
30.473  24.838  79.910 
29.600  26.104  81.268 
35.495  23.208  85.808 
23.023  28.416  75.201 
27.985  25.088  77.052 
37.700  18.228  73.327 
24.618  27.110  74.408 
32.103  23.063  79.215 
31.809  25.459  83.661 
30.990  23.236  75.853 
29.958  24.831  79.483 
35.351  21.059  77.802 
33.749  22.082  77.467 
37.523  20.255  79.803 
34.049  22.536  77.718 
32.616  25.434  84.771 
45.184  15.279  77.181 
34.511  21.282  76.010 
34.990  21.971  80.539 
41.306  16.758  75.204 
43.812  17.140  81.473 
42.448  17.629  80.596 
42.465  17.872  79.395 
45.164  15.388  78.965 
42.730  17.371  78.235 
53.993  15.977  84.715 
44.330  16.103  78.370 
43.817  15.945  76.664 
54.443  17.516  87.067 
48.275  15.741  80.723 
42.271  17.255  76.924 
53.031  11.057  69.621 
51.751  14.344  78.944 
52.530  16.563  84.224 
42.345  16.057  73.628 
52.373  13.462  76.491 
54.482  10.775  70.992 
50.899  18.800  89.284 
48.509  13.720  75.930 
56.725  13.964  81.107 
57.470  11.005  72.035 
47.339  13.516  72.903 
57.927  11.732  75.364 
59.270  10.466  69.224 
58.748  12.678  77.984 
59.770  13.428  80.292 
59.145  12.452  75.349 
61.595  14.124  79.404 
62.596  12.675  77.867 
60.669  11.512  74.692 
61.287  13.567  77.873 
64.277  14.212  80.526 
60.744  11.296  74.102 
64.568  13.951  79.912 
65.318  14.177  79.928 
65.761  13.099  77.491 
73.458  14.550  76.804 
72.536  14.800  79.266 
70.718  12.774  72.373 
76.428  15.633  77.410 
73.518  17.172  83.102 
74.300  14.535  77.264 
63.499  13.396  78.738 
74.141  14.940  76.416 
76.771  16.856  80.860 
64.348  12.102  75.979 
72.000  16.565  83.329 
74.015  13.339  70.847 
82.993  19.985  80.703 
83.396  21.397  82.346 
77.286  20.906  87.162 
82.403  20.680  82.482 
86.149  17.951  69.342 
79.850  19.406  81.243 
83.578  16.948  72.330 
84.299  16.457  65.230 
83.464  16.648  71.738 
79.401  15.548  72.961 
81.863  20.317  81.853 
79.292  17.690  79.378 
86.523  22.888  79.753 
87.503  18.367  66.869 
90.277  26.782  83.235 
89.419  22.590  77.716 
84.895  20.576  79.467 
95.577  28.381  74.309 
96.506  29.464  76.814 
95.570  29.441  79.159 
95.968  26.434  71.647 
88.618  21.975  77.053 
90.212  24.999  78.628 
87.425  23.349  79.519 
95.024  26.160  74.304 
90.197  21.502  73.730 
99.587  30.601  69.628 
94.669  24.154  66.140 
98.213  30.341  73.141 
94.252  26.836  76.955 
97.001  30.088  75.578 
100.690  35.540  77.119 
99.202  30.960  70.189 
97.215  37.933  85.844 
101.522  33.558  68.495 
97.474  26.909  67.513 
105.136  41.379  72.375 
99.513  34.490  79.353 
95.337  38.294  88.043 
97.105  28.511  71.489 
98.199  35.089  81.708 
99.782  39.353  81.914 
98.713  37.802  83.079 
95.834  34.893  84.752 
101.064  41.621  81.513 
102.948  37.571  71.785 
102.333  42.558  80.356 
102.510  41.262  79.155 
104.570  46.137  75.611 
103.707  38.814  73.540 
102.834  42.620  79.132 
103.705  44.431  78.256 
103.270  46.302  78.938 
104.481  50.838  77.093 
104.114  47.407  78.440 
105.896  49.605  75.245 
103.326  47.260  78.772 
108.033  56.817  72.490 
104.801  48.460  77.001 
104.663  49.295  78.436 
104.570  54.739  80.221 
107.131  59.440  76.690 
105.801  57.912  78.388 
105.714  50.695  76.210 
106.645  51.806  73.241 
104.721  55.351  79.428 
109.547  66.121  69.034 
105.641  61.347  79.713 
108.892  62.470  69.845 
105.705  58.199  78.864 
103.798  61.960  82.977 
104.987  57.683  80.134 
106.005  60.385  78.746 
107.314  57.428  74.346 
108.156  67.182  70.811 
106.552  63.084  77.212 
105.433  59.428  79.363 
105.154  58.765  79.201 
104.759  72.323  78.725 
106.890  71.986  73.233 
104.307  72.797  77.697 
107.277  60.287  76.484 
108.378  62.270  72.728 
105.261  69.530  79.280 
104.281  73.678  77.547 
104.941  74.302  74.587 
109.621  65.683  64.915 
101.265  73.379  84.226 
102.332  76.111  78.538 
101.310  75.687  80.817 
105.719  74.902  73.150 
105.453  73.434  74.731 
102.547  75.823  77.912 
100.233  78.122  78.986 
100.730  78.679  79.459 
100.727  79.229  78.317 
100.472  79.879  78.824 
100.293  80.604  77.907 
99.720  80.932  77.535 
99.741  80.726  78.292 
98.927  82.040  78.053 
98.174  81.995  78.288 
97.092  83.360  78.763 
97.435  83.720  78.052 
96.806  85.028  78.405 
96.758  84.731  78.876 
95.413  85.385  78.987 
96.327  85.577  78.699 
95.675  86.081  79.375 
95.057  86.597  79.536 
94.643  87.040  78.487 
94.091  88.102  78.715 
92.780  89.516  78.684 
93.237  89.702  78.513 
91.972  90.930  79.131 
91.499  91.485  79.142 
91.682  91.183  78.512 
92.349  91.909  77.718 
91.625  92.375  77.837 
90.907  92.629  79.059 
89.523  94.077  79.550 
88.560  94.813  79.848 
88.292  95.098  78.805 
87.451  95.609  78.817 
87.282  95.439  78.106 
87.150  96.001  79.037 
86.203  96.806  79.168 
85.861  96.959  78.445 
85.662  96.784  80.392 
85.671  97.450  78.486 
83.942  98.112  80.343 
85.090  97.607  79.286 
81.211  101.950  76.723 
77.790  99.933  81.995 
78.970  100.629  80.560 
83.505  98.562  78.629 
77.009  100.375  81.236 
79.495  98.952  84.057 
84.421  94.313  85.140 
79.465  103.001  73.358 
81.694  96.879  83.910 
77.604  101.241  79.628 
72.430  103.511  77.743 
74.992  104.613  73.003 
73.265  103.278  77.970 
74.970  103.318  76.874 
73.679  104.584  75.033 
72.802  105.432  73.641 
71.355  101.931  81.610 
75.107  104.759  71.560 
75.629  101.647  79.664 
69.414  103.819  77.585 
66.178  107.579  72.557 
70.785  103.054  79.717 
66.127  107.220  73.293 
71.734  104.859  76.057 
71.431  106.186  74.301 
70.384  104.274  77.848 
69.821  103.303  79.745 
67.580  103.733  79.868 
58.249  101.284  85.334 
65.917  103.965  80.285 
63.379  103.018  81.123 
67.811  103.799  78.923 
72.088  106.312  73.912 
58.282  107.165  76.239 
60.603  106.842  77.188 
62.821  103.529  80.808 
59.864  107.988  75.588 
60.465  106.907  76.525 
61.206  103.893  81.374 
57.726  103.308  83.240 
54.146  108.037  74.033 
58.895  105.434  79.792 
55.512  104.546  81.449 
61.141  106.742  78.105 
50.789  108.336  71.179 
47.977  107.698  71.720 
56.280  105.833  80.055 
54.592  108.806  68.214 
55.603  107.981  75.898 
48.117  105.434  77.410 
44.814  106.945  71.491 
50.577  105.722  78.085 
48.188  105.079  79.359 
45.876  100.854  84.929 
38.385  101.932  77.457 
45.216  103.766  79.243 
43.062  98.025  87.650 
40.497  100.677  82.085 
30.166  96.661  74.626 
41.057  100.708  82.645 
44.516  104.270  77.556 
37.452  98.289  82.008 
34.690  95.537  83.989 
30.940  92.211  84.820 
32.345  97.597  78.860 
28.472  92.040  81.757 
42.526  97.526  87.944 
38.028  98.949  81.712 
43.799  103.357  79.603 
27.715  92.538  79.006 
30.211  91.955  84.367 
22.709  84.658  81.531 
25.626  93.304  76.591 
23.549  86.892  81.955 
28.433  91.746  82.149 
24.443  91.400  77.462 
27.034  89.620  83.448 
21.359  90.707  71.795 
27.293  90.901  81.414 
25.553  92.018  76.777 
21.850  88.149  78.045 
24.888  86.654  83.763 
26.302  89.312  82.937 
31.469  85.601  90.928 
28.751  84.588  88.832 
26.422  87.797  84.565 
19.885  79.314  82.229 
28.246  84.068  87.846 
19.482  78.745  82.137 
23.384  84.242  83.718 
19.544  80.573  80.460 
21.330  79.370  83.086 
20.604  78.468  82.969 
16.401  74.801  79.924 
18.748  76.766  82.409 
20.734  79.030  83.416 
19.535  77.639  82.650 
20.923  74.046  85.885 
18.632  75.987  82.701 
20.909  78.258  84.122 
23.956  83.451  83.619 
23.548  79.978  85.591 
21.964  75.874  85.987 
17.003  66.247  83.404 
15.871  72.549  78.040 
16.298  76.396  77.796 
15.066  73.438  76.493 
13.420  69.946  75.696 
13.594  65.424  75.632 
14.281  65.492  79.305 
17.950  66.846  84.767 
11.558  69.894  66.825 
13.040  56.068  75.516 
17.331  66.005  84.206 
15.154  68.733  79.708 
15.388  64.417  82.385 
12.588  61.967  72.252 
12.941  59.147  75.322 
14.855  64.396  80.650 
17.205  61.765  83.775 
14.253  63.410  78.550 
12.565  57.659  75.447 
15.578  62.827  82.683 
17.985  51.987  84.751 
15.031  56.653  80.599 
14.091  58.301  78.239 
15.089  57.430  80.743 
15.386  51.577  80.398 
15.689  51.364  81.230 
12.792  53.344  73.383 
15.910  53.940  82.109 
19.193  46.180  84.894 
17.882  46.340  82.622 
18.269  49.980  85.682 
14.281  48.042  74.643 
19.392  45.361  84.589 
14.284  49.601  75.193 
17.034  53.228  83.514 
17.091  44.496  80.955 
15.330  43.744  71.997 
15.376  44.089  76.791 
14.893  47.419  78.081 
16.947  49.675  82.667 
18.741  46.495  83.747 
24.720  32.132  82.805 
16.019  38.290  71.311 
20.289  43.167  86.308 
18.630  33.770  72.030 
16.692  39.450  75.791 
20.634  36.055  80.252 
15.878  48.127  79.680 
16.198  42.143  77.020 
24.005  34.405  84.138 
25.266  28.996  80.497 
22.481  38.585  85.565 
20.991  34.103  78.889 
21.058  41.963  85.037 
23.331  28.696  74.381 
23.537  30.255  77.553 
19.753  34.611  77.287 
21.903  31.896  78.047 
16.958  34.656  69.165 
19.457  33.413  73.985 
24.805  25.981  71.126 
28.137  31.194  85.041 
21.244  32.442  77.496 
26.116  27.760  78.621 
20.906  34.568  78.868 
29.781  26.044  83.492 
23.515  28.838  76.178 
28.413  29.724  83.754 
26.037  25.076  71.784 
29.257  25.640  79.558 
28.171  25.604  77.774 
30.392  23.321  74.582 
32.914  23.792  81.550 
34.119  23.900  85.463 
32.642  24.163  83.390 
29.096  24.246  76.276 
30.770  23.876  76.407 
30.845  25.021  81.936 
29.326  24.303  77.236 
34.014  21.073  75.230 
38.004  19.513  78.613 
35.534  19.841  74.819 
37.201  18.657  73.947 
32.953  21.939  76.049 
40.564  16.838  72.056 
40.216  18.465  76.326 
35.610  20.297  77.257 
41.931  16.424  73.137 
37.585  20.700  82.596 
39.621  17.496  72.639 
42.670  15.463  74.061 
45.039  16.145  80.821 
40.123  16.658  72.901 
45.588  14.917  77.769 
41.259  18.107  77.404 
46.931  12.919  69.833 
42.499  17.110  78.765 
43.139  17.296  80.408 
51.540  12.238  74.360 
54.578  11.346  73.219 
54.698  13.325  78.241 
45.208  17.169  81.962 
59.563  11.899  75.929 
48.655  15.136  79.803 
54.270  14.598  80.566 
56.479  17.021  85.975 
57.077  12.576  78.649 
58.385  11.760  74.620 
57.798  11.328  72.297 
55.045  14.027  80.217 
47.023  14.643  78.206 
60.345  12.268  76.337 
61.970  12.323  73.739 
56.801  13.278  79.381 
64.492  12.690  77.478 
58.323  10.751  71.492 
54.804  10.747  69.537 
61.144  14.925  82.497 
56.714  11.866  75.758 
69.728  13.047  76.634 
65.369  11.591  72.051 
64.968  12.979  77.158 
68.097  12.525  73.888 
71.723  12.828  73.587 
63.646  11.806  73.374 
68.945  12.838  73.799 
58.814  13.230  79.870 
70.584  13.307  74.785 
70.408  13.616  77.005 
76.026  15.928  79.588 
73.050  12.889  72.485 
76.978  15.354  76.051 
68.958  13.716  78.327 
76.867  22.079  88.252 
76.198  16.559  80.336 
79.441  18.427  80.795 
79.919  21.853  86.145 
81.138  16.248  74.589 
75.905  15.813  78.558 
78.276  18.085  81.202 
74.300  13.610  72.702 
81.308  15.859  69.160 
89.222  21.069  74.340 
78.855  14.945  71.533 
87.984  21.276  76.611 
79.135  21.509  86.963 
82.453  16.470  72.142 
80.371  20.358  84.217 
86.005  18.431  70.515 
87.158  23.679  81.664 
89.926  23.776  78.225 
92.738  26.082  78.713 
83.664  17.407  70.615 
88.012  21.238  77.099 
94.199  27.950  79.131 
87.242  24.905  83.139 
86.954  25.708  84.242 
95.803  25.327  71.225 
91.999  25.563  79.010 
85.554  21.482  78.769 
91.676  25.207  77.275 
96.444  30.678  77.680 
93.330  22.669  66.973 
96.147  25.613  67.774 
99.196  31.129  72.167 
96.826  31.802  79.459 
96.327  27.400  73.742 
97.370  27.948  69.971 
94.369  25.251  73.410 
99.105  29.725  65.604 
97.062  33.806  80.455 
99.501  33.127  77.200 
92.931  33.003  86.396 
98.414  37.337  83.331 
97.466  27.900  70.906 
96.094  38.555  86.018 
102.263  37.455  75.583 
97.951  28.281  69.478 
101.735  38.654  79.474 
100.150  37.897  80.771 
100.812  38.844  81.098 
100.089  33.423  75.236 
103.341  41.094  76.944 
102.909  44.798  79.550 
104.750  37.696  64.337 
103.636  40.215  74.949 
104.225  44.980  76.716 
100.725  41.360  80.954 
103.149  42.689  77.869 
103.913  46.636  77.850 
102.355  40.309  76.327 
104.712  50.500  78.047 
107.823  55.722  72.408 
105.589  53.497  77.752 
104.861  52.434  79.719 
104.588  47.829  78.152 
104.907  53.168  79.174 
106.215  53.400  75.584 
109.017  58.552  70.910 
108.153  62.514  74.892 
109.360  61.373  68.395 
105.499  56.001  78.307 
108.707  58.364  72.077 
105.167  56.819  77.520 
105.019  57.646  78.500 
104.883  54.644  77.690 
106.422  58.640  77.359 
109.275  64.295  70.064 
105.307  58.847  80.010 
106.699  57.494  76.184 
105.156  62.064  79.606 
107.178  59.229  75.982 
105.670  62.102  79.520 
106.010  62.713  78.886 
108.099  56.531  73.159 
107.753  60.334  75.708 
105.459  64.547  80.000 
107.639  67.963  74.216 
107.149  61.476  76.550 
106.484  70.097  76.115 
107.589  68.126  73.693 
106.707  67.701  77.563 
101.085  71.613  85.495 
102.828  73.988  80.589 
107.678  69.302  70.967 
106.243  74.142  71.678 
104.023  74.542  76.861 
102.421  76.459  76.901 
98.927  75.295  85.931 
101.601  76.135  79.636 
100.882  76.638  79.967 
101.689  77.442  77.791 
101.119  78.357  78.098 
100.975  79.578  77.449 
99.682  80.319  79.087 
100.740  80.414  77.067 
99.812  80.508  77.117 
98.806  81.400  78.044 
98.812  82.461  77.425 
97.918  83.218  78.586 
98.029  82.964  77.216 
97.798  84.488  77.810 
97.408  84.196  78.405 
97.166  84.612  77.233 
96.465  85.842  77.840 
95.929  86.070  78.421 
95.670  86.014  78.900 
95.209  87.286  78.077 
93.962  88.451  78.290 
93.539  88.310  77.906 
93.499  90.134  77.745 
92.446  90.121  78.463 
92.686  90.826  78.589 
92.683  90.819  77.999 
91.598  91.928  77.540 
90.470  92.850  77.753 
91.182  92.340  78.303 
90.084  92.848  78.540 
89.952  94.370  78.883 
89.378  94.814  78.267 
89.230  94.781  79.159 
88.345  96.036  77.327 
87.264  95.996  77.877 
87.394  96.337  78.275 
86.661  96.751  77.904 
86.683  96.787  78.439 
77.681  100.577  81.737 
82.033  98.921  81.761 
84.920  97.821  78.487 
84.292  93.964  86.135 
76.838  103.370  77.479 
82.794  100.440  77.448 
81.611  103.040  73.443 
81.444  99.541  79.535 
82.469  98.935  80.131 
79.830  100.790  80.646 
76.547  100.967  80.159 
82.600  96.859  84.259 
80.051  99.177  82.542 
82.493  94.878  87.100 
74.472  105.101  72.486 
79.860  101.039  78.866 
76.885  104.606  72.976 
72.913  105.780  73.264 
74.188  105.068  73.438 
75.680  104.357  75.317 
77.420  102.855  77.801 
75.320  103.637  77.273 
72.400  102.530  80.934 
72.619  102.730  80.045 
72.819  103.893  76.600 
63.386  109.938  66.491 
68.344  103.958  79.285 
69.946  104.640  77.006 
72.768  106.095  71.316 
69.180  103.501  78.931 
71.607  103.227  78.867 
69.228  106.370  74.582 
65.315  103.863  79.195 
59.343  104.131  81.694 
70.835  104.937  76.145 
63.002  106.127  77.206 
64.455  107.057  76.633 
63.518  105.638  78.732 
59.572  109.447  66.632 
56.229  105.770  79.216 
58.391  107.577  75.340 
61.735  104.298  80.523 
56.775  108.011  75.111 
63.110  104.628  80.046 
53.666  106.167  79.136 
58.658  103.119  81.987 
57.011  106.058  79.396 
60.237  106.906  77.527 
63.092  108.131  74.025 
48.273  108.103  70.278 
53.638  108.070  72.412 
43.707  105.721  73.335 
58.899  107.871  74.149 
53.188  107.523  75.229 
47.139  102.052  83.992 
49.420  107.331  73.100 
44.353  102.780  80.241 
53.704  105.866  79.764 
51.231  104.108  82.369 
48.490  104.427  80.493 
49.478  107.448  74.104 
41.217  103.921  75.401 
35.712  101.774  71.191 
46.436  103.248  81.665 
32.150  97.728  77.290 
43.448  104.623  75.764 
34.621  98.211  80.215 
41.940  100.827  82.651 
42.485  103.900  76.679 
35.747  100.783  76.448 
34.266  96.740  81.413 
32.631  94.820  82.330 
29.587  97.982  70.168 
28.384  93.493  80.024 
27.921  93.360  79.427 
30.951  94.196  82.080 
27.499  90.482  82.090 
26.089  87.031  83.921 
29.727  90.566  85.875 
25.274  91.408  78.837 
23.152  88.668  78.734 
22.999  81.963  84.345 
29.807  93.546  80.997 
25.092  90.509  79.691 
24.072  82.159  85.112 
27.167  91.499  79.881 
23.134  87.449  79.978 
20.244  87.842  74.494 
28.921  90.813  84.150 
25.294  87.424  83.624 
22.028  85.597  79.964 
24.382  86.912  82.394 
21.928  82.624  83.373 
22.298  81.310  83.795 
16.657  74.263  80.759 
23.386  81.432  84.770 
16.380  73.341  80.382 
16.999  80.942  75.688 
23.017  84.524  82.634 
16.912  73.573  81.931 
16.062  76.767  78.096 
17.776  73.536  83.059 
19.058  72.526  84.666 
18.785  85.060  75.449 
19.371  73.035  84.326 
18.723  78.893  80.784 
20.376  72.380  85.973 
13.190  70.985  74.917 
17.404  71.633  83.892 
18.317  76.792  81.198 
15.585  68.808  80.712 
16.117  75.118  79.490 
15.142  69.568  78.307 
16.122  69.715  81.624 
17.221  74.548  80.828 
14.760  73.871  75.509 
15.675  71.026  81.247 
15.980  63.181  82.033 
14.104  60.132  78.704 
12.993  69.568  74.201 
13.625  61.585  77.215 
13.791  63.730  77.950 
13.321  55.512  77.007 
15.983  59.578  82.600 
15.517  63.813  82.678 
14.532  56.688  79.858 
18.327  59.256  85.314 
14.039  61.579  79.624 
13.406  62.302  77.384 
14.892  54.763  80.369 
13.302  56.262  77.256 
13.061  51.283  72.167 
12.971  57.531  76.202 
13.290  57.583  77.030 
14.357  52.933  79.308 
15.813  50.468  80.516 
17.135  64.327  84.429 
16.862  42.708  78.963 
21.035  32.960  77.861 
16.842  51.089  82.565 
15.043  47.346  75.688 
19.536  47.036  86.713 
16.999  48.244  82.298 
18.260  47.558  84.246 
19.123  51.518  86.996 
18.175  53.264  85.448 
16.840  43.737  79.273 
16.771  45.226  80.708 
15.493  41.928  70.782 
20.115  38.561  81.062 
17.684  42.661  80.383 
18.960  43.043  83.549 
18.022  39.346  78.085 
21.341  40.559  85.739 
21.242  36.370  80.606 
23.183  32.668  81.477 
22.374  35.577  83.634 
20.113  32.739  76.125 
20.058  34.181  77.093 
21.687  38.078  83.417 
24.136  34.791  84.907 
18.778  40.657  80.811 
22.343  31.814  79.539 
20.973  31.581  74.867 
23.294  30.523  79.649 
21.405  31.493  75.720 
18.843  34.813  74.256 
22.073  34.013  81.421 
20.141  31.023  72.089 
28.440  26.612  81.662 
24.359  28.311  75.766 
27.471  26.105  76.481 
23.957  28.674  76.398 
25.548  26.188  71.873 
27.836  25.831  75.398 
22.832  28.754  73.345 
22.440  30.933  77.078 
29.671  24.491  76.906 
27.781  25.218  76.594 
29.982  23.762  75.373 
29.111  23.667  74.035 
29.916  22.854  73.788 
32.775  21.284  73.663 
32.562  21.627  74.459 
36.661  19.757  74.723 
33.866  22.337  78.750 
25.512  27.828  78.888 
34.808  20.815  75.625 
39.716  18.627  77.002 
33.595  21.606  74.267 
37.486  19.232  75.940 
38.724  18.829  77.072 
44.383  14.518  73.070 
48.481  18.792  86.559 
38.719  19.397  77.152 
39.876  17.196  74.669 
44.838  14.887  74.807 
46.781  13.274  72.302 
41.292  17.833  78.368 
39.995  18.522  77.629 
50.868  16.051  83.168 
49.115  14.462  78.751 
46.641  14.141  73.774 
52.345  13.945  77.869 
55.156  13.467  77.984 
58.156  12.280  75.116 
48.460  13.059  71.673 
53.996  19.197  88.845 
49.569  13.977  77.170 
49.406  20.719  91.270 
53.584  14.580  81.135 
52.000  12.234  74.193 
55.644  17.929  87.500 
58.721  13.526  80.658 
54.173  10.664  69.896 
50.900  13.905  76.491 
61.148  10.745  69.842 
57.003  10.683  69.027 
47.512  14.170  76.813 
57.520  10.869  71.153 
55.957  15.645  83.896 
58.847  13.090  78.353 
54.620  11.907  73.743 
62.998  13.417  78.867 
63.139  13.921  79.569 
61.027  13.496  79.884 
57.753  10.780  68.511 
65.088  13.395  79.242 
68.463  13.300  76.478 
62.188  12.115  76.150 
58.743  15.838  84.781 
62.861  13.125  78.041 
63.607  14.148  80.975 
66.622  12.358  74.956 
59.225  13.623  78.997 
67.488  13.128  77.701 
73.276  13.445  75.275 
68.437  12.081  71.852 
72.201  14.003  76.156 
67.268  12.291  71.703 
71.536  13.486  75.748 
83.600  16.052  67.828 
76.139  17.962  81.480 
73.411  12.828  70.352 
79.692  16.194  75.345 
78.162  15.117  72.710 
81.975  20.833  83.681 
78.540  18.078  79.733 
83.515  19.286  77.305 
86.876  21.591  78.519 
82.933  18.522  77.127 
80.704  17.202  78.250 
83.254  16.627  63.691 
75.401  16.153  80.715 
82.764  19.260  79.635 
84.555  22.395  83.709 
85.882  19.965  76.509 
87.862  21.558  77.753 
88.193  19.380  69.198 
90.079  22.420  76.286 
87.276  21.178  77.242 
91.321  23.852  76.755 
89.137  20.202  71.886 
88.179  19.786  73.219 
91.984  23.176  73.145 
90.713  22.780  74.759 
92.325  28.693  81.136 
96.955  28.900  74.166 
89.265  20.470  72.786 
91.283  21.328  71.547 
95.687  30.066  78.247 
91.472  23.455  76.162 
93.980  23.683  69.009 
93.831  24.904  74.439 
95.237  24.943  71.529 
98.791  35.600  81.057 
98.135  30.956  76.623 
95.626  26.321  69.370 
94.980  24.442  72.029 
98.325  31.349  74.834 
97.390  31.274  77.091 
100.350  32.656  71.925 
97.722  36.280  83.111 
98.628  35.240  79.880 
98.741  38.748  84.360 
101.560  39.243  79.935 
95.686  34.434  84.064 
101.883  40.090  80.069 
94.147  34.339  85.833 
102.809  39.059  76.650 
105.185  41.553  71.777 
103.357  42.946  78.317 
106.228  43.610  70.358 
106.554  48.432  73.795 
98.073  35.830  82.292 
102.081  38.657  77.509 
103.797  46.535  78.695 
103.188  43.857  78.794 
104.063  44.795  76.291 
104.195  51.023  79.247 
103.714  47.364  79.670 
104.797  48.127  77.774 
106.962  48.329  72.024 
105.420  50.158  76.763 
104.716  52.861  79.928 
105.556  55.133  78.224 
107.050  47.581  66.523 
105.820  54.960  76.105 
105.831  52.652  76.123 
106.039  53.842  75.070 
105.615  58.143  77.439 
109.051  59.864  72.318 
106.264  55.693  76.351 
105.277  52.106  79.126 
106.926  58.522  76.508 
107.738  51.449  71.800 
106.989  57.950  75.419 
106.525  56.643  76.022 
108.155  63.512  74.110 
107.412  58.798  73.701 
106.583  58.848  76.898 
107.518  69.053  71.787 
104.817  69.597  80.116 
109.553  58.199  68.980 
107.133  61.663  77.406 
107.018  64.031  78.065 
106.003  61.966  77.880 
105.035  70.975  77.606 
107.452  66.774  75.587 
104.047  76.905  72.808 
106.526  74.419  70.932 
106.130  71.424  75.333 
102.987  75.666  75.988 
102.016  72.521  81.865 
100.666  75.646  82.232 
102.429  75.463  78.751 
102.817  77.523  75.476 
102.100  76.780  77.677 
101.704  77.162  77.018 
101.737  78.307  77.378 
101.471  79.033  77.013 
101.356  79.536  76.462 
100.385  80.149  77.787 
100.656  80.499  76.492 
100.583  81.316  76.107 
100.059  81.218  77.026 
99.043  82.128  76.835 
98.968  83.179  76.448 
98.641  83.377  77.133 
98.042  83.695  77.598 
97.368  84.846  77.587 
96.537  85.851  75.954 
97.025  85.863  76.672 
96.600  85.380  77.469 
95.342  86.740  77.627 
95.370  86.749  78.684 
94.690  87.863  78.180 
94.378  88.575  77.963 
93.875  89.268  77.863 
93.375  89.469  77.240 
92.858  90.098  77.496 
93.145  90.949  77.732 
92.860  91.566  77.073 
92.749  91.890  76.212 
91.621  93.184  76.819 
91.126  92.989  77.626 
90.002  94.346  77.970 
89.565  94.077  78.609 
89.610  95.069  77.493 
88.592  95.472  77.974 
88.734  96.107  76.696 
88.044  96.662  77.084 
87.597  97.019  77.353 
86.275  97.539  77.902 
84.448  98.132  79.005 
81.704  100.795  78.087 
84.391  97.141  81.404 
82.289  100.096  78.089 
82.841  98.615  78.945 
85.773  98.569  76.480 
80.063  101.895  78.144 
78.801  102.746  76.130 
76.914  102.595  77.468 
80.815  99.358  83.030 
73.604  103.444  77.115 
84.967  98.434  78.199 
75.759  104.634  73.969 
75.643  102.608  78.772 
77.130  100.661  82.036 
75.006  105.026  73.792 
78.060  104.601  72.224 
68.282  107.110  74.281 
72.479  106.110  74.425 
74.985  105.319  70.249 
73.491  105.355  73.463 
73.035  101.770  80.815 
73.787  105.168  74.595 
73.803  103.247  78.838 
76.292  101.794  80.220 
73.275  102.077  80.286 
73.882  104.089  76.240 
74.276  102.376  79.825 
72.005  105.246  75.217 
62.592  107.890  75.131 
69.478  108.093  67.955 
64.522  107.645  72.081 
70.317  105.301  75.661 
66.203  104.269  79.420 
74.211  104.002  76.678 
63.618  103.388  81.309 
67.301  105.951  77.006 
56.484  103.096  83.881 
63.370  106.990  75.941 
64.283  105.152  78.216 
64.997  107.660  74.919 
61.757  107.585  74.793 
60.844  107.638  74.461 
59.300  108.334  73.438 
57.397  104.766  80.874 
56.305  107.959  72.647 
59.186  104.975  80.757 
51.907  103.321  82.922 
60.426  107.830  73.655 
53.588  108.709  70.014 
65.227  106.479  76.737 
46.738  107.853  65.007 
53.630  106.976  75.772 
44.840  104.616  76.892 
52.574  105.527  78.376 
36.379  100.755  77.660 
39.600  104.532  70.849 
51.513  104.696  81.122 
52.562  108.864  69.284 
58.533  106.794  77.916 
49.800  105.107  78.463 
41.859  103.347  76.721 
48.686  108.109  69.464 
41.040  104.598  73.065 
42.159  102.418  78.760 
43.867  102.624  81.938 
44.193  104.720  77.159 
31.026  95.572  79.585 
41.891  102.780  79.704 
29.387  96.982  74.610 
32.941  96.308  81.034 
29.933  96.025  77.090 
23.856  91.102  76.000 
32.140  96.169  79.047 
28.250  94.747  76.597 
36.871  98.400  82.572 
27.421  90.469  83.055 
26.446  89.821  82.195 
22.337  89.204  76.507 
21.225  79.043  83.991 
25.265  87.765  82.200 
23.819  84.823  83.909 
30.768  94.749  80.310 
23.982  90.287  77.449 
25.735  87.466  82.985 
23.668  90.372  78.378 
20.067  82.285  81.672 
25.460  84.387  84.474 
21.002  89.455  71.999 
24.472  87.719  80.521 
20.309  81.697  82.197 
22.198  92.803  67.776 
21.421  80.958  83.453 
29.041  90.017  84.658 
19.663  80.600  81.580 
16.480  78.114  75.964 
25.593  86.401  84.397 
20.423  76.805  83.962 
17.244  82.152  73.532 
17.731  78.277  79.397 
19.660  81.907  81.431 
21.026  85.412  78.892 
21.316  76.016  85.884 
19.934  72.459  84.718 
20.682  70.615  86.377 
21.381  75.259  85.415 
15.004  72.520  76.280 
16.768  69.144  83.125 
13.292  68.460  77.198 
12.990  72.088  68.706 
16.495  78.882  76.795 
14.457  61.509  79.905 
16.712  71.870  81.800 
20.412  68.272  87.488 
17.582  70.387  84.128 
15.609  71.963  80.953 
14.921  65.827  80.754 
16.304  65.235  83.772 
15.744  71.145  79.392 
15.541  66.993  80.537 
12.502  59.282  75.029 
14.065  58.475  78.717 
13.960  62.854  77.189 
14.438  59.252  80.241 
15.005  56.691  81.110 
14.849  68.730  78.132 
13.733  56.392  78.461 
15.969  54.356  81.475 
13.975  57.932  76.990 
13.646  54.714  76.800 
13.719  60.197  77.703 
14.019  57.552  79.161 
13.108  61.079  76.641 
13.429  56.884  76.716 
14.207  54.229  79.474 
19.520  46.886  85.856 
15.861  56.948  81.829 
14.141  64.741  79.179 
20.129  48.574  88.173 
12.853  54.608  74.067 
15.363  51.086  80.405 
14.479  50.486  77.165 
18.282  52.036  85.986 
14.097  54.035  78.769 
17.253  52.207  83.376 
16.488  43.649  78.009 
19.370  38.818  80.415 
14.750  50.640  79.279 
15.567  42.475  73.236 
14.945  48.088  78.600 
15.747  47.296  79.126 
15.862  48.564  81.262 
16.697  49.082  81.926 
24.649  30.422  81.518 
17.643  50.837  83.211 
22.155  37.324  83.523 
18.246  37.393  76.294 
15.351  40.491  70.145 
15.645  45.097  78.068 
15.926  41.172  74.969 
22.922  35.722  84.435 
20.208  36.625  79.577 
25.380  32.066  82.354 
25.149  33.825  84.341 
20.495  32.175  75.560 
19.403  32.154  73.120 
23.370  37.612  85.813 
27.597  25.892  77.277 
19.710  35.640  77.528 
23.285  28.812  72.653 
33.650  23.497  82.076 
24.366  27.689  75.204 
27.126  25.716  75.188 
27.123  28.483  82.310 
19.395  32.232  70.928 
28.371  25.877  79.421 
30.107  24.559  80.895 
21.631  32.674  78.922 
27.042  26.179  77.747 
29.012  26.298  82.797 
29.261  24.207  74.824 
33.171  22.056  75.643 
34.944  21.554  79.285 
30.350  23.357  75.340 
35.252  20.999  77.288 
29.951  24.169  75.749 
31.427  22.840  76.109 
31.565  22.689  75.602 
34.237  20.598  72.717 
35.913  19.669  74.308 
35.001  20.082  73.662 
35.935  18.996  73.526 
38.036  19.045  76.520 
35.434  19.965  76.310 
36.272  20.324  77.379 
42.112  16.127  74.405 
40.240  16.554  71.159 
39.725  18.406  76.032 
39.013  17.934  75.045 
45.407  14.456  74.306 
41.030  17.617  74.930 
41.715  17.184  75.939 
40.534  16.267  71.578 
49.843  13.561  74.768 
45.096  14.841  75.656 
40.009  17.003  73.583 
49.763  11.982  71.762 
51.617  13.170  76.680 
48.275  13.911  74.616 
53.507  10.700  65.973 
60.135  11.859  74.441 
50.000  12.703  74.360 
56.561  15.829  84.785 
50.123  11.612  70.700 
49.479  12.687  72.355 
51.788  11.571  69.142 
53.219  12.419  75.148 
45.862  13.837  73.135 
60.636  11.767  71.595 
59.447  10.833  70.666 
55.887  12.614  77.393 
54.269  11.215  72.379 
59.200  11.753  74.202 
51.280  12.793  75.982 
65.364  11.942  71.710 
53.802  13.135  77.154 
49.816  14.098  78.361 
60.933  12.290  75.104 
63.791  12.064  74.178 
61.958  11.720  73.114 
67.329  12.379  74.093 
66.230  13.966  78.309 
65.845  14.576  80.723 
61.726  11.434  72.594 
63.594  14.656  82.580 
71.468  12.296  70.567 
77.823  15.113  75.460 
67.941  14.664  81.387 
70.653  13.621  76.380 
79.727  14.351  67.619 
67.237  13.347  76.302 
76.515  13.891  68.971 
73.179  13.580  69.437 
76.487  12.884  63.728 
74.776  13.800  73.456 
74.725  15.105  77.140 
74.245  15.670  80.139 
78.475  16.045  77.899 
72.274  18.417  85.783 
84.183  18.950  76.924 
75.543  15.491  77.438 
75.185  15.787  79.545 
87.898  20.709  74.855 
83.481  17.895  75.472 
85.417  20.694  78.802 
86.548  24.253  83.323 
84.740  19.152  75.628 
82.259  18.812  77.461 
85.774  18.525  74.150 
84.753  22.616  82.888 
96.847  28.063  70.555 
88.613  22.210  77.703 
92.270  25.839  79.359 
87.647  20.365  74.444 
90.108  22.783  76.989 
86.501  18.092  65.829 
91.122  22.316  73.741 
88.234  21.873  75.470 
88.468  24.248  81.448 
101.574  36.732  76.835 
93.247  26.338  77.716 
97.989  28.269  67.289 
92.223  23.606  73.729 
96.991  28.000  72.750 
98.046  28.348  67.763 
93.577  24.089  72.158 
93.422  24.172  74.007 
99.568  30.341  68.027 
95.452  24.850  63.375 
95.060  23.886  63.462 
100.542  32.785  65.320 
97.158  30.441  77.399 
101.461  37.590  77.060 
99.248  31.956  73.222 
94.198  31.184  82.581 
94.301  29.150  79.072 
102.554  38.364  76.981 
98.882  33.293  78.907 
98.769  32.097  74.112 
104.506  42.788  75.203 
103.620  42.964  77.097 
101.052  34.842  74.415 
100.504  36.819  79.423 
107.645  47.602  70.572 
103.742  45.891  78.085 
97.329  38.681  84.699 
105.636  51.453  76.606 
103.719  47.603  77.663 
105.722  54.201  75.784 
98.859  32.428  77.654 
106.195  49.181  73.766 
104.381  52.446  79.950 
104.243  53.387  79.982 
105.581  45.390  73.517 
105.223  54.920  79.010 
109.280  59.606  70.882 
107.034  57.854  74.657 
106.657  54.509  75.216 
106.490  53.947  73.485 
105.138  51.242  76.759 
108.392  61.850  74.321 
106.037  51.492  74.654 
108.377  56.603  72.232 
105.509  52.772  77.017 
106.096  56.845  77.501 
106.016  55.364  76.649 
104.559  52.467  77.505 
107.621  69.908  73.026 
105.695  56.138  77.509 
107.911  68.383  74.336 
105.261  60.055  78.623 
106.448  60.678  78.031 
106.700  59.967  77.690 
107.660  59.458  73.825 
107.016  55.154  74.449 
106.917  60.783  77.401 
107.964  67.942  71.607 
108.147  66.619  72.813 
107.193  62.426  75.455 
102.763  70.147  83.737 
107.041  70.210  70.757 
106.656  75.330  62.533 
105.473  76.892  68.665 
101.079  75.672  80.035 
104.459  73.969  77.189 
106.954  72.939  71.383 
102.807  76.161  76.217 
102.790  76.430  77.255 
103.354  78.126  74.444 
102.194  77.361  76.064 
102.446  77.234  76.967 
101.119  78.331  77.211 
102.039  78.560  76.656 
101.830  79.371  75.783 
101.136  79.731  75.911 
101.141  80.532  76.234 
100.071  81.197  76.304 
100.408  81.893  75.848 
99.405  81.711  76.940 
99.127  82.693  77.055 
98.348  83.682  76.297 
97.787  83.913  77.044 
98.068  84.685  76.659 
97.625  84.869  76.871 
96.483  86.455  77.189 
95.797  86.864  77.487 
95.903  85.995  77.722 
95.057  87.232  77.638 
95.646  87.590  77.000 
94.606  88.677  77.060 
93.890  89.700  76.274 
93.395  89.961  77.252 
93.400  90.699  76.814 
92.632  91.016  76.385 
92.512  90.797  77.165 
92.392  91.781  76.950 
91.930  92.435  76.847 
91.740  92.859  77.164 
90.032  94.239  77.144 
90.348  94.558  77.354 
89.726  94.059  77.653 
89.450  95.352  76.804 
89.026  95.666  77.387 
87.816  96.280  76.534 
87.158  97.331  76.806 
87.248  96.991  77.732 
86.526  97.503  76.244 
85.619  98.254  77.300 
82.592  99.087  79.645 
83.695  98.103  79.772 
80.323  98.779  82.833 
85.208  99.269  76.714 
85.922  99.205  74.316 
79.001  102.916  76.871 
84.609  99.374  77.714 
78.271  103.458  73.023 
78.838  99.785  82.344 
78.038  103.193  74.645 
74.580  102.918  77.987 
83.244  98.622  80.621 
72.558  106.014  70.688 
77.595  99.879  83.725 
76.304  103.906  75.990 
68.752  107.914  69.471 
72.220  104.249  77.252 
71.512  105.748  69.924 
74.824  104.358  76.156 
78.528  101.150  79.962 
81.771  102.602  72.990 
78.367  103.351  73.585 
71.338  105.738  75.149 
72.667  102.892  79.594 
71.509  102.473  80.312 
81.010  103.090  74.227 
66.988  106.360  76.775 
74.199  105.225  74.096 
69.814  103.439  78.367 
73.149  104.805  75.971 
65.387  104.170  79.671 
73.931  103.618  77.986 
66.762  102.682  81.573 
64.699  103.147  80.978 
64.472  107.176  75.580 
66.325  104.216  78.570 
55.117  110.016  65.305 
61.691  106.369  77.672 
61.665  107.879  73.029 
59.903  106.663  78.445 
62.672  109.265  69.068 
52.883  108.114  73.608 
53.359  108.874  69.067 
53.565  101.835  85.941 
51.298  106.885  76.147 
49.226  108.164  67.046 
60.677  106.639  78.207 
58.363  107.835  74.047 
48.893  104.533  80.205 
51.639  102.919  84.552 
49.616  108.456  68.011 
41.502  104.557  71.759 
54.579  108.638  68.864 
53.384  109.286  69.544 
51.920  106.048  78.024 
41.392  99.803  83.207 
55.139  105.351  81.187 
48.675  104.996  79.608 
46.441  103.597  80.009 
46.901  106.398  74.589 
35.639  96.843  82.793 
42.241  104.818  74.874 
45.612  103.303  80.928 
39.702  101.087  80.075 
38.836  98.814  83.266 
30.720  91.548  85.033 
31.332  96.659  77.063 
30.608  95.938  78.931 
35.749  98.072  80.595 
39.994  98.218  85.206 
27.380  95.998  73.319 
26.339  93.517  76.394 
31.929  89.440  88.745 
28.383  92.593  81.033 
30.759  93.307  82.605 
24.354  90.085  78.175 
31.087  93.681  82.615 
29.417  93.359  81.394 
26.843  84.595  85.875 
30.161  94.427  79.878 
29.095  88.091  86.904 
24.447  90.916  77.611 
30.341  90.852  85.827 
27.145  92.461  78.460 
30.775  96.224  78.580 
32.159  95.178  81.143 
20.804  85.884  77.741 
27.577  88.408  85.350 
24.473  93.040  74.139 
30.413  92.168  83.725 
28.413  88.489  84.810 
19.321  89.342  66.536 
20.946  83.481  81.603 
19.118  88.038  68.892 
20.449  78.044  83.546 
19.243  81.804  80.524 
18.800  80.991  80.169 
19.025  82.248  78.830 
21.365  84.991  81.103 
21.441  85.118  79.799 
17.652  78.695  79.610 
17.001  76.035  79.342 
22.834  86.304  80.982 
15.216  71.205  79.487 
