33.324  101.764  53.705 
33.516  102.393  59.266 
29.383  100.428  60.138 
34.438  101.469  49.580 
32.669  100.370  50.987 
28.543  99.632  59.801 
29.463  99.466  56.072 
26.041  97.232  58.233 
24.824  94.570  68.083 
26.184  96.777  62.632 
23.203  94.062  61.856 
22.297  93.804  63.842 
22.891  94.127  58.221 
27.028  97.361  54.368 
26.819  97.455  55.066 
25.574  96.608  58.327 
26.458  96.234  49.799 
27.431  98.165  59.221 
26.187  97.208  52.341 
20.024  88.885  53.354 
30.730  100.383  53.178 
26.490  96.652  55.022 
20.067  91.889  61.677 
24.159  94.964  57.150 
20.288  90.535  55.629 
18.151  86.140  57.638 
15.983  82.896  63.082 
18.364  87.454  63.231 
17.196  83.678  60.628 
17.241  83.363  62.608 
19.864  90.614  60.491 
17.196  83.067  58.387 
16.138  81.301  58.094 
15.965  81.081  59.266 
15.231  80.289  58.249 
15.213  80.280  59.445 
15.024  79.547  59.302 
14.463  77.960  59.285 
13.934  77.794  60.420 
14.233  77.617  60.046 
13.788  76.844  60.242 
13.887  76.420  60.850 
13.923  75.580  61.069 
13.438  76.426  61.036 
13.042  73.962  62.735 
13.653  76.073  62.682 
13.154  72.728  56.799 
12.018  71.257  62.165 
13.091  70.399  56.463 
12.630  70.495  56.208 
12.031  69.734  62.021 
12.049  69.040  57.069 
12.747  67.945  54.990 
12.615  71.468  63.844 
12.952  72.896  60.496 
13.235  74.154  63.815 
12.719  70.934  59.062 
12.866  72.431  61.763 
10.689  66.221  65.642 
10.980  65.127  57.600 
10.869  62.480  57.809 
11.817  70.458  62.276 
11.150  67.063  63.851 
10.978  65.395  57.181 
10.424  58.826  61.033 
11.649  55.917  64.699 
11.639  62.927  65.230 
10.381  58.842  60.403 
12.100  50.170  60.353 
10.694  56.097  61.842 
11.901  53.967  60.594 
12.255  55.591  70.287 
11.666  51.896  54.059 
12.461  48.578  53.510 
11.620  51.877  60.592 
11.429  49.026  56.010 
11.863  48.418  56.633 
14.019  48.601  47.629 
11.298  54.209  55.752 
12.546  46.319  58.467 
12.237  46.387  59.364 
13.806  42.230  56.870 
12.823  45.841  60.145 
13.578  43.216  55.109 
12.228  48.953  52.220 
12.980  46.976  57.210 
11.812  50.957  53.478 
14.093  41.385  55.771 
15.748  38.177  66.812 
18.419  32.629  57.027 
22.780  26.605  55.066 
18.139  33.843  54.451 
15.699  41.148  51.777 
19.234  32.194  70.789 
14.058  41.009  59.013 
18.034  33.012  63.449 
17.089  34.646  55.790 
20.211  29.904  64.344 
15.786  37.394  61.720 
21.738  30.335  49.031 
22.384  30.141  47.009 
14.878  38.807  60.246 
15.326  37.730  56.981 
23.663  26.024  53.641 
19.874  30.605  55.097 
22.409  31.153  47.116 
21.253  28.173  56.051 
20.838  29.410  51.472 
21.444  28.507  57.401 
25.273  24.020  54.302 
31.395  19.317  57.200 
35.736  16.677  58.526 
24.334  25.251  59.401 
34.486  16.567  55.679 
29.767  22.242  50.455 
26.077  23.935  51.888 
29.894  20.906  52.346 
32.263  19.069  53.038 
28.330  22.345  60.043 
23.908  25.359  56.146 
27.553  23.055  62.213 
33.215  17.587  58.599 
34.775  16.381  59.405 
31.194  20.123  60.859 
33.729  17.026  59.060 
40.925  14.164  57.187 
34.257  17.745  61.095 
40.811  15.067  53.217 
36.149  15.918  57.779 
39.331  15.670  53.014 
30.544  19.790  57.732 
37.090  17.779  50.144 
40.953  15.866  51.372 
35.170  17.230  55.039 
36.650  16.312  54.203 
39.640  14.552  55.769 
40.810  14.059  60.801 
42.669  13.694  57.768 
43.645  13.481  54.383 
42.899  13.953  56.309 
43.496  13.543  56.696 
43.912  13.401  55.209 
45.141  13.106  55.303 
45.943  12.826  55.294 
46.977  12.570  55.592 
47.767  12.102  55.816 
48.347  12.388  56.271 
48.540  11.589  55.915 
49.484  11.319  56.752 
50.102  11.714  57.117 
51.012  11.166  55.837 
50.189  11.529  57.890 
51.069  11.139  56.557 
51.003  10.960  58.380 
51.628  11.021  58.310 
54.581  10.524  61.257 
55.277  10.559  57.985 
54.988  10.050  60.109 
59.090  10.026  61.441 
54.414  10.274  62.508 
55.009  11.419  56.002 
53.810  11.383  51.611 
54.341  12.364  44.390 
62.492  10.580  55.691 
62.553  12.330  42.906 
52.339  12.887  44.158 
64.651  10.413  56.237 
70.658  12.611  46.167 
73.621  14.371  44.927 
65.620  10.737  54.751 
68.339  11.363  50.345 
70.937  11.324  54.860 
67.073  10.935  52.821 
69.790  12.628  45.032 
74.547  12.629  57.133 
70.544  11.569  52.581 
76.936  13.306  56.487 
71.710  13.628  45.575 
74.322  12.875  58.281 
69.240  11.576  56.559 
76.559  12.854  62.248 
74.297  11.885  64.945 
74.184  14.786  43.526 
78.010  14.434  52.565 
77.213  13.879  54.426 
78.366  14.300  55.638 
77.486  13.779  56.065 
76.663  14.554  50.870 
79.428  15.729  51.781 
79.740  15.826  53.218 
80.890  16.190  52.990 
81.706  16.106  52.204 
81.678  16.092  53.463 
82.984  17.284  53.119 
82.899  17.527  54.953 
84.631  18.073  53.587 
85.302  18.776  54.128 
85.839  19.223  52.811 
85.860  19.740  53.104 
86.193  20.483  52.804 
85.433  19.249  53.558 
89.552  22.311  54.119 
89.570  22.965  52.886 
90.319  22.765  54.254 
89.238  22.675  54.695 
89.753  22.564  53.726 
91.513  23.584  55.459 
93.973  26.375  52.007 
93.062  25.301  55.442 
91.248  24.129  53.484 
93.243  24.192  56.399 
94.145  28.119  49.619 
94.544  28.286  50.584 
101.694  33.947  53.716 
94.712  26.366  53.799 
94.065  26.282  52.711 
100.561  30.976  58.383 
93.745  25.962  52.812 
99.235  29.535  56.740 
98.618  30.696  52.670 
97.558  29.389  53.494 
97.892  29.165  56.063 
99.938  34.697  50.447 
100.480  31.553  56.990 
98.738  33.844  48.108 
102.034  37.074  51.529 
103.229  36.457  56.860 
101.157  33.060  55.165 
99.882  35.121  49.645 
101.425  34.924  53.070 
102.067  36.674  52.830 
100.322  34.034  52.663 
103.601  37.730  55.082 
102.038  34.293  55.247 
103.720  39.255  54.023 
103.289  37.390  53.800 
105.115  38.773  60.410 
105.128  41.500  57.448 
105.675  42.163  57.448 
105.008  42.345  52.261 
104.858  41.866  52.975 
105.074  43.671  53.287 
106.190  45.429  56.295 
106.371  45.061  55.623 
106.814  46.330  55.631 
107.057  46.503  57.616 
107.011  47.589  55.962 
106.667  46.975  56.456 
106.769  47.261  55.624 
106.770  48.155  55.518 
107.329  48.967  56.208 
107.819  50.006  57.076 
107.332  50.659  55.816 
107.917  51.346  56.662 
108.552  52.253  57.560 
108.588  52.594  57.253 
108.844  54.019  55.715 
108.993  54.935  57.803 
109.483  57.303  60.120 
109.522  59.335  55.734 
109.138  59.629  55.572 
109.138  58.324  53.085 
109.252  59.183  54.839 
109.992  59.749  57.510 
109.233  62.807  55.858 
108.915  63.227  56.528 
108.610  61.968  54.460 
108.821  62.166  55.074 
108.471  64.450  54.250 
107.929  65.193  52.793 
107.724  64.096  52.156 
108.456  65.614  54.662 
108.149  67.683  55.682 
107.774  68.533  55.780 
107.814  68.992  55.097 
107.998  69.922  55.094 
107.670  70.123  55.873 
107.845  70.701  55.259 
107.498  72.062  54.884 
107.156  72.956  54.199 
106.348  74.423  55.431 
106.912  74.162  53.991 
106.542  75.232  54.390 
106.713  74.513  55.006 
105.979  76.434  55.946 
105.717  75.272  51.294 
104.078  80.597  48.167 
105.661  75.875  52.519 
105.335  74.399  49.603 
104.814  82.865  58.823 
103.819  82.975  55.863 
105.462  79.588  57.605 
101.460  88.225  60.103 
103.008  85.696  56.676 
101.711  85.340  51.359 
102.946  84.773  58.551 
102.988  85.495  55.577 
97.242  93.661  57.829 
102.980  85.246  59.563 
102.722  85.597  61.523 
98.343  91.103  51.948 
98.809  89.853  49.345 
99.581  89.301  55.609 
90.437  97.612  48.245 
100.329  89.645  63.412 
98.814  90.892  61.384 
95.845  94.267  56.070 
95.594  92.484  66.952 
93.400  97.262  55.951 
95.749  93.209  48.951 
97.661  92.560  58.830 
91.524  96.517  48.908 
96.519  93.888  61.073 
91.767  97.176  51.553 
92.322  96.226  65.509 
94.295  90.437  41.337 
90.968  98.891  58.135 
88.462  98.058  46.779 
99.199  89.149  49.036 
92.629  97.166  59.934 
93.107  96.549  51.603 
91.469  97.942  62.434 
94.979  94.005  64.724 
91.983  97.962  59.529 
92.395  97.750  55.263 
91.664  97.871  55.794 
86.645  101.114  50.245 
91.405  98.475  57.318 
87.731  101.496  56.749 
90.867  97.677  53.642 
87.136  101.821  53.185 
87.265  101.761  57.558 
86.696  102.237  59.578 
79.110  105.520  53.866 
84.143  103.803  56.931 
82.182  104.497  57.391 
75.681  107.646  57.502 
80.649  105.237  58.011 
78.497  106.055  54.498 
77.715  104.835  49.178 
87.156  100.750  61.556 
75.705  106.703  53.494 
78.772  106.161  56.425 
75.969  107.249  55.540 
76.302  105.807  49.100 
76.860  106.848  55.574 
75.515  107.369  58.423 
73.039  108.437  56.095 
78.447  105.921  58.010 
74.345  106.888  48.720 
69.010  107.650  50.647 
66.805  107.988  53.129 
68.106  107.819  53.097 
66.732  108.279  51.855 
65.989  107.913  52.615 
65.868  108.663  54.866 
65.067  108.419  54.209 
64.443  108.994  55.114 
64.206  108.629  54.393 
63.005  109.008  54.933 
63.082  108.523  55.348 
62.405  108.871  55.648 
60.398  109.138  56.302 
57.490  109.706  58.170 
59.838  109.375  55.819 
57.026  109.887  58.644 
58.724  108.968  54.737 
52.212  109.331  54.715 
57.636  109.259  54.597 
56.564  108.867  51.081 
54.991  109.576  55.172 
55.277  109.779  56.918 
53.804  109.169  54.771 
48.213  106.939  55.104 
47.269  107.251  56.446 
54.027  109.492  58.317 
44.532  106.270  59.204 
44.219  105.900  62.580 
44.255  106.273  58.315 
45.530  106.401  57.642 
44.068  106.070  57.856 
43.922  105.892  58.822 
43.400  105.719  59.542 
43.096  105.573  59.121 
42.060  105.414  56.178 
43.948  105.958  59.504 
40.231  104.106  57.713 
40.043  104.594  56.903 
39.153  103.725  57.100 
38.512  103.704  57.643 
37.917  103.201  57.331 
37.171  103.544  57.817 
35.721  102.779  57.526 
35.040  102.723  55.716 
33.979  102.539  58.364 
26.910  98.233  60.028 
35.670  102.433  56.184 
31.820  100.420  52.632 
22.056  93.024  59.495 
21.132  92.050  59.555 
29.777  100.265  57.980 
32.897  101.530  55.052 
30.103  99.471  51.707 
29.198  100.108  61.130 
29.888  99.970  54.574 
23.219  93.585  64.619 
31.277  101.065  57.622 
26.538  97.564  62.567 
25.337  95.062  65.091 
33.854  102.003  52.963 
24.845  95.628  63.954 
22.606  92.084  67.837 
27.948  98.107  65.549 
27.181  98.005  58.800 
23.512  93.538  52.813 
31.440  100.612  51.817 
33.121  102.069  54.994 
19.569  88.304  57.780 
25.638  96.672  53.179 
18.526  88.203  62.724 
21.149  90.699  55.825 
25.615  96.101  53.993 
20.837  90.778  56.814 
19.624  88.612  52.709 
24.747  94.994  57.941 
17.316  84.069  61.932 
19.135  86.572  55.939 
17.588  85.146  58.675 
16.929  83.851  58.981 
17.493  84.244  58.003 
17.074  84.087  58.267 
16.142  81.823  58.211 
16.427  82.516  58.250 
15.552  81.191  58.554 
14.904  79.921  58.682 
15.074  78.711  58.026 
14.483  78.791  59.396 
14.819  77.285  59.271 
13.937  76.592  58.979 
13.824  76.409  59.440 
13.984  75.933  60.255 
13.580  76.034  60.779 
13.371  75.138  59.272 
13.429  76.026  61.674 
13.981  75.327  61.981 
13.667  74.295  58.810 
13.248  73.543  55.741 
12.680  71.877  56.858 
13.235  73.426  58.429 
13.454  72.296  64.371 
12.898  73.493  59.722 
12.284  70.370  61.277 
13.626  73.483  63.664 
11.459  68.404  60.965 
10.566  64.622  59.667 
11.747  68.070  58.419 
12.297  66.573  71.462 
13.177  71.380  67.372 
10.561  63.537  63.915 
10.792  58.657  58.826 
11.929  69.509  59.409 
11.498  64.207  58.265 
10.966  57.125  55.698 
10.113  60.414  58.355 
10.802  54.301  55.742 
11.002  67.799  60.760 
11.620  53.517  50.312 
10.607  57.477  62.046 
11.299  63.345  55.382 
11.519  51.519  57.348 
12.624  49.263  59.075 
10.725  56.827  55.412 
13.797  41.984  58.025 
11.800  47.677  59.047 
12.179  49.536  59.785 
11.689  50.803  57.893 
11.766  51.362  58.930 
10.992  58.654  55.487 
11.539  58.485  53.010 
14.204  49.120  47.700 
11.945  49.060  56.017 
12.635  46.072  55.802 
13.151  44.877  56.327 
13.632  42.741  59.663 
14.493  43.062  53.359 
14.907  39.409  63.320 
12.756  47.092  53.489 
15.263  38.524  60.202 
19.963  30.378  57.576 
14.606  40.163  54.614 
17.354  33.921  61.522 
12.747  55.447  47.688 
14.122  41.267  60.474 
19.746  30.467  58.530 
17.577  35.157  54.695 
19.480  31.992  52.217 
17.625  33.442  58.126 
16.842  34.357  63.601 
21.000  29.182  55.128 
20.941  29.681  50.617 
21.540  29.098  52.676 
19.778  32.375  50.515 
17.635  37.092  50.826 
17.228  34.911  59.824 
25.114  25.751  49.096 
20.354  30.048  54.114 
27.466  23.204  50.371 
25.389  24.482  51.729 
28.959  20.806  58.000 
20.927  29.228  61.410 
30.985  21.603  49.037 
29.320  20.971  57.398 
24.510  26.399  49.225 
30.692  20.143  59.957 
30.684  20.070  53.768 
29.828  20.840  59.229 
28.127  22.361  50.796 
23.410  30.275  44.970 
35.709  16.519  59.392 
30.443  20.703  53.181 
30.048  20.391  54.070 
37.409  15.816  59.698 
31.582  19.608  53.563 
33.584  17.719  60.803 
28.862  22.953  47.892 
36.553  15.430  58.389 
37.794  16.536  53.603 
35.804  17.907  51.735 
27.404  22.728  53.128 
37.888  15.208  60.379 
40.900  16.355  48.475 
37.533  16.148  54.034 
43.156  14.049  54.144 
40.885  14.897  54.675 
37.944  16.195  53.187 
42.595  15.030  52.930 
36.971  16.994  52.205 
42.728  13.946  55.038 
43.115  14.402  54.944 
44.587  13.404  54.624 
44.609  13.398  53.189 
44.407  13.253  55.131 
46.219  12.548  54.510 
46.828  12.646  54.698 
47.514  12.955  55.005 
48.319  12.382  55.295 
48.913  12.027  55.649 
49.497  11.473  55.254 
50.005  11.753  56.329 
49.851  11.732  55.556 
51.197  11.329  55.116 
51.233  11.410  57.037 
52.749  10.642  56.890 
52.005  11.022  57.012 
54.546  11.182  56.880 
52.934  10.690  58.957 
58.151  10.251  56.170 
55.056  10.248  58.729 
55.221  9.902  61.071 
74.554  14.180  48.591 
63.215  12.203  44.067 
66.511  10.577  55.567 
63.160  11.558  46.261 
66.153  11.820  46.291 
75.606  13.277  56.149 
72.285  13.671  45.595 
62.124  10.410  51.512 
70.227  11.207  56.441 
70.340  11.176  55.501 
66.581  11.120  50.917 
63.192  11.453  45.424 
63.437  11.259  52.725 
70.168  11.520  51.067 
72.470  12.559  53.897 
69.651  11.779  47.728 
74.881  12.805  65.379 
76.205  14.730  47.750 
74.740  13.538  54.843 
75.250  13.924  52.733 
72.610  12.147  54.244 
74.839  14.057  51.433 
76.255  12.907  60.812 
78.400  15.950  50.935 
76.627  14.020  52.328 
78.817  14.641  54.088 
74.850  13.086  53.538 
80.535  16.444  51.566 
79.443  15.328  52.418 
80.587  15.463  54.458 
80.081  15.861  52.760 
80.610  15.639  52.881 
80.762  16.009  52.048 
83.085  17.242  53.628 
84.122  17.669  54.802 
83.793  18.122  54.475 
84.157  17.924  54.111 
85.705  19.659  51.808 
84.890  18.822  53.294 
87.038  20.973  52.202 
86.507  19.930  53.408 
87.462  21.369  53.042 
89.822  23.482  53.736 
89.036  22.349  53.141 
90.515  23.923  52.895 
90.973  23.069  55.024 
91.329  24.621  51.901 
91.304  24.384  55.252 
95.885  27.733  54.494 
91.523  24.175  53.963 
91.440  24.691  50.495 
92.314  24.938  53.178 
92.135  24.800  51.935 
95.339  26.806  53.977 
92.402  24.951  52.674 
96.421  29.307  51.060 
94.663  27.876  50.130 
95.382  29.453  49.582 
94.302  27.053  51.690 
100.485  32.306  54.547 
96.294  30.981  47.531 
99.062  31.628  52.928 
97.536  28.926  53.713 
101.497  36.000  52.216 
99.130  32.569  50.159 
97.613  34.685  46.797 
101.766  33.901  56.041 
100.057  32.301  53.430 
99.132  28.975  57.635 
98.501  34.454  47.829 
104.029  38.112  58.669 
103.974  39.005  55.252 
100.333  34.100  50.653 
103.147  38.736  54.075 
103.762  40.296  53.021 
103.372  39.550  54.690 
103.128  36.968  55.429 
104.147  40.164  54.696 
104.702  40.143  55.322 
104.887  42.857  53.275 
104.275  41.688  52.934 
105.891  45.388  55.001 
104.802  42.835  54.328 
105.999  44.389  52.781 
105.498  43.985  55.453 
106.571  46.135  54.804 
106.845  46.793  54.957 
106.416  46.998  55.265 
106.833  47.685  54.962 
107.081  48.427  54.705 
106.710  48.321  56.283 
107.315  49.940  56.138 
107.874  50.611  55.615 
107.764  52.088  56.379 
108.357  52.164  56.467 
108.348  52.737  55.879 
108.607  53.018  56.655 
108.199  53.087  56.862 
109.529  56.559  55.582 
108.792  55.372  58.668 
109.041  54.480  60.474 
108.140  59.706  50.621 
109.655  56.451  60.131 
109.237  56.723  56.906 
108.474  63.857  52.504 
107.880  61.528  49.706 
108.423  62.514  53.187 
107.884  64.009  51.236 
109.258  64.261  56.751 
107.217  65.674  49.934 
107.566  65.680  51.948 
107.864  66.694  53.420 
108.369  67.634  54.715 
108.411  68.379  55.181 
108.346  68.542  54.592 
108.133  69.219  55.333 
107.813  70.270  54.578 
107.376  70.601  54.611 
106.923  71.849  54.802 
107.206  72.681  54.587 
107.037  73.647  54.793 
106.526  73.665  55.079 
106.405  73.292  52.957 
105.680  76.820  51.972 
105.762  75.680  54.564 
105.394  76.989  51.494 
105.192  77.608  51.962 
104.841  81.820  57.906 
102.522  84.359  51.189 
105.062  79.048  51.040 
104.088  81.407  51.048 
104.464  81.399  54.998 
104.098  83.555  55.163 
105.168  79.572  53.970 
104.486  83.597  59.393 
100.455  87.892  57.227 
98.682  90.510  50.812 
101.456  87.458  56.307 
96.700  93.184  54.023 
100.904  88.696  56.877 
98.475  91.383  61.154 
97.132  93.472  57.050 
101.416  80.771  42.631 
97.187  90.757  47.743 
99.198  89.656  50.639 
99.771  89.813  52.766 
101.242  89.024  61.632 
99.596  89.339  53.433 
94.988  94.806  52.727 
98.016  92.316  55.995 
93.324  95.813  64.639 
95.373  94.960  54.393 
94.719  92.350  45.773 
98.237  92.057  61.539 
95.943  94.338  54.362 
95.981  92.851  50.618 
91.526  98.839  58.986 
93.913  96.047  51.415 
88.238  101.602  56.110 
94.723  95.940  57.260 
92.731  95.842  48.786 
93.684  95.557  63.920 
96.385  94.521  60.325 
92.685  97.530  57.368 
91.751  97.543  54.986 
89.032  99.657  50.582 
82.892  104.000  54.821 
91.977  97.755  63.138 
90.518  98.925  55.646 
80.085  105.565  54.971 
85.544  103.131  54.150 
81.242  104.700  57.758 
72.358  104.965  42.781 
80.209  105.519  58.902 
85.459  102.369  58.939 
81.155  104.392  62.050 
77.327  106.805  54.994 
77.384  106.650  57.131 
78.184  104.388  46.035 
76.158  106.743  54.753 
75.524  107.694  59.394 
76.004  105.280  46.224 
76.680  105.623  51.923 
74.670  107.301  57.209 
82.968  103.577  53.822 
75.382  107.539  56.709 
74.756  107.912  58.759 
70.423  107.587  51.242 
73.601  106.654  47.033 
70.072  106.906  50.763 
66.943  107.876  51.243 
68.799  107.721  51.465 
68.887  108.003  54.523 
67.969  107.968  51.987 
66.684  108.340  53.806 
65.620  108.479  54.094 
65.309  108.361  53.454 
64.250  108.010  54.057 
63.315  108.564  54.383 
62.490  108.716  54.162 
62.529  109.328  54.963 
61.932  109.632  55.481 
61.620  109.445  54.894 
60.749  109.400  55.001 
53.263  107.798  49.508 
51.081  108.695  58.406 
51.564  107.317  49.841 
58.618  109.983  57.380 
59.357  109.833  56.586 
54.316  109.760  56.805 
53.155  109.429  58.327 
51.445  108.063  53.364 
49.515  107.175  55.129 
47.676  107.394  57.593 
46.800  106.393  58.428 
46.925  106.982  58.148 
45.859  106.263  58.941 
48.022  107.490  60.208 
47.210  107.265  57.024 
48.198  108.025  66.385 
43.780  105.236  56.605 
43.434  105.696  56.920 
45.271  106.222  56.741 
43.525  106.014  57.602 
41.444  104.940  55.504 
41.642  105.266  57.635 
40.817  104.463  57.075 
39.432  104.251  57.097 
39.624  103.741  56.425 
38.897  104.054  56.544 
37.069  103.343  57.023 
37.259  102.888  56.652 
35.852  102.992  57.010 
34.901  102.712  56.656 
31.420  100.072  52.712 
34.803  102.480  57.591 
27.370  98.067  64.625 
35.547  102.485  59.062 
28.140  98.878  59.170 
32.657  102.158  60.251 
34.372  102.601  57.914 
28.036  98.186  64.086 
28.346  98.759  64.360 
25.941  96.793  52.409 
33.703  102.533  62.224 
34.463  101.974  61.306 
26.972  97.797  59.648 
31.196  101.696  59.117 
22.483  92.824  66.014 
23.235  93.611  58.820 
31.026  101.294  58.869 
30.105  100.449  56.575 
18.388  87.744  60.919 
28.234  97.748  52.600 
29.527  98.913  53.325 
31.073  99.494  50.706 
25.014  95.761  58.987 
29.555  98.557  54.031 
26.394  97.837  58.010 
20.645  90.594  53.965 
18.978  87.681  61.203 
20.197  88.002  49.825 
18.717  86.599  56.931 
19.078  89.053  62.689 
20.093  88.725  52.113 
17.538  86.004  63.421 
21.941  93.086  57.652 
19.306  87.451  55.321 
17.260  83.217  57.522 
16.986  82.639  57.528 
16.572  83.413  57.712 
16.471  81.900  57.579 
16.116  80.558  58.692 
15.825  81.437  57.514 
15.632  79.863  57.591 
15.050  79.232  58.544 
14.978  77.977  58.636 
14.230  77.154  58.028 
14.217  77.454  58.580 
13.657  76.245  58.592 
13.516  75.700  59.829 
13.234  75.031  60.607 
13.269  74.700  62.066 
12.340  72.006  61.461 
12.795  72.526  57.923 
14.081  74.411  55.446 
14.015  72.492  50.683 
12.522  69.736  54.276 
13.297  72.530  58.560 
12.980  73.835  58.109 
13.223  70.837  50.935 
13.541  74.193  62.212 
11.815  68.293  56.675 
11.955  67.413  54.499 
10.632  58.451  66.407 
11.964  67.214  55.455 
11.689  66.081  57.075 
13.244  73.717  60.157 
10.479  65.567  59.475 
10.662  61.241  57.985 
11.242  56.809  62.005 
11.874  69.557  57.518 
11.629  52.648  59.254 
10.269  60.950  60.065 
11.056  58.204  55.304 
10.471  59.328  62.646 
11.744  50.930  60.618 
11.950  50.440  58.549 
11.706  53.903  59.056 
11.720  49.455  56.905 
11.983  66.646  55.764 
12.588  49.633  52.534 
12.231  47.855  61.042 
11.941  51.459  51.455 
13.963  54.409  43.817 
12.050  55.535  48.717 
13.180  47.595  53.977 
11.097  53.884  54.132 
13.095  49.029  49.542 
12.723  45.743  52.827 
14.338  50.085  45.459 
11.642  57.090  53.151 
12.669  47.100  58.124 
12.309  48.495  54.852 
14.464  43.025  51.029 
17.321  35.589  67.396 
14.918  40.665  60.110 
14.943  39.347  64.135 
15.720  37.957  55.163 
16.527  37.416  66.802 
14.295  40.106  56.969 
15.619  36.793  59.347 
15.693  38.366  62.807 
15.727  36.699  62.893 
14.614  38.706  58.562 
17.815  34.735  53.603 
15.842  36.612  57.691 
16.881  39.029  51.248 
22.692  27.824  53.653 
20.875  29.732  60.566 
19.735  30.524  56.316 
26.421  24.794  49.757 
18.694  33.482  55.114 
20.249  30.962  51.140 
22.561  28.443  49.595 
24.283  25.041  55.314 
24.051  24.899  58.177 
25.396  23.726  59.080 
27.462  22.407  56.581 
21.593  27.531  59.493 
26.380  23.461  54.414 
25.750  24.458  52.340 
27.055  23.522  49.673 
27.359  21.890  58.239 
36.005  18.457  51.087 
29.744  23.176  47.104 
25.986  25.268  47.527 
30.481  19.912  54.477 
33.122  18.738  53.776 
33.822  19.198  51.535 
32.649  20.185  50.649 
33.224  17.297  55.662 
33.260  17.543  57.413 
37.199  15.407  59.998 
35.821  15.839  59.030 
42.203  13.111  61.886 
34.880  16.714  60.217 
35.745  16.010  57.376 
39.037  17.123  50.532 
40.770  16.190  49.378 
44.546  14.647  51.775 
39.017  16.408  51.842 
38.648  14.871  57.126 
40.206  13.899  56.855 
34.794  17.449  56.840 
42.475  15.078  51.287 
44.288  13.926  52.347 
43.647  14.363  52.691 
42.072  15.217  50.638 
42.846  13.649  55.916 
45.167  13.032  53.945 
45.206  13.762  54.379 
45.355  13.010  54.846 
46.505  12.632  53.754 
47.567  12.226  54.852 
48.770  12.136  54.597 
49.105  12.389  55.328 
49.275  11.896  54.753 
50.326  11.347  55.359 
50.171  11.271  56.177 
51.961  10.909  55.443 
51.813  11.141  56.179 
52.319  10.983  56.353 
54.436  10.765  55.974 
53.862  11.098  56.211 
57.912  9.919  52.448 
53.406  11.458  57.861 
62.278  11.179  46.367 
60.048  10.147  51.787 
60.584  11.313  46.586 
59.647  9.853  58.716 
69.111  11.510  49.808 
60.384  10.191  57.482 
59.563  10.294  52.433 
68.673  10.744  53.020 
65.670  11.273  49.395 
66.560  11.135  53.542 
64.112  11.483  45.471 
58.799  11.892  45.921 
69.022  11.363  51.446 
63.945  12.175  45.454 
74.748  12.288  55.767 
74.851  12.411  63.988 
70.201  10.991  56.893 
71.403  12.089  61.782 
63.143  11.297  47.633 
72.646  12.289  55.747 
77.235  14.075  52.577 
76.267  13.216  55.953 
73.528  11.822  59.313 
77.829  15.962  48.335 
77.107  15.413  48.327 
79.323  17.351  47.523 
76.562  13.212  54.868 
78.378  15.065  53.863 
81.116  15.949  52.623 
76.738  16.255  46.661 
79.978  15.365  52.842 
79.972  15.784  51.553 
81.056  16.536  50.912 
80.768  16.167  51.107 
82.734  17.170  51.664 
82.698  16.793  54.664 
83.280  17.720  54.171 
83.258  17.568  52.730 
83.781  18.225  53.543 
85.460  18.815  53.264 
85.390  19.053  52.241 
86.086  20.007  52.151 
86.693  20.635  51.201 
87.826  21.000  52.392 
88.152  21.960  53.350 
89.187  22.509  52.327 
90.262  23.483  52.385 
90.747  22.928  54.521 
89.481  23.208  51.175 
91.146  23.360  54.122 
92.052  24.109  54.811 
93.003  25.962  51.261 
92.146  26.086  51.272 
94.185  27.890  49.083 
92.754  25.898  50.428 
96.069  26.982  55.059 
93.626  27.909  47.938 
95.859  29.683  50.436 
94.117  26.843  50.887 
94.826  27.261  51.373 
93.426  25.863  53.484 
97.880  30.137  52.250 
94.902  29.170  47.841 
97.308  31.777  49.262 
101.389  34.358  52.331 
93.769  25.230  55.156 
98.795  29.711  55.086 
97.164  31.170  47.936 
96.914  30.397  48.818 
100.952  34.758  51.637 
97.870  31.194  51.449 
99.334  33.331  49.662 
101.077  36.369  51.223 
102.875  37.396  54.182 
103.517  39.089  53.399 
103.088  38.913  52.599 
102.156  36.931  52.081 
102.085  33.119  59.079 
104.812  39.488  58.975 
103.903  39.882  53.974 
105.938  43.427  54.242 
104.748  43.331  51.856 
105.039  42.017  54.123 
105.152  43.171  52.665 
105.365  42.002  54.581 
105.986  44.944  53.981 
106.744  46.634  54.121 
106.397  45.303  54.723 
106.276  46.848  54.777 
106.328  47.432  54.354 
107.053  47.760  54.233 
106.983  48.941  55.432 
107.190  49.530  55.380 
107.947  50.318  56.130 
107.625  50.330  54.913 
108.147  52.317  55.675 
108.294  52.957  55.440 
108.574  53.625  56.165 
108.956  55.127  55.214 
109.544  56.218  56.382 
109.097  58.967  52.646 
109.160  56.678  61.841 
109.635  60.843  58.212 
109.280  61.777  53.839 
107.515  59.603  47.439 
109.501  56.510  55.025 
106.040  54.457  44.593 
108.397  64.268  53.238 
108.322  63.542  51.735 
107.595  65.099  53.715 
107.441  64.854  52.093 
107.968  66.376  52.324 
107.794  64.795  51.044 
108.318  66.320  54.056 
108.421  66.815  54.633 
108.328  67.243  54.088 
107.549  68.678  54.263 
107.565  69.380  54.853 
107.414  70.873  53.855 
107.384  71.767  54.101 
107.326  72.241  53.418 
106.535  72.686  53.761 
106.015  72.877  50.672 
106.661  73.452  53.669 
106.680  72.577  52.842 
106.404  74.180  54.420 
105.809  77.696  53.918 
105.398  76.079  53.306 
102.872  84.914  52.001 
102.578  85.333  53.477 
101.878  85.779  53.027 
104.481  73.505  43.462 
105.276  81.091  57.889 
103.935  81.732  55.610 
105.518  78.579  53.553 
104.976  81.371  56.702 
101.610  84.461  46.193 
100.348  87.980  53.786 
104.441  78.043  50.050 
96.696  91.160  49.346 
96.180  93.868  54.748 
103.559  83.382  52.381 
103.059  85.941  57.412 
98.137  91.058  51.281 
104.168  81.911  50.586 
93.725  94.175  47.850 
98.868  91.053  59.649 
100.332  88.982  53.364 
101.152  87.070  50.773 
98.560  91.694  60.261 
95.165  95.602  57.574 
96.754  93.071  61.347 
98.727  89.598  49.789 
89.714  99.277  52.351 
94.971  95.021  63.427 
94.934  93.712  48.826 
92.586  97.137  53.856 
94.496  92.904  46.725 
92.246  93.916  45.729 
95.709  94.237  52.296 
96.890  92.478  53.761 
97.622  92.287  54.614 
90.165  98.437  55.216 
95.982  93.335  50.414 
95.119  95.756  58.448 
90.652  98.391  65.281 
87.047  102.192  58.207 
89.154  99.635  51.349 
76.508  107.086  57.193 
87.416  101.520  54.004 
86.659  101.531  61.077 
90.317  99.082  59.368 
84.496  101.850  49.194 
75.958  105.834  51.555 
81.456  104.938  56.023 
81.228  104.641  58.595 
75.747  107.308  59.787 
83.653  104.330  57.308 
75.880  107.034  54.262 
73.279  107.581  53.101 
88.498  100.722  55.668 
76.980  106.804  53.848 
76.716  106.737  59.421 
76.945  106.648  54.388 
72.572  107.697  52.581 
85.571  103.189  54.926 
71.850  108.544  54.868 
73.692  107.680  56.169 
72.264  107.185  51.846 
74.563  106.872  49.481 
67.652  107.405  48.639 
74.236  106.056  46.548 
67.652  107.881  50.279 
66.140  108.199  51.350 
67.419  107.455  50.638 
66.673  107.865  52.181 
65.881  108.285  53.222 
64.538  108.693  53.476 
64.115  108.698  52.983 
63.991  108.699  53.888 
63.305  108.984  54.046 
62.496  109.283  54.290 
61.536  109.430  54.267 
60.919  109.167  54.495 
60.529  108.575  54.324 
61.922  109.792  57.860 
54.654  109.492  56.569 
56.165  109.266  52.002 
55.876  108.852  50.289 
54.914  107.220  46.709 
53.996  109.570  55.498 
53.325  107.978  52.548 
52.525  107.733  49.679 
53.202  108.568  54.623 
55.394  110.247  57.988 
48.840  107.524  55.449 
46.283  106.601  55.940 
48.194  107.747  57.251 
47.370  106.916  58.860 
44.915  105.621  55.896 
46.138  106.013  56.419 
45.045  106.260  57.495 
42.282  105.421  57.444 
41.819  105.364  56.769 
42.637  105.601  56.783 
44.454  105.872  61.081 
41.056  104.417  57.780 
40.989  104.977  56.811 
40.409  104.208  56.510 
39.380  104.368  55.738 
38.651  103.350  56.573 
37.988  103.625  56.916 
36.507  103.322  56.940 
36.314  103.297  56.294 
33.154  102.093  55.483 
35.256  103.342  65.149 
30.163  98.353  50.306 
35.245  102.456  53.245 
30.923  100.991  62.445 
34.974  100.739  49.367 
23.638  94.108  65.237 
29.514  99.092  64.800 
29.959  97.605  47.199 
33.177  101.307  52.790 
31.099  101.321  60.888 
34.751  102.287  55.220 
30.697  98.700  49.564 
23.973  93.805  50.774 
28.568  99.403  60.919 
28.286  98.354  51.835 
20.890  91.709  65.409 
28.045  99.141  61.170 
30.992  100.573  53.977 
32.180  99.689  47.477 
27.427  98.231  57.535 
34.717  102.009  51.824 
32.543  101.763  57.820 
23.260  94.609  57.003 
24.997  95.346  61.712 
25.711  97.013  61.719 
26.176  97.198  56.665 
19.463  88.566  55.254 
20.678  90.419  54.859 
21.274  91.845  54.305 
19.232  88.164  55.576 
18.368  86.356  56.169 
24.195  94.898  57.967 
17.297  84.202  59.026 
17.721  85.377  57.345 
17.925  85.368  58.157 
16.947  83.838  57.123 
16.866  83.262  56.637 
16.701  81.733  57.178 
16.323  81.983  56.931 
15.572  80.626  57.375 
15.900  80.574  57.847 
15.734  79.253  57.106 
15.029  79.141  57.248 
14.624  78.426  58.546 
14.763  77.870  57.846 
14.587  76.872  57.579 
14.423  76.614  58.314 
13.407  75.527  58.263 
13.834  75.562  58.942 
13.673  74.927  57.386 
13.445  74.279  56.206 
13.679  75.101  58.233 
13.102  72.213  55.416 
10.616  62.733  58.137 
12.214  69.599  56.088 
12.931  70.439  52.771 
11.782  65.818  54.866 
12.629  71.652  61.642 
12.868  72.342  65.990 
13.254  71.373  53.395 
11.920  71.795  60.570 
13.260  69.080  53.429 
11.058  64.789  56.680 
10.848  61.855  58.408 
11.521  64.116  55.302 
11.828  64.825  56.419 
11.057  62.312  65.101 
10.669  63.750  65.843 
11.494  67.122  56.029 
11.083  66.313  58.268 
11.365  54.156  52.380 
11.517  52.116  56.838 
9.958  59.494  58.946 
11.305  53.530  60.228 
11.641  63.846  56.681 
11.631  49.817  56.418 
11.833  51.936  52.516 
11.829  50.048  55.258 
11.309  53.684  62.420 
11.978  56.910  50.562 
11.286  51.720  53.754 
12.751  54.689  46.076 
11.735  53.836  63.737 
14.066  44.252  52.138 
12.215  50.653  58.184 
12.187  47.419  54.632 
14.658  40.053  55.342 
12.123  51.751  49.806 
11.604  51.329  53.208 
13.772  43.895  58.638 
16.181  39.642  51.822 
12.232  49.729  54.459 
17.777  35.960  51.689 
13.311  45.750  52.580 
15.774  40.683  52.684 
16.602  34.686  64.029 
18.985  32.351  58.745 
15.268  37.479  59.418 
13.935  45.325  51.455 
15.439  41.973  51.696 
20.371  29.888  53.301 
14.230  40.951  56.300 
20.625  30.150  50.836 
21.116  29.571  53.939 
18.897  31.137  57.087 
25.127  24.694  63.548 
15.800  38.946  53.887 
20.552  30.169  52.281 
21.518  28.390  61.081 
22.214  27.407  63.582 
26.001  23.714  54.962 
14.880  39.643  58.680 
27.405  23.183  54.425 
28.450  20.964  58.485 
22.879  27.128  53.585 
20.928  32.614  48.030 
21.970  28.515  51.424 
24.659  24.524  54.711 
16.946  36.138  56.029 
24.289  26.189  53.054 
24.205  26.378  50.120 
33.706  17.434  54.527 
28.364  23.731  47.039 
36.916  17.872  50.632 
30.119  21.045  62.137 
28.794  22.052  51.001 
26.603  23.289  51.305 
28.655  21.608  58.509 
31.277  19.328  58.325 
30.904  19.282  56.972 
34.881  16.484  58.477 
39.762  15.079  54.109 
34.126  17.191  57.086 
37.542  15.388  55.585 
36.747  17.989  51.421 
33.467  19.282  53.162 
41.491  16.053  49.022 
38.050  17.319  50.280 
45.507  13.584  50.910 
39.569  17.098  50.939 
43.240  14.383  53.249 
47.285  13.408  50.801 
42.265  15.412  51.042 
40.740  14.698  53.832 
44.263  14.406  52.117 
43.754  14.422  51.847 
44.375  13.586  53.920 
46.094  13.886  53.029 
45.944  13.177  54.344 
47.073  13.122  53.478 
47.091  13.282  53.971 
48.048  12.149  54.822 
48.280  12.351  53.613 
48.576  12.561  54.313 
49.796  12.155  54.741 
50.903  11.584  54.672 
52.533  11.786  54.540 
51.754  11.821  55.836 
52.593  11.456  55.826 
52.177  11.440  55.533 
55.380  10.599  53.847 
55.409  10.062  59.484 
55.974  10.130  58.373 
56.096  10.910  57.756 
65.147  11.242  48.094 
71.117  11.499  54.004 
56.918  10.935  53.155 
54.672  10.840  52.401 
51.608  12.575  46.730 
68.432  13.376  42.937 
64.941  11.121  48.906 
62.621  10.786  51.291 
58.746  10.115  51.018 
67.862  11.516  48.836 
70.846  12.015  54.443 
60.457  10.165  54.384 
70.400  13.039  46.289 
70.759  13.573  43.601 
73.561  13.562  50.168 
69.887  12.162  46.424 
71.029  11.519  51.728 
73.974  12.119  54.679 
75.985  14.493  49.553 
78.455  14.468  53.230 
72.938  12.965  53.348 
73.183  12.811  50.024 
76.938  15.256  49.026 
79.007  15.813  50.020 
77.204  15.908  46.501 
77.496  16.895  45.493 
79.111  16.403  49.119 
74.410  14.037  47.868 
76.648  14.791  49.037 
79.203  14.628  55.445 
79.781  16.323  50.711 
81.764  16.836  51.873 
80.331  15.654  52.066 
82.426  17.191  52.497 
81.637  16.373  52.990 
83.410  18.003  53.257 
83.647  17.378  54.283 
84.799  18.511  52.802 
84.672  18.787  50.929 
85.781  20.101  51.293 
85.283  19.599  52.126 
87.389  21.124  51.579 
87.752  21.858  52.069 
88.221  21.790  51.812 
88.809  22.171  52.248 
89.462  23.482  51.895 
90.974  24.212  51.289 
90.742  24.255  53.412 
91.970  24.465  53.299 
91.363  24.303  52.648 
91.939  25.512  51.955 
91.900  25.877  50.795 
93.354  26.475  50.746 
93.349  27.957  50.238 
92.154  24.173  55.578 
94.779  27.400  50.801 
95.300  27.226  53.579 
98.759  30.551  55.220 
96.465  30.271  50.497 
96.263  29.861  48.793 
95.111  27.848  52.479 
95.601  28.491  52.058 
97.006  29.918  51.376 
96.728  28.773  52.401 
102.427  33.833  62.232 
96.459  32.414  46.838 
98.587  33.243  49.141 
100.845  33.973  52.270 
98.649  31.114  52.015 
101.698  34.575  53.663 
100.921  31.719  57.908 
100.488  35.942  49.475 
103.751  37.448  57.434 
101.050  32.272  55.399 
102.994  36.195  55.969 
103.557  35.774  59.052 
103.279  40.418  51.640 
104.399  41.836  52.436 
104.269  41.194  52.834 
105.611  43.530  53.338 
105.419  44.530  52.035 
104.323  42.260  51.567 
106.111  46.028  54.369 
106.186  44.235  55.670 
105.616  43.995  52.600 
106.234  44.611  54.859 
105.410  45.224  52.891 
106.067  47.119  53.151 
106.512  48.004  53.717 
107.019  48.829  53.945 
107.640  49.700  55.201 
107.570  49.793  54.172 
107.654  50.424  53.971 
108.021  51.733  54.627 
107.960  51.424  55.405 
108.220  52.774  54.689 
108.807  53.546  56.995 
109.434  57.209  57.497 
109.469  60.603  55.910 
109.630  58.050  56.375 
108.498  55.627  52.653 
109.445  55.787  54.838 
109.332  58.151  55.049 
109.137  61.616  64.091 
108.722  54.636  61.910 
108.613  60.873  52.970 
108.614  61.637  53.144 
108.671  62.448  52.657 
108.306  63.837  53.004 
107.002  67.929  48.530 
107.208  66.978  51.095 
108.163  65.468  53.242 
107.860  66.169  53.184 
108.087  67.786  53.861 
108.027  67.702  53.271 
108.123  68.465  53.720 
107.684  68.963  53.412 
107.656  69.557  53.990 
107.159  71.341  53.175 
106.864  70.943  53.658 
107.269  71.760  53.615 
107.051  73.054  53.408 
103.647  77.649  46.281 
106.076  75.385  53.186 
103.023  79.166  44.644 
105.963  75.303  55.474 
104.087  82.943  57.452 
106.159  74.978  52.585 
102.185  87.486  60.840 
105.877  76.523  58.199 
104.811  79.706  50.798 
100.983  87.976  53.874 
104.577  81.738  52.869 
102.676  83.934  54.332 
104.495  77.729  47.461 
99.354  84.794  41.204 
104.327  81.162  54.076 
101.449  85.849  50.667 
102.893  84.670  53.996 
104.128  78.382  47.466 
105.176  77.178  53.767 
101.454  85.977  48.100 
89.535  99.741  54.596 
93.495  96.608  61.186 
101.623  86.883  53.756 
97.039  92.915  51.103 
96.676  93.389  52.556 
97.011  89.207  43.644 
95.840  94.897  58.354 
94.891  91.549  45.933 
99.499  89.924  56.287 
92.275  97.368  50.954 
93.956  95.332  62.955 
94.647  94.922  50.654 
92.668  97.058  55.998 
83.266  103.086  48.654 
94.012  94.929  49.612 
93.738  93.541  46.662 
93.150  93.768  47.464 
93.179  96.079  53.105 
88.265  99.685  50.717 
86.918  99.632  46.899 
92.485  97.250  51.960 
88.664  100.015  61.284 
90.141  98.757  50.993 
92.492  96.640  49.231 
90.260  99.548  57.182 
89.827  99.622  55.939 
88.959  99.878  55.465 
87.772  101.666  55.811 
77.300  106.136  54.304 
88.446  101.114  54.899 
86.599  102.286  57.935 
82.767  103.949  51.011 
79.673  105.746  58.935 
81.646  105.085  57.896 
71.360  107.159  49.297 
79.045  103.402  46.587 
73.510  106.955  51.331 
80.571  105.448  53.275 
71.572  108.679  56.228 
73.936  105.665  46.175 
87.600  101.335  53.454 
72.268  107.002  49.232 
71.719  105.173  43.886 
71.573  107.899  53.950 
69.056  106.872  49.629 
71.852  106.902  50.466 
65.911  107.458  49.512 
67.486  106.390  44.743 
66.314  108.097  50.509 
73.849  106.412  47.877 
69.977  107.602  53.333 
67.397  108.008  51.166 
65.330  108.313  52.101 
66.036  107.787  51.888 
65.055  108.497  52.918 
63.757  108.752  52.579 
63.614  108.459  53.366 
63.270  109.019  53.198 
61.719  108.756  53.124 
61.749  109.060  53.915 
60.020  109.204  54.529 
59.043  109.598  57.191 
55.664  110.037  58.815 
58.369  108.613  52.524 
59.211  108.852  53.318 
50.680  109.066  61.563 
54.053  107.404  47.818 
55.976  107.843  48.716 
55.040  108.090  48.884 
49.866  106.494  50.429 
54.758  109.456  53.772 
50.518  107.215  50.672 
46.432  106.571  57.729 
50.402  107.525  52.971 
50.073  108.181  57.154 
46.124  106.680  56.763 
46.933  106.436  56.237 
46.866  106.821  57.205 
43.733  106.053  55.667 
45.386  106.251  54.604 
43.100  105.547  55.084 
42.618  105.464  55.747 
41.854  105.164  55.785 
41.293  104.858  56.350 
43.276  105.070  55.705 
41.315  104.392  56.263 
39.841  104.091  56.859 
37.707  103.570  56.470 
36.801  103.328  56.109 
37.317  103.448  55.251 
36.211  103.399  55.392 
35.698  102.254  55.740 
33.707  101.067  52.021 
35.748  101.842  50.888 
28.250  98.841  59.988 
33.668  102.200  58.051 
36.289  103.154  64.287 
28.231  98.815  62.112 
32.077  100.827  53.782 
34.635  101.726  68.845 
35.254  102.483  57.995 
25.582  96.712  59.987 
25.586  94.075  46.553 
31.164  100.621  52.561 
27.304  97.796  52.211 
29.762  100.103  62.896 
32.783  100.348  49.453 
30.118  99.865  52.862 
28.982  99.043  53.396 
18.601  88.582  63.991 
25.520  96.810  60.740 
27.712  98.785  60.153 
27.876  97.821  62.170 
27.564  98.816  58.496 
30.769  100.267  55.740 
29.975  99.172  52.178 
19.613  89.072  56.476 
26.532  97.543  55.459 
18.690  86.143  52.490 
19.123  87.729  54.740 
19.919  89.510  53.269 
18.333  86.713  57.258 
18.628  85.784  53.793 
19.194  88.834  58.468 
17.267  84.823  58.503 
17.504  84.573  57.030 
17.535  84.760  57.713 
17.540  83.028  56.427 
16.682  82.785  57.000 
16.934  81.657  56.269 
16.084  81.374  56.469 
15.683  80.526  56.622 
15.730  80.077  56.435 
15.672  79.402  56.078 
15.113  78.818  56.586 
14.863  78.194  57.050 
14.554  77.328  56.643 
13.765  76.302  57.737 
13.666  74.579  56.686 
14.150  76.054  57.446 
13.371  75.324  57.215 
13.222  74.701  58.056 
13.168  74.207  57.394 
13.152  72.940  56.325 
13.326  72.230  54.601 
13.981  71.489  51.127 
14.209  72.400  51.578 
13.581  74.693  59.513 
13.152  73.370  57.508 
12.076  65.653  53.455 
12.236  67.825  53.863 
10.665  65.927  59.008 
11.943  67.381  56.827 
10.493  60.779  56.766 
12.513  68.039  54.549 
10.067  62.079  61.146 
12.322  70.548  60.421 
11.750  69.101  61.243 
10.890  57.185  53.919 
10.712  67.829  61.250 
10.649  58.319  61.762 
11.577  56.790  51.316 
10.851  59.943  58.190 
11.684  53.537  58.723 
10.857  56.059  55.532 
11.065  56.453  58.508 
10.770  58.695  61.990 
12.497  50.680  59.450 
11.492  51.763  62.370 
12.087  49.256  53.898 
13.182  55.113  45.440 
11.640  52.242  61.303 
11.266  52.669  53.785 
10.810  54.016  56.539 
14.272  43.793  51.406 
11.962  50.061  53.660 
13.642  41.525  56.453 
11.977  52.927  51.768 
14.149  42.020  59.156 
12.054  49.636  51.833 
14.734  40.040  56.016 
13.073  46.154  58.307 
17.842  37.156  50.299 
16.092  40.386  53.364 
13.521  42.861  54.746 
14.207  40.307  59.050 
15.578  40.267  54.791 
16.358  36.823  58.948 
15.129  41.318  53.017 
15.342  38.565  56.412 
16.124  36.282  58.216 
19.805  30.215  55.428 
16.429  39.247  51.332 
16.886  34.324  62.051 
19.096  34.846  49.950 
19.292  31.776  54.095 
18.168  35.362  53.434 
23.540  28.923  45.654 
25.506  27.331  45.337 
20.478  31.398  50.829 
23.515  27.990  46.456 
22.983  27.754  48.010 
21.009  27.852  58.049 
25.529  24.964  52.443 
26.634  24.188  49.890 
30.708  20.070  57.225 
22.673  27.056  54.302 
27.611  22.139  55.155 
28.375  21.487  54.221 
26.332  23.445  55.305 
23.276  26.117  58.582 
32.624  20.136  51.583 
31.162  19.903  56.420 
30.508  22.487  48.782 
32.279  19.769  51.646 
26.052  23.616  54.062 
34.973  16.568  57.243 
32.245  20.180  50.376 
30.736  19.506  58.623 
33.452  18.717  52.459 
32.195  18.287  54.984 
37.292  15.619  58.908 
31.505  19.657  55.249 
35.257  17.190  53.393 
37.512  15.382  60.927 
29.025  23.654  47.215 
37.775  15.342  55.038 
39.712  16.365  50.873 
44.958  15.391  46.253 
39.370  17.149  51.509 
41.993  14.530  54.410 
43.882  14.691  51.105 
46.645  13.813  51.262 
41.468  15.185  51.757 
41.714  15.039  53.487 
42.491  14.271  53.656 
44.919  14.243  52.901 
45.138  13.633  53.214 
45.870  13.019  53.468 
46.386  12.950  52.880 
47.235  12.569  52.917 
47.916  13.134  53.133 
47.802  12.798  54.032 
48.978  12.361  53.570 
49.484  12.169  52.898 
50.099  11.791  53.376 
50.234  11.504  54.781 
51.652  11.650  54.170 
50.377  11.898  54.135 
53.169  11.069  56.293 
53.467  10.984  56.782 
52.976  11.302  55.297 
56.022  11.103  54.612 
59.355  10.303  50.249 
58.901  9.644  58.547 
56.585  10.537  54.504 
59.756  9.844  57.386 
57.169  10.675  52.460 
61.703  10.493  52.248 
51.713  11.584  52.759 
61.105  10.847  49.642 
60.525  10.214  52.880 
63.842  10.599  56.526 
57.308  13.653  39.798 
61.954  13.149  42.380 
56.364  10.466  56.540 
65.318  11.085  49.750 
62.399  10.576  49.020 
62.368  11.759  44.858 
73.622  13.014  50.869 
64.796  11.409  50.342 
61.437  11.614  45.017 
75.531  14.036  50.338 
75.217  14.263  53.755 
76.884  15.318  47.872 
75.042  11.849  62.116 
78.481  14.676  51.772 
80.340  18.038  48.120 
76.371  14.180  51.434 
78.634  16.316  47.781 
77.905  14.658  51.312 
78.376  15.892  50.388 
80.614  16.590  50.190 
81.264  17.264  49.890 
79.466  15.779  50.823 
79.940  17.666  45.881 
82.281  16.671  51.741 
82.930  17.617  51.450 
82.183  16.771  52.695 
82.332  16.745  53.252 
85.097  19.039  51.727 
85.097  19.190  51.250 
83.771  18.172  51.446 
84.284  18.192  51.551 
86.371  20.819  51.540 
86.245  20.233  50.917 
86.456  21.105  50.747 
88.866  22.145  51.513 
88.169  21.588  52.574 
89.351  22.680  51.870 
89.781  23.258  51.576 
90.072  23.945  52.220 
90.288  23.793  51.164 
90.883  23.966  52.131 
91.711  25.275  49.711 
91.664  25.551  50.516 
91.831  25.929  49.401 
93.018  26.622  49.242 
96.894  30.343  49.634 
93.788  28.411  47.279 
92.465  27.896  47.482 
92.495  25.954  49.573 
94.006  27.447  49.793 
92.798  25.382  51.998 
95.853  28.507  51.318 
95.196  29.026  48.647 
97.741  31.945  48.890 
98.316  31.933  49.624 
98.361  31.428  50.036 
95.243  29.123  50.353 
98.558  30.693  53.207 
99.284  35.612  46.817 
100.184  34.641  50.038 
101.437  38.452  50.565 
102.028  37.461  52.926 
103.311  38.315  53.975 
103.360  37.958  55.487 
101.244  35.626  50.712 
102.764  36.268  54.980 
103.297  39.811  52.346 
102.788  40.219  51.777 
103.867  40.537  52.333 
103.851  40.823  53.661 
103.790  41.673  50.792 
103.265  42.420  51.206 
104.987  43.970  51.406 
105.617  44.670  54.314 
104.308  42.581  51.968 
104.709  44.344  51.541 
103.743  42.113  49.533 
105.263  43.672  51.939 
104.956  45.204  52.154 
106.600  46.749  53.332 
106.599  47.735  52.759 
106.831  47.513  53.468 
107.150  49.699  54.416 
106.538  49.432  53.687 
107.024  50.123  53.640 
107.176  50.686  54.903 
107.819  52.051  54.258 
107.779  53.086  54.599 
108.821  53.619  55.225 
107.789  54.029  52.284 
109.234  61.024  55.227 
109.410  59.560  61.804 
109.370  57.134  56.160 
107.841  55.993  49.725 
109.048  65.015  65.226 
108.906  55.599  59.200 
109.596  55.668  55.377 
108.604  59.735  50.458 
107.840  54.099  53.195 
107.224  64.632  51.121 
107.854  64.818  51.773 
108.331  64.717  53.506 
106.589  69.075  48.028 
107.766  67.229  51.917 
107.970  65.504  52.433 
107.416  66.871  52.979 
107.802  67.419  52.821 
107.458  68.226  53.346 
107.086  68.973  53.354 
107.300  70.373  53.210 
107.365  69.893  52.840 
106.716  71.534  52.903 
107.047  72.020  52.819 
106.884  72.090  52.049 
106.545  74.792  53.593 
105.618  72.852  48.441 
105.968  76.110  53.282 
103.466  82.688  49.480 
102.006  84.250  47.585 
103.905  81.204  49.594 
102.129  86.048  55.138 
105.803  76.835  54.975 
106.269  76.017  55.168 
101.559  82.470  43.984 
101.157  85.730  51.939 
99.782  89.314  52.253 
103.352  85.182  61.288 
99.444  90.168  52.052 
103.630  80.746  46.615 
99.640  78.398  38.252 
97.175  93.401  54.938 
97.354  92.778  51.692 
97.956  89.369  47.034 
100.108  89.556  59.502 
96.883  93.251  62.071 
104.837  81.704  60.745 
99.473  88.377  50.486 
88.652  100.981  57.482 
99.543  90.173  53.558 
93.251  96.663  52.428 
97.506  92.101  54.074 
97.048  91.189  49.857 
92.625  97.599  58.976 
94.762  95.228  51.949 
94.844  92.171  46.295 
102.191  86.044  58.191 
100.206  88.805  52.529 
93.640  95.667  51.048 
88.396  98.578  47.678 
96.678  93.352  51.661 
91.832  97.708  52.187 
90.069  99.113  51.327 
92.567  95.862  49.497 
92.583  95.711  47.399 
91.423  97.857  52.981 
86.980  101.593  50.672 
91.370  98.514  56.466 
91.747  98.118  56.516 
87.430  101.522  51.655 
92.504  97.701  58.157 
91.888  98.062  61.504 
82.485  102.321  46.910 
88.308  101.113  59.238 
74.841  107.539  52.973 
81.771  104.440  51.885 
85.571  102.005  52.161 
85.205  102.946  56.361 
78.687  104.318  47.884 
96.808  94.240  57.452 
81.988  104.588  60.523 
87.361  101.205  50.875 
82.643  104.420  56.517 
70.240  108.105  53.243 
76.452  106.444  51.313 
82.645  102.617  47.908 
76.059  106.430  59.511 
70.299  107.848  52.510 
77.644  106.397  55.688 
78.282  106.273  55.493 
68.365  106.891  47.610 
67.185  107.362  47.427 
69.341  107.312  49.793 
67.481  107.559  49.430 
66.622  107.472  50.751 
68.047  107.866  51.101 
66.117  107.660  50.560 
65.384  108.241  50.827 
64.802  108.072  52.290 
64.673  108.570  51.602 
63.720  108.180  52.325 
63.060  108.690  52.457 
62.387  108.551  52.794 
62.354  108.924  53.207 
61.419  109.007  53.383 
60.446  109.043  53.027 
59.364  108.896  54.121 
61.556  109.286  55.545 
57.832  109.358  53.151 
55.872  109.543  51.300 
60.439  109.883  55.447 
55.135  110.072  61.327 
56.786  108.038  48.491 
49.600  106.202  49.738 
50.761  105.682  46.118 
54.866  107.368  47.358 
49.338  106.894  50.237 
50.127  107.803  55.724 
49.950  108.383  61.132 
53.914  108.258  50.655 
