42.579  105.695  67.914 
50.153  108.647  68.737 
34.706  99.092  79.880 
43.753  104.156  77.552 
43.295  105.208  73.245 
35.661  101.920  70.522 
28.877  94.413  78.533 
34.294  96.746  82.384 
29.068  97.072  71.627 
28.200  97.081  72.906 
29.473  96.010  76.656 
35.929  100.131  77.904 
29.192  98.584  67.018 
22.969  91.749  71.914 
29.277  97.893  70.033 
31.161  98.823  71.494 
24.568  94.992  65.752 
21.738  89.317  74.473 
31.564  99.047  72.392 
21.401  91.690  67.102 
27.699  98.369  65.878 
26.582  95.457  72.196 
25.834  94.189  73.979 
21.470  86.065  78.730 
19.644  88.582  70.159 
19.898  89.622  67.999 
23.425  90.976  75.219 
24.598  86.424  83.108 
17.907  85.587  70.509 
21.578  85.295  80.906 
27.277  97.177  67.677 
19.517  88.302  68.951 
23.457  87.947  80.736 
18.380  85.503  72.404 
22.024  86.674  78.270 
19.123  85.507  74.937 
19.831  86.299  75.296 
19.871  84.463  78.655 
15.653  81.724  69.679 
16.594  82.593  70.794 
19.800  84.054  78.190 
17.438  83.822  71.459 
17.836  83.734  74.306 
17.112  82.302  73.487 
15.454  78.462  73.897 
16.907  80.016  76.053 
14.671  73.900  74.656 
17.908  80.862  76.365 
14.380  75.791  72.550 
14.447  73.488  76.182 
11.538  70.248  68.988 
13.868  70.183  75.173 
13.938  70.450  76.913 
13.069  71.348  69.134 
12.528  68.163  73.518 
12.397  69.314  72.216 
11.211  69.513  63.958 
11.508  69.451  68.798 
11.918  69.734  70.533 
11.992  68.160  71.331 
12.931  61.904  77.070 
11.976  71.295  67.924 
11.252  60.828  68.616 
13.504  57.828  78.128 
11.918  63.141  72.858 
11.560  61.348  70.921 
10.763  59.467  68.125 
11.459  59.123  68.571 
12.706  61.172  76.015 
14.258  52.898  79.251 
11.804  54.813  70.202 
12.715  54.876  74.089 
15.103  53.396  80.216 
14.560  48.919  76.533 
13.424  53.289  71.648 
12.909  53.096  74.008 
13.536  52.009  76.064 
13.793  49.895  73.757 
14.384  46.579  72.835 
13.314  49.860  70.497 
13.559  47.288  70.868 
15.754  42.135  75.843 
14.306  52.127  79.161 
14.432  45.249  70.588 
15.125  45.345  74.026 
15.615  40.644  68.902 
15.923  39.481  69.798 
13.947  47.341  72.625 
16.452  41.990  78.366 
18.187  38.296  78.717 
16.811  36.807  68.638 
14.403  39.358  61.016 
15.844  40.287  74.161 
15.752  39.161  65.937 
14.842  41.235  70.191 
18.676  37.035  78.610 
14.337  42.649  67.236 
15.831  39.542  74.383 
15.707  38.531  66.600 
15.494  43.673  74.042 
16.954  35.461  70.880 
22.114  34.781  81.614 
14.606  44.199  72.592 
17.418  36.115  68.116 
15.173  41.780  72.876 
20.681  35.519  80.161 
18.320  37.356  78.117 
18.288  33.648  71.288 
15.302  39.819  66.610 
21.398  33.540  78.749 
16.797  36.195  70.425 
23.906  27.816  71.918 
22.104  29.396  72.316 
24.916  28.607  77.156 
26.191  24.463  65.240 
26.667  25.403  68.106 
29.263  23.429  68.445 
29.341  24.152  71.026 
27.772  25.364  71.976 
30.812  21.549  69.370 
28.621  23.481  69.329 
30.156  22.618  70.682 
30.168  22.223  69.484 
30.041  23.202  70.142 
29.781  22.969  71.932 
33.176  19.167  68.497 
33.060  20.866  69.475 
33.559  19.976  69.337 
34.766  19.950  70.780 
35.031  19.021  71.133 
35.277  18.358  70.040 
35.991  18.000  70.811 
36.423  17.624  70.870 
36.637  17.212  70.236 
37.361  16.809  69.874 
39.787  15.267  69.733 
38.680  16.058  69.322 
39.067  15.899  70.026 
37.263  17.261  71.679 
44.035  14.730  75.756 
40.843  14.182  66.350 
41.771  14.341  70.382 
38.970  17.095  72.303 
41.102  14.842  69.496 
46.581  12.445  73.140 
44.238  17.556  82.692 
41.912  15.644  71.722 
44.884  13.905  74.409 
41.140  14.473  68.056 
48.319  10.861  66.405 
44.939  15.778  78.337 
45.956  12.196  68.001 
47.480  13.114  73.497 
48.430  15.457  82.003 
44.996  12.552  63.675 
53.296  10.020  68.266 
44.372  14.139  74.947 
54.825  10.192  58.942 
54.776  10.560  66.925 
47.441  11.323  65.065 
50.627  10.673  65.369 
57.205  11.557  73.583 
59.979  10.220  65.864 
52.739  12.659  76.259 
64.400  11.838  73.849 
60.348  10.770  70.574 
67.126  11.016  67.603 
63.509  10.697  68.542 
60.637  10.405  68.730 
63.047  10.810  68.783 
66.862  10.862  66.637 
66.726  11.210  70.012 
67.335  12.063  72.046 
65.561  11.658  69.259 
67.552  11.013  66.027 
68.638  11.526  67.765 
71.290  12.238  67.806 
68.106  12.031  71.559 
71.024  11.270  63.746 
68.612  13.629  76.821 
78.458  13.684  64.099 
68.924  10.789  63.778 
70.248  11.313  59.783 
71.732  11.709  65.934 
76.502  14.540  74.549 
74.623  12.862  70.519 
79.066  15.470  74.178 
77.378  13.473  62.961 
75.722  14.255  74.309 
77.778  13.367  65.128 
73.014  11.617  58.283 
79.309  14.048  64.323 
72.416  11.728  63.910 
77.697  13.677  69.374 
77.207  14.052  70.191 
77.257  12.751  63.494 
77.682  15.223  74.051 
88.006  19.421  71.387 
80.142  17.433  77.579 
78.843  14.659  72.077 
82.306  15.282  69.024 
85.395  21.270  80.799 
83.001  16.275  71.464 
84.031  16.989  65.551 
85.402  17.644  70.483 
87.787  19.567  70.648 
88.898  20.364  71.265 
81.656  15.752  65.198 
87.070  20.760  76.777 
90.836  21.380  66.483 
91.775  21.614  68.681 
84.131  17.843  73.452 
93.838  23.832  66.598 
91.096  22.006  63.570 
90.528  20.957  70.297 
94.374  23.962  67.612 
92.802  22.717  63.769 
95.066  25.748  73.948 
93.703  23.185  67.322 
100.688  31.866  67.791 
91.712  21.961  66.549 
98.507  28.153  68.246 
100.731  31.756  56.445 
99.045  31.554  73.597 
100.402  30.465  64.085 
98.664  30.581  73.040 
101.300  32.662  68.906 
99.643  32.920  75.013 
99.372  29.751  69.252 
100.303  32.183  72.813 
101.216  33.569  72.250 
100.943  37.410  78.281 
101.527  36.428  75.619 
106.288  43.276  71.533 
101.295  41.106  79.206 
99.680  32.056  73.266 
106.429  46.834  72.718 
104.109  39.766  72.803 
104.249  37.634  62.432 
101.656  35.016  70.952 
104.388  37.372  67.485 
104.372  44.778  76.054 
104.305  42.808  75.188 
107.131  44.367  68.168 
103.467  35.922  65.600 
106.106  44.127  65.245 
109.498  56.636  60.068 
106.045  42.052  70.220 
105.826  47.730  75.295 
105.270  48.741  76.488 
106.192  43.582  72.173 
108.445  60.215  72.509 
105.528  50.968  75.883 
108.783  57.756  67.626 
109.750  58.133  64.446 
109.505  55.622  64.959 
106.936  46.783  68.975 
108.924  55.405  66.449 
109.464  61.164  55.040 
108.436  55.337  72.132 
109.274  57.317  61.621 
107.199  49.406  67.048 
108.927  69.033  66.152 
109.341  66.980  70.132 
109.736  60.283  56.916 
108.988  57.516  66.594 
109.468  65.247  61.710 
109.249  60.570  52.809 
108.080  71.594  63.757 
107.903  66.114  74.165 
108.363  62.417  74.052 
106.635  74.977  70.173 
106.972  67.298  77.310 
108.219  69.492  70.552 
108.508  66.943  66.711 
108.202  67.820  71.976 
105.365  68.695  78.418 
106.162  71.324  75.263 
106.700  78.555  61.604 
107.534  73.867  70.788 
108.565  68.043  67.434 
104.435  77.776  71.544 
108.711  71.109  67.549 
107.991  60.745  72.990 
104.165  79.289  72.012 
107.628  76.056  64.861 
104.863  76.378  74.060 
106.553  71.195  74.345 
105.096  76.355  72.424 
104.397  79.161  70.719 
103.020  80.483  71.564 
104.626  78.765  69.299 
103.870  81.230  69.168 
103.101  81.465  71.608 
100.541  85.882  70.001 
101.106  84.705  71.221 
100.177  85.136  72.063 
101.946  83.855  69.803 
99.605  85.698  72.429 
103.854  81.856  68.314 
98.805  87.096  71.959 
98.290  86.757  72.617 
103.163  82.546  69.383 
99.662  90.296  57.182 
99.345  87.189  71.278 
99.284  87.043  70.577 
95.105  91.991  71.470 
95.069  90.833  72.396 
94.736  92.212  71.020 
95.693  92.011  70.172 
98.872  89.610  66.255 
96.096  90.610  71.224 
92.690  94.445  70.962 
92.355  94.012  71.693 
91.898  95.320  70.447 
91.869  94.066  72.250 
89.901  97.215  70.880 
90.519  96.004  71.989 
90.034  95.961  72.623 
89.948  96.660  71.416 
90.262  96.800  70.564 
90.112  97.932  68.455 
89.381  97.954  71.594 
87.263  100.636  68.619 
84.499  100.150  75.860 
85.922  100.970  70.886 
87.648  98.627  72.412 
86.557  100.906  70.330 
80.569  103.114  74.179 
86.018  99.910  74.202 
85.494  99.860  74.652 
82.382  102.494  73.026 
86.922  98.178  76.666 
84.104  100.703  75.274 
86.582  100.006  73.712 
79.632  103.558  70.554 
81.271  102.897  70.546 
88.416  98.968  68.862 
75.298  105.181  70.910 
76.972  104.604  69.388 
74.907  106.122  69.662 
75.056  105.764  69.003 
72.439  106.415  69.550 
68.841  108.718  65.539 
74.024  106.564  69.369 
73.519  107.136  67.263 
66.409  109.457  64.756 
68.571  107.807  67.684 
71.254  108.002  65.192 
71.059  106.736  68.685 
72.694  106.144  72.219 
66.270  106.107  76.432 
64.155  105.714  77.910 
70.015  107.354  69.047 
63.727  109.826  64.877 
62.014  109.181  69.607 
56.908  109.971  58.202 
57.718  106.577  76.841 
67.354  107.953  72.385 
62.316  108.603  72.187 
59.325  109.709  66.109 
66.364  104.716  78.615 
60.795  107.043  75.436 
57.409  107.969  72.983 
61.150  109.446  68.170 
57.323  108.729  69.438 
67.059  107.007  75.877 
57.005  106.961  74.539 
58.930  109.739  66.991 
54.584  108.044  71.841 
49.623  104.002  80.938 
56.543  109.229  62.587 
51.913  108.737  67.363 
58.302  107.180  76.290 
52.130  107.172  73.655 
56.846  109.487  67.164 
50.197  108.648  62.692 
49.012  106.452  73.237 
40.718  105.083  66.423 
43.157  106.026  69.813 
48.887  108.572  63.165 
48.347  102.126  83.481 
39.269  102.822  74.769 
47.465  106.714  71.595 
41.772  104.343  69.385 
40.712  103.194  75.759 
47.807  107.586  69.081 
45.246  106.106  71.103 
42.038  103.617  76.629 
39.769  100.270  80.710 
43.564  102.600  79.647 
36.552  100.345  78.958 
39.252  103.386  73.017 
38.125  101.854  75.489 
37.246  101.677  76.256 
38.298  103.059  71.853 
33.050  99.248  75.699 
35.681  98.335  81.695 
37.925  103.437  70.656 
34.019  99.247  78.728 
37.194  100.911  78.005 
33.378  98.912  76.620 
27.162  96.265  72.097 
25.266  93.316  73.822 
31.104  98.354  73.062 
29.350  96.893  74.543 
28.706  97.024  70.906 
23.891  91.311  73.953 
22.310  91.834  69.778 
21.727  88.355  75.769 
26.211  95.196  69.805 
27.914  97.685  68.588 
23.301  89.191  78.241 
21.742  91.864  67.731 
23.470  92.144  70.224 
21.803  88.822  75.550 
24.594  89.892  79.697 
24.366  91.200  76.791 
28.909  97.289  72.412 
18.706  84.744  74.216 
19.369  86.197  74.159 
17.796  86.136  67.717 
19.927  85.854  75.658 
27.166  93.429  77.509 
25.179  95.309  67.694 
17.964  84.649  72.851 
16.967  83.194  69.958 
15.757  82.184  66.771 
19.045  81.762  78.192 
15.739  78.837  73.581 
19.253  83.364  78.538 
16.737  80.745  74.900 
21.881  85.767  80.446 
16.305  79.769  72.838 
15.124  78.153  73.281 
15.973  75.735  76.305 
16.273  78.187  76.638 
17.539  81.873  74.726 
17.166  79.185  76.084 
12.130  64.524  72.577 
11.146  64.869  70.107 
13.431  70.137  73.154 
13.513  73.515  72.629 
15.530  68.652  80.868 
11.431  68.970  70.564 
11.720  66.205  71.689 
11.066  69.086  63.307 
13.013  68.542  75.505 
13.079  69.365  74.125 
11.969  69.755  68.625 
10.561  58.944  64.712 
11.130  63.511  68.708 
11.866  64.395  72.042 
11.282  64.448  70.809 
12.722  57.451  76.087 
12.709  56.759  75.468 
10.549  62.241  67.384 
11.499  61.852  71.618 
11.312  61.206  71.956 
13.655  50.643  73.560 
13.693  52.630  78.622 
12.360  59.161  73.119 
12.430  52.489  70.483 
14.458  45.326  74.716 
12.808  55.874  74.064 
14.541  47.461  73.255 
13.948  46.076  70.268 
13.118  50.481  71.500 
14.159  47.004  75.618 
17.055  43.863  80.706 
14.049  51.528  76.698 
13.805  47.117  68.036 
14.669  46.205  73.838 
14.419  45.013  72.182 
13.881  46.533  72.817 
15.885  44.623  79.852 
15.044  44.879  71.685 
14.067  45.579  69.139 
14.423  46.142  72.407 
13.024  46.405  64.611 
14.221  42.808  66.322 
14.730  40.587  62.754 
15.287  41.856  75.893 
16.504  37.465  71.400 
16.457  36.525  65.533 
14.745  41.931  69.692 
18.846  33.385  71.853 
18.510  33.452  70.432 
16.341  38.090  73.046 
15.343  45.265  78.088 
16.203  38.740  74.358 
23.156  25.859  63.279 
19.476  32.224  69.653 
17.949  33.184  64.072 
22.622  34.829  80.885 
19.361  34.564  72.590 
17.556  35.761  71.366 
20.842  30.686  71.447 
23.639  27.134  67.133 
17.308  35.164  66.386 
22.906  26.878  65.355 
20.569  31.385  73.021 
23.641  26.381  66.927 
19.101  35.321  75.948 
18.195  33.095  63.646 
26.735  24.892  69.460 
27.183  23.765  66.619 
26.734  24.620  66.462 
28.177  24.166  69.714 
27.387  25.248  70.781 
29.956  22.818  67.994 
30.649  21.837  69.891 
27.208  23.293  60.784 
26.665  24.865  68.398 
31.554  21.668  71.373 
31.107  21.886  69.768 
33.041  19.836  68.995 
32.783  19.422  68.128 
33.531  19.555  70.262 
34.198  19.376  70.462 
34.677  18.785  70.011 
36.114  18.226  70.106 
35.876  17.558  69.116 
36.258  17.694  69.660 
37.223  17.592  69.452 
38.066  16.808  69.531 
38.024  16.250  68.673 
40.139  16.272  71.867 
39.579  16.454  70.333 
38.648  16.838  71.622 
40.236  16.055  72.383 
40.842  19.221  82.750 
39.116  16.883  73.106 
41.014  18.620  81.271 
45.610  13.574  74.196 
41.127  15.357  71.813 
45.014  12.954  69.192 
47.029  11.782  64.409 
43.692  13.772  72.591 
42.579  13.226  63.920 
52.088  12.263  73.567 
53.285  10.040  60.427 
45.821  13.639  72.392 
44.609  12.907  70.029 
48.460  11.587  69.014 
48.942  11.193  67.913 
46.494  12.473  69.474 
54.531  9.951  66.368 
56.797  10.140  59.346 
59.716  10.963  71.846 
53.773  10.348  64.785 
52.492  10.541  69.760 
54.731  10.247  63.851 
59.599  9.962  66.553 
64.358  12.260  75.464 
57.359  13.002  77.078 
58.865  10.655  70.892 
62.708  10.847  69.750 
61.902  10.922  69.470 
70.027  11.657  67.825 
67.212  11.819  68.069 
65.502  10.939  65.217 
66.615  11.350  66.027 
67.338  11.509  70.590 
69.360  11.389  67.319 
64.825  10.738  68.572 
68.830  11.559  68.484 
68.379  11.223  67.152 
68.657  11.366  64.228 
67.622  12.018  67.217 
74.893  13.696  70.750 
77.608  14.919  72.201 
74.883  14.079  74.893 
75.479  12.525  59.698 
81.731  16.842  74.015 
74.111  11.484  59.008 
77.769  13.410  65.915 
76.678  12.914  62.514 
79.908  14.693  69.645 
81.481  16.740  74.439 
83.194  16.466  65.977 
74.925  13.950  74.426 
83.352  16.575  63.502 
83.913  17.124  63.823 
80.420  15.089  59.594 
84.032  16.504  70.172 
81.405  16.238  73.453 
80.975  15.594  60.740 
77.955  14.381  72.536 
88.766  20.200  72.240 
73.534  14.549  77.343 
76.424  13.537  70.242 
88.313  18.833  66.552 
85.842  18.106  64.069 
91.494  22.217  61.600 
91.251  22.614  59.686 
92.936  23.027  69.634 
91.254  21.560  67.474 
90.729  22.702  76.051 
87.501  18.993  68.431 
86.061  17.958  69.237 
88.435  21.130  76.034 
94.518  24.251  70.620 
84.617  18.206  75.326 
91.863  22.458  70.336 
97.484  28.493  70.385 
98.382  28.748  70.733 
101.091  31.411  60.093 
101.102  31.195  62.494 
93.206  23.316  71.567 
96.101  25.348  63.486 
104.293  38.427  60.945 
100.987  31.823  57.894 
98.877  29.135  66.643 
101.630  32.730  66.720 
97.333  27.327  57.551 
96.527  26.336  62.108 
103.187  34.523  61.652 
99.528  29.470  63.712 
101.802  33.640  66.733 
98.612  41.314  83.764 
104.668  38.349  62.217 
104.646  39.840  68.684 
104.577  40.098  71.685 
101.667  33.054  65.576 
99.416  29.804  67.248 
103.222  41.250  76.503 
102.568  39.045  74.089 
102.711  36.039  69.218 
102.668  35.744  69.687 
100.067  31.983  69.626 
104.809  39.520  63.767 
105.146  39.324  63.043 
101.120  33.941  71.758 
105.809  44.908  73.174 
98.962  29.846  70.042 
103.583  37.454  69.499 
103.832  38.575  71.664 
107.428  47.351  71.275 
106.646  44.020  69.267 
106.950  48.448  66.962 
107.769  52.045  71.196 
109.270  60.466  66.993 
105.503  46.230  74.341 
107.449  50.794  71.742 
103.114  40.220  74.661 
104.675  46.871  76.062 
106.818  52.675  74.414 
108.289  53.351  65.046 
109.226  56.517  68.684 
107.682  47.452  68.918 
109.134  60.131  64.048 
109.063  60.196  67.429 
109.380  66.798  63.227 
108.503  64.434  72.661 
109.185  58.822  59.996 
108.114  64.337  74.251 
109.225  62.293  63.566 
107.959  71.827  66.214 
108.884  66.074  68.242 
108.032  73.962  67.357 
109.115  68.047  64.016 
106.876  67.508  75.177 
109.430  66.715  65.775 
108.576  62.742  72.188 
106.978  73.919  69.865 
108.446  68.974  62.536 
105.373  66.919  79.659 
104.531  74.315  76.448 
108.325  70.068  71.185 
107.247  75.969  67.229 
108.210  72.838  67.590 
107.737  74.722  65.172 
104.194  81.835  67.597 
104.459  75.750  73.684 
104.986  76.269  70.948 
106.938  77.642  61.881 
104.694  78.739  70.357 
107.361  75.490  67.866 
103.819  79.004  72.814 
102.818  80.995  72.332 
103.248  81.395  68.839 
103.177  81.382  70.717 
103.708  79.327  71.177 
105.852  77.696  67.796 
101.879  84.925  68.740 
102.512  83.194  70.247 
102.542  82.846  70.582 
100.057  85.290  71.617 
102.189  83.307  68.762 
101.986  83.127  69.987 
101.255  84.760  70.526 
100.467  84.981  71.245 
99.727  87.091  69.784 
100.459  85.953  69.110 
99.805  86.982  71.145 
98.736  87.820  71.369 
97.686  88.350  72.240 
95.625  89.979  72.541 
100.724  89.590  62.879 
95.165  92.607  69.924 
95.191  92.425  69.448 
93.696  92.412  70.361 
93.137  94.162  71.044 
93.040  94.565  70.208 
90.528  96.053  71.468 
92.481  93.650  71.344 
92.276  94.937  70.826 
91.604  94.490  70.825 
90.725  97.361  68.356 
89.281  97.321  70.161 
89.394  97.455  70.831 
88.857  98.290  71.042 
88.687  98.515  70.492 
83.392  102.293  73.037 
85.750  100.560  71.867 
82.833  101.853  72.527 
81.658  102.459  73.315 
84.209  101.272  75.467 
87.165  101.256  66.012 
85.004  102.108  69.181 
85.788  100.153  72.728 
84.915  102.432  67.300 
82.231  101.598  76.457 
77.422  104.310  74.303 
83.479  101.857  67.980 
82.532  102.619  71.270 
82.754  102.662  70.763 
78.665  104.028  71.297 
79.535  104.058  70.941 
77.446  105.123  69.593 
77.285  105.041  68.950 
76.521  105.701  68.800 
75.214  105.717  70.364 
75.814  105.348  69.138 
72.656  106.695  68.848 
73.008  106.261  71.016 
64.958  108.255  73.119 
73.472  106.520  61.208 
67.548  109.216  62.011 
67.481  105.317  77.421 
70.558  107.501  65.791 
69.125  107.716  69.647 
72.993  105.245  75.811 
70.725  106.371  74.219 
67.092  106.534  76.007 
66.638  107.694  70.986 
60.023  109.363  60.132 
60.816  107.590  75.179 
67.015  109.143  67.529 
63.720  106.342  77.205 
63.965  104.678  79.179 
58.470  109.248  68.062 
52.246  108.099  72.065 
59.792  109.010  69.853 
56.328  109.005  66.672 
62.794  108.318  73.008 
57.267  109.101  68.417 
63.786  109.276  68.409 
57.294  108.483  73.282 
63.272  107.090  76.318 
50.461  107.806  70.709 
55.431  109.711  65.067 
48.394  108.167  65.480 
52.878  109.720  62.811 
54.319  108.761  66.484 
49.640  107.890  71.029 
45.528  106.797  66.038 
53.428  109.854  62.072 
53.118  108.308  67.812 
46.036  107.809  64.883 
36.095  101.892  71.344 
63.904  109.493  65.982 
52.882  108.311  68.893 
43.942  106.479  66.747 
51.236  107.696  71.448 
41.655  104.444  72.204 
41.641  105.770  64.749 
35.523  101.831  73.801 
45.173  104.512  75.452 
42.481  105.615  69.405 
49.041  106.812  71.179 
34.088  101.671  68.144 
42.415  105.025  69.211 
38.514  101.909  77.712 
35.309  97.151  82.519 
32.243  98.189  76.372 
36.991  96.085  85.214 
38.631  102.044  76.848 
42.636  104.005  76.223 
38.555  103.596  71.143 
38.918  100.292  79.361 
34.532  100.854  74.983 
33.761  100.436  73.212 
31.897  98.602  76.480 
29.819  96.967  73.447 
30.809  97.104  75.316 
27.435  96.743  68.497 
23.979  93.005  72.217 
24.454  93.434  70.881 
26.037  94.801  73.468 
21.710  87.383  78.575 
20.964  89.086  73.972 
21.344  89.595  73.245 
18.499  86.586  70.434 
20.231  88.197  72.837 
26.371  95.921  69.148 
26.216  84.947  86.617 
19.315  85.989  73.633 
26.311  91.792  79.471 
21.834  91.959  65.094 
23.170  93.150  62.278 
16.750  78.599  76.659 
22.499  91.186  71.249 
23.436  88.860  79.022 
22.986  92.069  71.108 
23.243  85.688  81.504 
26.721  91.706  80.279 
20.978  85.620  79.219 
19.201  82.482  78.647 
21.679  90.876  70.029 
17.064  83.399  71.537 
16.030  81.897  71.054 
18.034  83.862  73.452 
16.498  81.518  73.187 
16.086  78.912  74.445 
15.846  79.497  73.335 
15.869  80.302  71.129 
14.713  76.822  73.425 
15.561  78.887  72.033 
15.233  78.278  72.393 
13.373  71.885  72.914 
12.519  70.725  72.234 
15.320  77.166  72.757 
12.399  69.797  71.260 
14.024  67.479  76.076 
14.117  74.348  73.451 
14.954  72.521  77.896 
13.911  74.078  72.062 
15.100  65.362  81.549 
13.199  64.951  74.331 
11.656  67.981  68.439 
12.389  66.675  72.613 
10.693  66.473  61.628 
15.082  60.995  81.509 
12.550  63.764  74.551 
13.033  64.028  74.507 
12.892  65.371  76.467 
12.533  54.722  72.381 
13.636  64.403  77.712 
12.840  63.446  76.480 
14.286  50.266  75.895 
11.849  59.954  72.123 
12.940  57.841  73.252 
12.967  58.663  77.033 
11.344  60.853  66.880 
12.675  51.050  70.743 
13.901  51.687  78.512 
12.431  56.607  71.889 
13.207  48.704  71.080 
12.802  50.219  70.391 
14.082  45.711  72.409 
14.071  46.763  71.908 
13.367  49.002  71.994 
13.861  47.575  70.279 
13.710  48.568  70.606 
13.974  48.601  73.143 
14.511  47.086  74.905 
15.052  44.589  72.186 
13.847  44.921  66.376 
14.701  43.010  69.920 
14.278  42.877  65.354 
14.690  42.316  66.078 
14.830  42.251  71.527 
15.222  39.744  67.311 
14.448  41.165  66.058 
13.968  43.153  69.636 
13.978  46.137  70.936 
16.767  35.853  64.875 
15.495  40.773  70.879 
15.006  40.580  70.117 
17.908  34.871  69.210 
15.223  42.075  72.368 
16.143  43.263  77.958 
17.361  36.874  71.304 
15.908  44.647  77.772 
17.330  36.916  72.338 
20.519  29.471  66.370 
23.560  26.905  69.671 
21.876  28.642  65.998 
19.655  33.407  74.135 
17.789  34.748  66.529 
20.333  31.861  74.023 
24.892  26.784  72.516 
25.350  27.389  75.581 
22.808  27.199  62.416 
20.632  29.138  62.885 
28.156  23.985  68.918 
25.513  24.756  65.728 
27.213  24.788  69.209 
28.028  24.348  70.601 
29.289  24.035  70.463 
26.980  25.036  67.304 
28.070  22.910  65.585 
30.023  22.399  70.266 
30.824  21.799  70.774 
31.791  21.543  70.238 
32.214  20.579  69.215 
31.716  20.327  68.401 
32.642  19.902  68.636 
33.829  19.261  69.607 
34.591  19.645  69.537 
34.431  18.992  69.071 
35.475  18.218  69.443 
35.725  18.324  68.574 
36.640  17.047  69.363 
37.106  16.658  68.774 
37.522  16.913  68.883 
37.821  16.987  67.985 
38.345  15.682  68.278 
37.670  17.465  71.432 
45.498  15.171  77.498 
38.591  17.598  72.966 
46.739  11.769  66.115 
51.002  13.044  77.731 
39.833  15.613  70.148 
40.043  14.986  68.465 
42.945  14.112  70.845 
44.951  12.710  64.911 
40.922  15.540  70.802 
41.159  16.144  73.383 
39.577  17.419  74.915 
47.140  13.219  74.891 
42.624  13.744  67.826 
50.770  11.602  73.223 
48.252  12.272  72.548 
45.311  12.358  70.319 
50.925  10.688  70.320 
48.916  11.080  65.819 
52.332  12.053  74.303 
53.942  10.137  68.900 
60.274  10.207  65.072 
48.006  11.692  68.148 
52.718  10.735  68.641 
53.714  10.496  67.777 
59.281  9.820  63.583 
57.545  10.701  68.388 
60.554  10.007  62.760 
55.280  10.575  68.859 
62.643  10.899  68.155 
54.994  11.481  71.802 
65.571  11.669  71.905 
67.436  11.189  67.239 
63.332  10.261  66.933 
67.362  10.808  65.428 
72.096  12.152  67.999 
64.862  10.875  67.164 
68.044  11.640  68.645 
68.371  10.732  64.431 
73.414  12.248  67.889 
68.714  12.321  69.709 
69.123  11.150  62.129 
68.642  11.157  65.843 
72.583  11.249  60.970 
71.870  10.773  58.436 
70.659  12.059  66.993 
70.112  11.333  67.081 
69.338  12.323  70.035 
80.988  15.040  64.847 
79.647  15.227  63.635 
80.154  15.889  72.785 
78.486  15.211  74.015 
79.929  15.066  71.810 
76.792  13.164  68.072 
82.179  16.051  70.959 
80.964  15.521  62.506 
80.178  15.545  61.187 
85.576  17.738  71.358 
82.205  16.180  71.430 
81.274  15.667  63.323 
84.090  16.399  66.301 
80.950  14.558  68.333 
77.103  15.380  74.537 
82.064  15.735  64.411 
87.524  21.476  77.775 
89.904  19.916  65.814 
86.242  18.228  66.688 
87.473  19.081  62.915 
90.445  20.211  66.579 
91.007  23.424  76.558 
86.031  17.517  66.325 
81.661  15.027  65.792 
87.155  19.278  60.216 
80.645  17.655  78.318 
82.593  19.243  79.903 
87.957  19.004  69.746 
98.603  27.880  62.361 
93.283  22.748  66.126 
96.813  26.258  62.776 
88.474  19.039  68.275 
92.540  21.922  65.925 
95.058  24.436  68.420 
99.620  30.985  71.242 
103.332  36.985  71.492 
99.054  29.080  64.637 
100.064  29.769  64.192 
103.901  37.013  66.643 
95.034  24.408  65.674 
101.642  32.654  61.105 
100.295  30.502  59.819 
103.239  37.860  71.630 
106.030  42.394  64.100 
103.580  36.486  63.402 
101.255  37.789  76.720 
102.947  36.675  71.364 
102.228  39.200  77.261 
99.369  33.896  78.084 
101.680  34.087  67.013 
96.535  26.210  69.829 
101.407  34.016  72.544 
105.891  43.655  73.497 
103.063  35.552  67.410 
101.635  33.057  67.406 
102.249  35.414  71.217 
99.102  29.738  65.577 
105.632  41.239  61.952 
106.621  43.750  65.085 
106.640  46.415  70.876 
104.014  43.586  76.271 
108.929  53.972  67.821 
107.498  49.436  70.702 
105.129  40.285  71.189 
107.834  49.401  69.938 
107.520  47.271  70.340 
107.218  44.618  69.143 
106.357  42.424  69.228 
107.004  51.952  73.279 
106.768  45.692  70.318 
109.297  58.773  60.944 
108.213  54.521  70.818 
108.540  52.795  67.425 
106.555  43.200  69.854 
109.716  58.148  63.362 
109.394  56.474  64.947 
109.624  57.870  62.389 
109.805  60.064  62.911 
109.099  59.413  66.979 
109.158  54.845  63.174 
109.055  60.622  66.117 
108.902  62.149  67.923 
109.915  62.293  60.794 
108.956  70.254  68.152 
107.604  71.737  72.851 
106.597  64.300  76.867 
108.263  65.968  69.442 
108.127  75.367  65.983 
107.999  74.013  66.861 
108.266  70.483  69.803 
108.087  69.617  73.782 
107.146  66.060  75.773 
108.392  71.852  69.081 
107.074  76.386  67.993 
108.709  69.106  69.201 
106.629  74.292  69.621 
104.019  79.864  70.345 
107.335  72.636  63.398 
108.130  72.670  68.473 
108.344  69.164  65.636 
105.181  77.176  71.920 
104.884  82.509  64.262 
104.516  79.628  69.973 
103.703  79.821  69.459 
104.719  77.644  70.642 
104.811  80.870  65.579 
103.291  81.067  69.860 
103.051  82.391  68.851 
102.406  82.615  69.545 
102.984  83.135  68.554 
104.580  79.665  69.020 
103.107  81.447  70.205 
101.678  83.391  71.576 
101.588  84.057  69.484 
100.361  86.707  69.496 
100.360  85.849  71.295 
100.763  84.126  70.923 
97.552  89.241  71.713 
101.137  85.012  70.064 
96.714  90.066  68.646 
98.234  88.389  71.192 
98.164  88.222  70.370 
96.601  89.733  72.498 
95.557  90.996  70.899 
97.752  88.643  71.808 
100.510  89.873  57.434 
93.358  93.288  70.412 
94.582  92.638  70.584 
93.945  92.664  69.939 
94.105  93.640  67.712 
92.464  94.356  70.247 
91.684  95.068  71.254 
91.531  96.970  67.976 
90.855  96.045  70.790 
91.170  95.976  70.326 
87.395  100.746  66.651 
90.824  96.437  68.355 
89.239  98.943  68.885 
90.095  97.380  68.662 
89.973  97.865  69.250 
85.830  101.891  68.947 
79.146  103.275  76.392 
83.154  100.901  74.310 
83.572  101.438  76.040 
84.028  99.783  76.692 
77.016  103.386  75.064 
82.825  99.720  79.340 
85.124  100.495  75.321 
84.137  101.653  71.272 
84.602  100.646  74.798 
81.288  102.869  68.266 
80.152  103.820  69.080 
81.417  103.082  69.658 
78.225  104.953  70.078 
78.244  104.215  70.251 
77.972  105.255  69.221 
76.671  105.638  68.079 
75.075  106.254  68.674 
76.101  105.568  67.234 
74.202  106.341  68.618 
71.443  107.323  67.511 
71.966  106.510  68.585 
69.063  107.086  73.351 
65.677  109.705  62.079 
70.459  107.528  71.343 
69.698  107.841  69.631 
74.303  106.513  61.983 
69.900  107.619  67.861 
67.798  108.846  67.881 
70.881  107.266  69.341 
63.603  109.525  60.256 
68.782  108.440  67.161 
71.595  108.550  59.097 
65.765  105.937  77.083 
72.966  106.396  71.940 
59.441  108.980  70.625 
64.745  105.188  78.167 
56.003  109.314  69.552 
65.655  107.973  74.539 
68.526  108.203  70.062 
55.108  104.844  79.836 
67.031  109.571  63.236 
48.113  107.779  65.990 
48.033  107.874  64.664 
61.393  108.657  72.477 
63.056  105.816  77.646 
57.848  110.019  63.015 
60.618  108.882  70.085 
59.625  109.356  66.145 
53.982  108.783  68.718 
61.727  109.424  68.940 
53.855  106.698  75.768 
50.883  108.362  70.800 
58.472  110.337  58.409 
41.090  104.848  69.070 
52.874  107.087  74.725 
46.743  106.741  71.907 
50.997  107.304  73.804 
48.419  107.610  69.124 
53.547  106.337  77.119 
47.291  106.088  73.309 
40.671  104.386  69.864 
36.441  102.196  72.616 
38.066  104.303  66.205 
42.339  104.946  73.989 
36.913  102.596  72.194 
49.881  107.637  70.276 
45.428  106.818  67.780 
41.010  104.094  73.225 
36.061  99.695  78.905 
37.655  99.881  80.863 
25.223  94.022  71.073 
45.649  105.349  73.919 
27.767  96.565  71.516 
36.776  97.082  83.601 
34.314  99.360  76.366 
31.397  97.497  77.039 
39.573  103.895  72.298 
37.931  102.450  74.817 
37.345  101.206  77.244 
28.806  96.864  69.650 
34.158  100.387  74.708 
35.873  101.522  72.273 
32.308  99.568  73.792 
33.494  99.348  74.509 
29.110  96.088  77.290 
26.408  96.133  68.284 
25.576  93.516  72.678 
21.552  89.727  73.794 
24.697  93.875  71.704 
22.743  90.007  74.758 
27.382  96.926  69.367 
26.276  92.765  75.639 
19.844  85.576  76.534 
20.888  90.477  68.113 
20.917  87.857  74.909 
18.140  84.157  74.111 
17.223  86.434  66.619 
17.304  81.526  74.018 
19.364  84.422  76.436 
21.359  85.931  78.254 
18.240  79.841  78.241 
22.194  88.536  77.210 
22.523  88.500  75.989 
19.688  86.547  73.277 
16.149  81.976  70.355 
19.347  83.650  77.396 
17.433  84.581  70.578 
16.950  80.651  73.985 
17.182  84.542  71.167 
18.151  84.714  73.423 
16.979  80.389  73.122 
16.332  80.485  71.854 
16.390  80.392  72.378 
15.682  80.102  71.981 
15.098  76.200  73.036 
14.796  77.835  72.554 
12.819  70.569  69.945 
14.602  75.394  73.911 
12.866  73.227  69.197 
14.185  73.321  73.622 
13.465  73.967  67.615 
15.700  78.115  74.621 
13.090  72.853  70.789 
14.316  75.028  72.459 
15.366  66.691  81.046 
13.876  68.621  78.082 
12.560  69.544  73.964 
11.030  65.052  69.212 
12.497  71.337  67.887 
13.125  60.631  77.530 
11.665  65.420  71.590 
12.657  60.754  74.994 
10.866  60.591  68.396 
10.978  61.625  68.358 
12.916  60.234  77.009 
11.699  64.201  71.533 
13.902  54.152  79.204 
11.974  57.104  72.382 
12.914  63.339  75.104 
13.364  50.096  71.896 
12.760  52.349  71.601 
13.916  50.553  74.076 
13.364  51.332  71.350 
13.773  49.426  71.802 
17.605  54.542  85.087 
13.304  50.691  70.308 
12.710  50.145  69.909 
13.099  48.620  70.135 
12.743  49.382  69.977 
13.630  51.923  74.293 
13.947  53.345  78.456 
14.606  49.219  78.340 
13.069  46.499  68.083 
13.605  47.425  71.398 
14.288  42.467  68.461 
13.285  46.362  67.633 
14.184  42.148  67.456 
14.085  44.232  67.592 
14.444  44.194  69.287 
14.337  44.357  71.594 
16.478  36.489  64.652 
16.547  36.482  66.232 
15.967  38.246  65.846 
14.404  50.333  77.654 
14.807  42.350  70.421 
17.438  35.083  65.006 
16.446  34.291  61.223 
21.878  27.832  64.942 
22.545  29.045  47.038 
19.076  32.568  68.887 
18.478  32.295  62.806 
19.408  30.919  63.463 
15.483  41.946  73.723 
24.808  27.094  73.356 
18.485  34.194  72.174 
15.237  40.508  71.710 
22.436  31.077  75.886 
17.793  34.887  70.989 
17.936  32.547  62.194 
22.550  30.882  74.705 
22.695  27.447  66.232 
27.660  24.668  70.089 
25.856  26.087  71.761 
27.314  25.998  73.055 
27.630  23.666  67.602 
27.466  24.284  68.324 
28.688  23.191  66.795 
27.935  23.783  68.002 
30.365  21.977  68.543 
28.528  23.932  70.042 
31.779  21.546  68.596 
30.870  21.187  67.642 
31.308  20.532  67.509 
32.189  19.768  67.968 
32.153  20.469  68.422 
33.957  19.002  68.632 
34.886  18.762  68.645 
35.267  18.767  68.251 
35.078  18.034  68.123 
35.749  17.529  68.217 
36.362  17.603  68.787 
36.352  16.781  68.518 
37.030  16.590  67.892 
37.700  16.106  67.879 
39.393  15.155  68.948 
38.683  15.659  68.878 
38.057  17.051  72.304 
39.251  15.321  68.025 
40.602  14.421  67.130 
42.249  14.349  70.934 
53.226  13.707  81.086 
41.380  14.081  67.907 
43.723  12.796  63.216 
45.919  12.140  69.698 
46.527  11.923  67.555 
43.423  13.136  64.121 
45.602  12.560  63.735 
43.087  14.315  73.200 
41.607  14.980  71.294 
46.467  13.215  74.714 
53.752  11.211  71.452 
50.311  11.000  71.641 
50.424  10.933  69.558 
49.726  10.858  69.490 
63.729  9.787  56.695 
46.975  11.963  68.771 
49.833  10.785  67.671 
62.439  11.112  70.653 
59.336  10.334  65.121 
56.377  9.724  64.102 
61.122  10.375  66.591 
62.748  10.684  66.558 
61.991  10.760  67.735 
61.050  10.754  68.731 
64.926  10.151  66.846 
56.458  10.539  67.718 
65.542  10.517  67.114 
65.848  10.558  63.903 
66.118  10.709  66.447 
63.981  10.317  66.334 
66.720  10.839  65.789 
69.562  11.213  66.075 
68.756  12.086  68.579 
74.617  13.214  72.519 
69.549  11.717  68.048 
70.249  11.318  64.908 
68.783  12.554  73.161 
68.232  11.197  63.313 
69.995  11.488  65.785 
72.287  12.042  68.616 
69.767  10.897  63.539 
70.819  12.089  68.874 
72.476  11.644  62.764 
80.962  15.182  70.241 
84.092  17.005  62.766 
80.575  14.540  67.341 
77.239  14.449  73.673 
73.873  12.961  71.187 
80.976  15.936  73.049 
77.495  13.568  68.444 
77.110  12.999  63.898 
82.558  16.825  63.729 
82.298  15.602  67.296 
82.746  15.964  64.265 
86.763  18.394  68.985 
79.477  15.341  58.139 
78.111  13.487  67.540 
78.544  14.437  70.130 
83.399  16.788  60.487 
78.968  15.547  73.425 
91.671  22.358  72.575 
88.668  19.515  68.375 
85.551  17.624  63.906 
88.078  19.674  72.456 
95.323  24.622  62.117 
83.688  16.092  66.449 
88.938  19.526  66.397 
90.223  20.617  65.348 
88.444  20.030  73.123 
93.153  23.512  61.474 
85.432  18.220  71.054 
92.829  24.637  75.899 
87.294  18.454  65.043 
93.218  22.179  68.471 
94.489  23.988  61.413 
95.130  24.921  60.111 
94.453  24.484  70.005 
99.260  30.278  70.752 
97.201  27.205  66.486 
94.393  23.573  66.038 
99.750  32.249  53.800 
104.586  38.032  66.492 
99.880  29.417  62.049 
97.688  27.410  65.829 
96.348  25.516  65.109 
105.393  40.022  61.532 
100.000  35.425  75.574 
102.299  34.629  64.840 
101.280  32.592  68.039 
103.417  35.684  66.666 
101.103  32.010  67.270 
101.395  35.981  75.333 
106.411  45.605  72.850 
102.034  36.775  75.332 
98.784  39.348  82.856 
106.280  42.277  69.840 
107.259  45.138  66.844 
107.204  46.015  67.460 
106.353  42.132  66.040 
106.030  43.500  69.922 
105.811  41.077  65.637 
105.933  41.364  66.358 
105.007  38.913  67.920 
107.264  47.546  67.769 
105.169  41.271  71.389 
106.767  44.333  62.845 
106.347  43.968  66.424 
108.804  51.566  69.865 
107.240  46.172  68.981 
107.167  48.941  71.335 
108.832  55.967  68.914 
108.942  53.008  67.703 
109.525  57.423  63.430 
105.720  41.458  67.842 
105.999  47.192  73.527 
109.040  61.617  68.759 
109.012  61.105  68.606 
108.714  69.968  64.476 
108.873  62.094  66.592 
109.465  56.845  64.075 
109.671  63.762  62.203 
108.391  57.012  58.051 
108.049  68.120  71.231 
109.441  63.642  66.879 
108.765  69.846  68.803 
109.133  60.823  67.828 
109.329  65.995  67.318 
107.144  60.769  73.649 
108.555  68.527  71.172 
108.245  66.788  73.836 
109.015  62.141  68.807 
106.230  74.277  72.092 
108.442  70.997  63.601 
107.483  72.256  68.663 
108.366  71.196  62.025 
108.754  70.009  69.332 
109.689  66.227  66.012 
109.441  66.704  67.543 
107.637  73.590  69.102 
107.623  70.221  71.553 
105.446  76.634  71.505 
108.656  70.696  66.016 
104.542  80.532  67.187 
105.838  74.811  71.625 
105.635  77.494  70.322 
104.492  78.519  71.757 
105.950  77.823  68.614 
104.917  79.317  69.785 
101.234  86.249  68.247 
103.546  80.647  69.955 
102.777  82.459  70.102 
102.339  84.339  68.182 
103.302  83.207  67.177 
101.708  86.023  68.054 
102.969  86.507  61.807 
100.778  85.432  70.626 
99.829  89.125  66.346 
98.164  87.667  71.257 
101.061  86.821  67.555 
97.872  89.519  69.423 
104.463  84.319  62.159 
99.703  86.870  70.263 
97.334  89.536  70.023 
97.510  89.040  70.688 
98.741  88.584  70.720 
97.970  88.816  69.671 
95.966  90.642  72.131 
97.127  89.984  70.777 
94.704  91.998  70.236 
95.852  92.648  67.302 
93.437  94.695  67.848 
92.239  96.876  65.276 
93.647  93.926  69.928 
93.950  93.287  70.447 
92.547  94.844  69.565 
91.240  95.460  70.261 
91.725  96.292  68.027 
89.745  98.580  69.262 
92.902  96.507  64.734 
91.269  95.725  69.230 
91.245  96.950  67.186 
88.992  100.697  61.680 
88.156  98.639  71.659 
82.231  102.348  69.948 
85.621  99.550  75.071 
85.410  99.885  76.214 
84.202  101.924  68.964 
82.395  100.017  79.400 
88.723  99.881  66.698 
87.048  99.600  70.386 
82.776  102.600  72.459 
86.465  98.715  73.083 
81.490  103.606  67.577 
83.853  102.351  70.919 
80.622  103.605  69.625 
78.991  104.560  69.856 
80.013  103.880  70.317 
78.780  104.231  69.467 
78.794  104.977  69.004 
77.529  104.674  68.708 
76.944  105.511  68.955 
75.760  105.451  68.072 
75.459  106.388  67.984 
74.532  106.382  69.523 
72.736  107.347  67.397 
72.681  107.691  61.345 
71.476  107.848  64.263 
72.254  107.187  62.369 
73.524  106.793  62.947 
60.943  109.525  65.831 
69.299  108.208  65.926 
59.640  109.367  68.541 
69.412  106.388  76.030 
68.433  108.861  60.999 
61.800  108.302  71.064 
64.932  108.911  60.185 
68.959  108.996  61.887 
61.522  108.789  67.245 
68.570  108.591  66.138 
62.538  109.394  62.589 
60.156  108.676  71.264 
57.527  107.700  75.190 
56.096  110.042  64.014 
61.164  109.668  62.720 
60.976  109.233  61.223 
57.503  109.881  64.321 
56.283  107.375  74.562 
60.515  108.007  71.554 
53.118  108.188  72.338 
49.928  108.825  65.642 
46.629  106.955  70.743 
56.190  108.093  74.000 
56.216  108.724  70.822 
51.067  109.284  62.149 
44.237  106.858  65.049 
44.486  106.811  64.253 
44.619  107.232  63.495 
50.058  108.580  63.866 
52.615  108.682  69.341 
42.351  105.414  71.298 
51.656  105.867  78.033 
42.632  106.059  65.143 
45.676  105.360  72.648 
51.295  108.863  68.143 
37.558  103.743  69.180 
39.923  104.278  70.933 
50.614  105.716  77.236 
42.651  105.848  70.344 
46.266  106.314  72.454 
41.714  102.874  78.142 
47.192  104.136  77.848 
30.669  96.786  77.808 
35.022  101.849  72.110 
38.948  102.530  75.451 
35.898  102.711  71.204 
34.771  101.279  71.541 
40.063  104.657  69.373 
45.737  106.703  70.483 
37.764  102.816  72.233 
37.326  100.707  78.856 
34.367  101.343  71.847 
30.665  97.156  76.510 
34.285  101.668  70.119 
36.579  103.051  70.524 
34.620  99.918  75.105 
30.994  97.366  77.333 
23.642  92.357  71.835 
28.407  96.667  72.083 
29.851  97.691  71.302 
32.380  100.063  70.854 
29.514  98.663  69.004 
27.007  95.257  73.198 
30.298  98.846  68.810 
26.550  97.069  59.474 
22.210  89.948  74.090 
20.032  86.451  74.456 
20.519  85.801  77.847 
19.504  84.460  77.682 
22.503  90.849  73.192 
18.109  83.206  76.053 
19.004  85.161  74.007 
19.164  80.356  79.891 
17.677  86.673  65.464 
22.319  83.176  83.224 
28.198  97.366  69.745 
17.870  80.631  75.486 
19.383  84.915  75.103 
17.498  82.377  75.526 
17.966  82.638  75.288 
21.203  91.439  65.434 
19.275  86.030  72.582 
16.289  83.559  67.361 
18.126  86.478  66.948 
17.115  84.938  69.568 
16.721  82.961  72.017 
16.007  80.770  71.650 
15.670  80.275  69.904 
14.838  79.150  70.381 
14.715  76.820  71.613 
14.533  77.396  70.210 
14.288  75.890  71.216 
14.720  76.825  70.244 
12.861  72.027  70.918 
13.865  77.368  68.049 
13.760  72.641  73.288 
10.900  68.173  66.545 
11.411  69.327  67.126 
12.214  67.216  73.951 
14.089  74.556  71.798 
10.757  59.119  66.069 
11.242  57.251  66.433 
11.759  68.787  70.196 
12.250  63.364  73.552 
12.083  65.189  71.533 
10.819  66.224  66.133 
11.286  57.172  69.810 
11.110  65.610  69.573 
13.060  65.092  75.738 
10.703  58.254  63.022 
12.565  55.947  73.427 
11.219  56.585  60.585 
13.367  51.892  73.347 
13.323  53.336  73.906 
12.975  54.346  74.649 
13.254  55.363  76.747 
13.121  54.359  75.501 
11.612  57.522  70.563 
13.910  53.260  76.566 
14.340  53.664  79.828 
13.163  54.946  74.348 
13.465  50.074  70.945 
12.663  51.041  69.692 
13.147  47.878  69.690 
13.561  47.556  69.540 
12.989  48.197  69.235 
13.767  48.899  73.627 
13.563  46.761  70.927 
14.280  42.760  67.960 
14.210  43.467  69.077 
15.842  46.116  79.396 
14.059  44.393  69.073 
14.719  43.540  67.545 
15.285  39.946  71.137 
18.299  34.767  71.742 
14.013  42.995  64.149 
16.657  42.158  79.096 
17.292  33.841  66.096 
17.231  34.072  64.747 
16.909  38.338  74.730 
14.906  41.154  70.922 
23.208  28.635  73.308 
21.282  28.510  65.362 
14.926  42.881  72.242 
18.899  32.218  64.264 
27.802  22.870  63.436 
19.406  31.338  66.160 
18.940  34.831  75.142 
18.895  40.862  81.008 
26.193  28.236  77.251 
18.620  31.942  65.361 
21.702  28.117  53.883 
23.377  27.508  71.214 
20.218  30.817  70.797 
21.968  28.246  67.700 
22.900  27.482  69.606 
18.380  35.968  73.297 
23.403  28.475  72.608 
24.378  25.874  69.110 
27.929  24.304  67.215 
26.231  24.914  67.470 
25.714  24.703  64.294 
27.722  24.665  69.083 
29.777  22.889  68.990 
29.937  22.284  68.641 
31.393  20.880  68.273 
30.877  21.662  67.539 
31.865  20.894  67.001 
30.793  20.974  66.766 
32.664  19.693  67.306 
33.564  19.506  68.257 
34.001  18.739  68.226 
34.151  18.658  67.383 
34.543  18.512  67.839 
35.131  17.818  67.642 
35.525  17.656  67.372 
36.039  17.229  67.910 
36.577  17.267  68.359 
38.222  16.028  67.092 
40.495  15.512  69.765 
40.107  15.361  68.842 
39.843  14.999  67.232 
40.731  15.355  71.338 
44.799  12.629  66.351 
44.460  14.121  72.931 
43.132  14.672  74.187 
40.843  14.917  68.699 
43.726  13.323  71.755 
42.962  13.573  70.077 
41.727  13.987  67.277 
46.968  11.619  66.847 
60.160  12.397  77.173 
44.833  12.786  68.258 
49.887  11.674  70.654 
49.491  12.783  76.337 
43.526  15.309  75.455 
49.582  11.292  70.426 
46.212  12.284  67.379 
56.576  9.940  60.193 
50.440  11.585  73.615 
57.458  10.239  67.764 
57.448  10.568  62.922 
59.831  10.281  64.141 
54.793  10.767  70.848 
55.943  10.021  67.301 
59.963  9.964  58.537 
63.092  11.769  71.424 
60.889  10.193  64.757 
64.053  10.584  68.258 
60.100  10.609  66.693 
63.254  10.448  67.787 
64.095  10.099  65.515 
63.454  10.986  67.087 
66.320  10.845  67.375 
70.720  11.490  65.304 
64.593  10.380  66.362 
69.500  11.584  64.634 
70.541  11.636  66.227 
65.309  10.663  64.447 
75.161  14.706  75.992 
67.301  10.681  63.227 
76.907  13.551  69.348 
73.100  12.450  66.950 
72.033  10.887  59.817 
72.991  12.384  62.870 
71.053  11.160  61.912 
73.666  12.085  60.977 
71.099  13.076  74.576 
78.939  14.184  65.445 
76.121  12.589  64.953 
76.223  14.155  71.637 
74.541  12.742  67.842 
80.927  14.902  66.540 
80.781  15.478  71.727 
81.185  15.023  68.320 
78.675  14.035  67.988 
81.153  15.223  64.082 
81.703  16.695  62.170 
84.966  17.847  63.179 
84.184  17.793  62.385 
83.981  17.732  60.393 
82.752  16.448  60.099 
84.040  16.896  61.239 
84.894  17.348  68.582 
89.282  20.362  64.378 
79.932  14.175  65.286 
89.778  20.339  68.005 
87.684  19.301  64.808 
88.162  19.895  64.379 
86.614  18.902  62.825 
92.297  23.498  72.751 
90.497  20.830  66.869 
91.884  23.519  74.209 
91.529  22.859  62.421 
94.138  23.525  64.271 
93.846  23.638  62.628 
90.811  21.474  65.741 
95.615  25.217  66.167 
96.008  25.248  69.049 
98.198  29.162  72.365 
101.382  34.878  73.692 
94.546  24.060  69.749 
98.316  28.257  62.484 
101.483  34.030  68.009 
97.360  27.921  65.755 
100.477  30.857  66.271 
96.782  25.769  63.919 
103.783  36.378  64.414 
103.401  37.557  56.677 
102.768  34.706  59.018 
95.588  24.695  63.693 
103.846  37.060  58.422 
100.395  36.903  79.609 
101.952  34.495  70.852 
103.192  35.452  64.841 
105.696  41.735  65.913 
104.160  37.436  63.289 
103.177  36.237  66.695 
101.597  35.954  72.943 
100.643  33.659  73.978 
100.342  31.252  68.616 
103.826  38.145  70.914 
96.899  26.806  68.489 
105.247  41.155  60.951 
101.372  33.703  70.872 
106.264  42.109  68.074 
105.425  39.161  64.193 
106.636  46.511  64.730 
103.935  41.196  74.359 
106.282  43.954  66.992 
107.039  49.798  72.313 
107.256  46.684  67.519 
105.968  43.202  66.793 
108.813  54.646  67.385 
106.488  46.219  71.677 
105.830  45.224  74.240 
107.688  47.957  70.520 
107.780  49.298  68.321 
106.396  43.081  69.135 
107.083  52.261  72.548 
109.271  63.859  65.275 
107.254  45.605  69.989 
109.285  57.408  64.701 
108.696  54.725  68.360 
108.618  50.492  66.089 
108.253  55.237  71.207 
108.701  51.534  68.110 
109.565  56.738  60.723 
109.221  66.558  63.786 
109.715  63.964  63.092 
108.954  67.867  64.618 
108.984  68.231  68.585 
109.054  68.133  69.903 
107.487  75.279  67.093 
108.864  61.695  71.511 
107.679  73.658  68.167 
109.066  67.463  70.346 
108.739  63.972  72.319 
109.124  67.697  67.453 
106.506  76.625  61.953 
108.056  72.000  64.968 
107.491  72.901  70.922 
106.664  72.054  75.021 
105.380  81.711  64.518 
107.419  73.490  63.940 
108.512  70.654  67.641 
109.859  65.460  67.567 
108.133  73.208  66.659 
106.729  75.687  69.455 
107.692  75.945  65.618 
103.855  80.222  71.132 
107.304  73.729  67.745 
104.107  80.189  69.468 
105.626  79.716  67.560 
103.524  82.315  68.537 
104.966  79.791  68.237 
103.797  81.487  67.417 
102.304  82.080  70.653 
103.904  83.096  64.662 
104.601  81.189  66.655 
99.268  91.516  56.251 
101.610  86.127  65.941 
102.444  87.263  60.930 
98.998  87.952  70.819 
103.178  82.659  67.874 
101.133  84.806  68.947 
100.132  86.611  71.291 
100.655  88.361  65.248 
96.852  89.895  69.884 
97.561  89.992  68.622 
96.260  91.325  70.492 
96.998  89.610  71.623 
96.454  89.093  72.150 
102.068  85.665  67.502 
95.519  91.529  70.674 
95.703  92.375  69.435 
92.056  96.556  67.365 
91.877  95.582  67.206 
94.093  93.515  68.915 
92.251  95.407  69.006 
90.408  96.820  69.804 
90.594  96.114  69.585 
93.189  95.152  67.180 
92.984  95.741  65.409 
83.803  101.778  72.890 
90.869  96.435  70.454 
90.699  97.480  66.818 
88.162  100.266  65.622 
88.706  98.439  71.742 
85.323  101.616  68.462 
88.210  99.707  69.238 
85.165  98.605  78.866 
82.220  102.548  74.593 
83.868  100.623  76.138 
85.241  102.087  65.543 
86.922  99.213  72.846 
80.355  103.503  68.212 
84.986  102.631  66.555 
82.589  102.482  68.064 
79.739  104.070  68.741 
79.462  103.971  70.138 
80.713  103.800  67.933 
80.244  103.293  69.838 
78.729  104.648  68.164 
78.925  105.157  68.018 
77.717  105.369  68.414 
77.261  105.403  68.144 
76.403  106.077  67.928 
74.713  106.454  67.831 
73.801  106.349  67.348 
73.451  107.008  66.704 
72.763  107.113  66.161 
74.336  106.863  66.223 
70.478  107.698  67.769 
71.945  107.921  61.616 
72.511  107.600  63.362 
64.888  109.774  62.541 
58.018  108.408  72.214 
65.173  109.692  65.640 
59.100  108.652  71.924 
62.183  109.420  65.532 
66.415  109.463  67.001 
70.047  108.120  66.777 
63.342  110.072  65.678 
63.958  104.140  79.809 
61.069  108.877  70.264 
60.050  110.137  63.116 
63.418  104.804  79.302 
60.484  109.708  63.444 
59.604  110.267  59.781 
62.862  108.688  70.971 
58.701  109.963  61.017 
52.960  109.361  63.543 
55.171  109.314  62.817 
47.434  107.116  65.928 
59.337  108.679  68.902 
60.602  109.461  67.119 
47.962  108.218  62.177 
51.123  109.103  64.224 
55.007  110.036  62.662 
45.162  107.137  65.257 
56.738  110.057  60.494 
46.098  106.924  66.420 
49.961  108.366  65.674 
51.135  109.283  61.509 
43.994  107.012  65.893 
58.751  109.906  65.079 
49.936  105.777  75.565 
55.330  109.746  64.302 
49.342  108.314  68.311 
44.006  106.347  68.866 
37.814  103.442  69.548 
38.967  103.987  71.313 
42.428  104.843  73.143 
34.148  101.406  70.880 
36.789  100.514  78.002 
48.514  105.559  75.723 
45.908  106.222  71.749 
40.464  105.138  67.205 
40.894  104.532  70.747 
