78.716  102.956  74.636 
74.737  101.950  78.635 
77.027  100.605  81.655 
75.316  104.764  72.581 
78.890  103.136  71.919 
68.516  106.556  73.856 
73.132  105.124  72.822 
75.550  104.829  70.740 
71.068  105.790  74.338 
72.594  100.917  80.935 
72.810  104.225  75.766 
73.170  102.701  79.286 
75.958  101.477  79.720 
72.079  101.813  79.399 
72.843  105.539  73.504 
73.433  101.773  79.704 
72.165  104.972  75.754 
60.843  106.963  75.065 
69.937  107.300  69.521 
62.331  107.261  75.744 
69.450  104.969  76.097 
65.000  103.521  79.482 
71.693  103.955  77.034 
62.957  102.650  81.104 
65.705  106.116  76.485 
55.461  103.405  83.197 
63.822  106.364  76.700 
62.471  105.611  78.280 
63.833  106.980  75.904 
61.363  107.384  74.624 
62.789  106.426  75.903 
56.870  107.256  73.108 
56.761  104.091  81.589 
53.654  108.132  73.654 
59.246  103.912  81.210 
52.020  103.692  82.926 
59.793  107.109  72.556 
54.977  108.767  70.979 
65.070  105.825  75.521 
47.083  107.749  64.699 
53.626  107.638  75.307 
44.606  103.270  79.843 
47.955  104.382  80.200 
34.082  98.017  77.338 
41.437  104.094  71.440 
51.524  104.177  82.696 
53.773  108.427  72.193 
56.339  105.502  79.957 
50.003  105.854  77.752 
42.635  102.722  78.792 
49.610  108.613  66.381 
43.094  104.152  74.903 
41.224  101.661  79.793 
42.772  102.599  79.749 
43.868  103.659  77.493 
32.935  96.172  81.207 
40.303  101.369  79.916 
28.281  95.204  75.108 
33.139  96.952  79.650 
29.563  95.089  78.760 
25.776  92.027  75.810 
35.479  98.504  79.266 
28.643  94.157  77.629 
35.605  95.118  84.885 
27.458  91.805  79.755 
25.560  89.972  79.945 
23.645  89.863  75.696 
21.888  77.947  84.799 
25.417  88.007  82.962 
24.970  84.597  84.497 
32.094  95.614  80.135 
24.252  90.217  77.762 
26.086  89.985  81.444 
23.803  89.449  77.194 
21.523  82.068  81.932 
25.093  85.065  84.029 
20.620  87.966  73.311 
23.960  86.311  81.430 
20.680  81.471  81.339 
25.784  95.429  68.184 
22.411  79.826  84.446 
28.549  89.701  84.741 
20.769  80.488  81.446 
16.163  77.517  75.850 
25.303  87.120  83.201 
21.287  76.088  84.492 
17.205  81.266  73.897 
19.150  79.563  80.432 
20.188  80.952  81.012 
20.315  82.674  79.188 
21.813  76.216  85.774 
20.889  72.006  84.894 
21.216  70.093  87.055 
20.782  75.053  85.152 
14.438  73.089  74.549 
17.012  67.541  82.813 
14.754  70.811  76.747 
13.482  71.531  69.261 
17.333  79.209  76.323 
14.304  64.521  79.757 
16.989  69.745  82.028 
21.565  67.938  88.114 
18.163  69.891  83.801 
17.447  71.660  81.785 
14.237  66.083  79.303 
16.623  64.988  83.831 
15.746  70.972  78.421 
14.447  67.781  78.752 
13.400  61.699  76.573 
14.719  60.108  81.347 
14.156  59.112  78.579 
14.815  56.491  81.363 
15.352  56.811  82.056 
13.997  68.946  76.636 
15.179  58.345  80.858 
17.356  56.117  83.804 
13.278  57.236  73.774 
13.981  56.691  77.876 
14.152  62.052  79.021 
14.974  59.687  81.382 
13.862  60.620  78.119 
13.018  58.746  76.718 
14.499  53.584  79.324 
19.533  45.886  85.400 
15.659  56.255  82.549 
14.522  63.789  80.098 
21.299  47.822  87.956 
13.362  55.261  73.517 
16.834  50.606  82.909 
13.763  53.624  76.995 
19.416  49.600  87.011 
15.541  51.200  80.883 
18.329  51.327  85.575 
16.478  43.290  77.497 
20.198  37.426  80.200 
15.803  51.083  79.462 
15.073  44.550  73.693 
14.703  52.256  78.353 
15.564  50.225  80.405 
16.550  49.032  82.108 
18.700  46.307  83.080 
24.134  32.030  81.521 
18.252  48.567  84.610 
24.426  36.370  85.997 
18.400  38.234  75.761 
14.857  41.131  69.994 
14.938  48.795  78.131 
15.639  43.906  75.212 
20.996  36.713  82.232 
19.879  36.975  79.537 
26.456  30.278  82.471 
24.897  34.795  84.905 
21.164  32.716  76.979 
20.732  31.133  72.191 
24.059  37.816  86.467 
27.353  25.644  77.227 
18.851  37.071  76.466 
22.060  29.618  69.047 
32.684  23.774  82.661 
23.856  28.067  74.291 
26.715  26.398  74.952 
28.909  28.619  83.162 
20.426  31.643  71.524 
28.823  27.770  81.257 
30.013  24.997  80.532 
23.082  31.820  78.171 
28.355  26.377  79.665 
30.996  26.013  82.659 
28.769  24.786  75.714 
31.658  21.529  75.153 
34.914  20.695  78.350 
30.237  22.196  74.521 
35.179  19.983  76.874 
29.676  24.117  75.984 
31.112  21.920  75.638 
30.266  22.888  75.464 
33.408  19.405  72.320 
35.039  19.065  73.398 
34.970  19.673  73.635 
36.344  18.167  74.022 
37.122  18.672  75.676 
35.297  19.729  75.789 
35.326  19.558  77.077 
41.856  15.593  74.551 
39.996  15.922  70.459 
38.984  17.560  76.232 
39.270  17.276  74.648 
46.349  12.807  73.711 
40.364  16.439  73.941 
41.132  16.250  75.682 
39.506  15.568  70.407 
50.055  12.591  75.653 
43.710  15.070  76.689 
40.174  16.301  73.429 
50.665  11.754  74.336 
49.538  13.298  78.343 
48.254  11.879  73.978 
52.146  9.769  66.562 
57.558  10.597  71.450 
50.931  11.157  72.387 
55.211  15.054  84.214 
51.299  11.463  72.226 
49.439  12.038  74.577 
54.180  11.156  72.324 
54.348  11.707  76.049 
43.787  13.297  72.693 
59.457  10.403  71.095 
58.737  9.886  68.738 
57.498  12.894  79.994 
54.451  10.639  70.698 
56.387  11.477  72.878 
48.737  13.151  77.291 
66.727  12.028  72.829 
52.183  11.780  75.046 
48.297  12.600  76.362 
59.335  11.478  75.756 
63.458  11.482  73.372 
60.853  10.438  71.774 
67.488  11.963  73.050 
66.095  12.974  78.632 
66.157  14.084  80.484 
61.349  11.433  74.096 
65.874  14.192  80.928 
72.524  13.071  71.291 
77.210  14.972  75.231 
66.515  14.085  81.689 
68.194  12.678  76.341 
77.963  13.506  68.933 
64.915  12.049  75.356 
73.367  12.788  70.378 
71.223  12.132  68.692 
74.756  12.693  62.035 
72.676  13.226  73.737 
74.644  14.767  75.872 
74.089  16.303  80.682 
79.705  16.719  76.554 
73.968  18.398  86.087 
84.069  18.343  73.632 
72.773  14.657  78.930 
72.620  15.788  81.405 
90.134  21.868  73.661 
84.648  18.115  71.653 
83.946  19.423  79.279 
86.371  25.928  86.831 
83.797  18.392  75.069 
83.304  18.008  74.456 
85.744  18.368  72.103 
82.975  20.723  82.187 
95.737  26.661  71.650 
85.656  19.634  76.145 
90.610  25.175  79.734 
89.163  21.753  73.511 
89.309  22.506  76.439 
85.227  17.377  65.762 
89.837  22.055  74.043 
88.375  21.231  74.782 
86.352  23.347  82.146 
101.555  36.740  75.546 
91.227  24.332  78.272 
98.377  28.289  65.997 
93.552  26.102  75.661 
96.936  28.263  73.206 
97.355  27.330  65.629 
93.004  24.639  72.768 
92.361  24.678  73.607 
98.460  28.088  64.829 
94.124  23.239  62.875 
94.658  24.287  62.211 
101.598  32.359  64.075 
97.662  31.372  76.842 
101.620  39.042  75.504 
99.422  31.675  73.150 
95.190  30.974  80.970 
94.699  29.203  78.652 
103.526  38.182  71.760 
98.927  33.902  77.817 
97.788  32.022  76.113 
103.457  42.211  76.124 
103.030  43.055  77.765 
100.738  35.145  73.904 
99.523  36.239  80.022 
107.188  47.399  72.156 
103.615  44.521  78.337 
97.240  38.906  84.349 
105.529  51.121  76.919 
103.937  46.197  77.172 
106.509  53.302  74.961 
97.160  30.281  74.475 
106.285  48.820  73.322 
104.765  51.773  79.304 
104.610  52.997  79.841 
104.836  42.507  73.179 
104.902  53.372  78.001 
109.821  60.918  70.191 
107.176  57.477  74.535 
106.981  53.505  74.690 
108.249  52.619  71.731 
104.894  51.357  77.362 
109.261  61.179  72.969 
106.760  51.239  73.955 
108.929  55.860  71.352 
105.727  52.004  76.974 
106.147  56.221  77.410 
106.180  54.245  75.996 
105.606  51.849  77.476 
108.316  66.546  73.326 
106.070  55.425  76.908 
108.374  67.060  74.023 
106.119  59.577  78.258 
105.925  59.713  77.640 
106.161  59.706  76.705 
108.795  55.883  73.098 
107.479  54.232  74.372 
106.705  59.658  77.312 
109.383  64.650  71.517 
107.797  66.528  76.480 
106.806  60.237  76.499 
103.621  69.887  83.709 
108.648  71.075  69.425 
107.049  77.081  62.348 
106.255  74.854  70.448 
102.646  75.059  79.822 
104.048  73.502  77.243 
108.027  71.247  70.251 
103.576  75.983  75.561 
102.829  76.350  77.358 
103.330  77.225  74.058 
102.710  76.647  75.744 
102.523  77.012  77.533 
101.729  77.942  78.040 
102.213  77.881  77.276 
101.280  79.260  76.076 
101.759  79.587  76.342 
101.592  80.508  76.184 
100.673  80.725  76.493 
101.207  80.897  76.766 
100.316  81.922  76.384 
99.466  82.056  76.256 
99.420  82.872  77.068 
98.915  83.211  76.532 
98.257  83.585  76.778 
97.737  84.304  76.532 
97.365  84.992  77.088 
97.091  85.115  77.527 
96.078  86.348  78.211 
95.702  86.748  77.599 
96.231  86.126  77.247 
94.658  87.661  77.679 
94.944  88.719  76.641 
94.314  88.743  76.888 
93.223  89.549  77.348 
93.140  90.093  76.495 
92.633  90.330  77.180 
92.217  91.905  76.276 
92.635  92.168  75.563 
91.818  92.362  76.968 
90.293  93.695  77.792 
90.751  93.080  77.722 
89.903  94.520  77.673 
89.521  95.311  77.417 
89.105  95.981  77.216 
88.499  96.456  76.730 
87.782  96.186  77.125 
87.498  96.719  77.595 
86.800  97.076  76.915 
86.493  97.273  78.337 
83.518  98.440  78.180 
85.320  96.942  80.920 
81.504  97.736  82.618 
85.317  98.653  76.729 
86.087  99.154  73.243 
78.096  103.268  75.063 
84.699  98.201  78.259 
78.710  103.613  72.663 
79.944  99.751  80.670 
80.072  101.898  77.184 
73.735  103.268  77.787 
84.163  96.224  82.223 
73.339  105.610  70.603 
77.104  99.299  83.332 
76.532  103.718  75.652 
69.408  107.281  72.444 
70.817  104.068  77.290 
71.989  106.654  71.393 
74.167  104.134  75.694 
76.963  101.694  79.501 
81.853  101.387  73.852 
77.393  103.940  73.754 
71.525  104.563  75.677 
71.251  102.035  79.406 
70.823  101.914  80.926 
79.432  103.074  73.553 
67.930  105.297  75.905 
74.234  105.172  74.245 
68.643  103.841  79.409 
72.619  104.406  76.549 
64.910  103.624  80.708 
72.495  102.961  77.455 
66.247  102.628  81.831 
64.821  102.222  81.177 
66.055  106.476  76.336 
65.785  104.538  79.233 
56.957  109.235  67.574 
62.312  105.993  77.623 
59.557  107.101  73.999 
57.083  104.841  79.313 
63.631  108.443  71.056 
52.627  107.592  73.994 
52.442  108.050  71.856 
54.538  102.758  83.888 
49.179  106.133  76.454 
49.710  108.847  65.861 
61.268  105.487  78.861 
57.980  107.407  73.361 
47.906  103.424  81.537 
51.116  102.423  84.495 
50.945  108.899  66.548 
42.447  104.378  72.696 
54.436  108.230  72.115 
53.932  109.557  69.156 
46.172  103.782  79.680 
42.042  98.745  85.248 
51.554  105.337  78.320 
47.788  103.433  80.728 
46.838  104.122  78.651 
47.210  106.004  74.579 
40.010  96.952  86.750 
43.628  105.279  72.977 
44.262  102.372  81.749 
39.567  102.323  75.524 
39.097  95.406  87.255 
32.757  91.683  85.944 
32.130  98.073  76.420 
32.112  97.336  77.755 
35.238  95.689  84.346 
42.807  98.875  85.727 
26.382  96.086  71.178 
28.143  93.969  77.183 
32.615  88.218  90.156 
30.843  94.058  82.403 
28.783  91.854  81.857 
23.430  89.103  77.454 
30.682  94.318  81.869 
30.747  94.156  80.447 
25.603  83.776  85.453 
30.591  93.953  81.086 
28.558  88.899  85.646 
25.276  91.742  77.716 
28.676  89.958  84.297 
27.246  91.096  80.611 
31.536  94.502  80.948 
33.496  95.982  81.911 
21.515  85.653  78.556 
28.511  89.433  85.188 
27.593  94.127  75.987 
28.575  92.479  80.621 
27.476  88.159  84.956 
21.255  90.596  67.959 
23.087  83.475  82.336 
20.128  87.997  70.879 
19.706  78.503  82.201 
19.050  79.631  79.388 
18.720  79.328  79.691 
20.387  81.265  80.246 
20.327  84.047  79.858 
20.455  81.999  80.463 
18.108  77.643  79.974 
15.871  74.505  77.406 
25.070  86.079  83.189 
17.102  72.626  80.126 
19.723  80.178  80.748 
14.886  75.607  73.718 
16.952  74.893  80.001 
16.645  72.393  80.935 
18.275  69.411  83.964 
17.659  71.777  82.670 
13.729  65.880  76.482 
17.815  80.850  73.905 
14.799  67.584  79.434 
20.397  75.730  83.536 
18.089  71.729  83.609 
20.136  62.243  86.968 
19.309  70.153  85.148 
18.516  66.343  85.185 
12.831  61.001  75.295 
13.850  67.182  78.212 
14.068  65.034  79.380 
14.672  60.976  79.175 
13.422  61.892  77.229 
14.732  57.364  79.597 
14.028  65.942  78.291 
12.394  57.869  73.704 
13.419  59.968  76.993 
12.690  53.687  74.372 
12.702  60.461  73.383 
17.734  58.545  85.424 
13.546  54.271  75.536 
12.870  66.180  73.695 
12.740  59.035  75.204 
17.274  46.901  82.422 
14.203  50.240  73.341 
17.597  44.176  79.885 
16.619  48.793  81.242 
18.024  47.803  83.629 
13.820  58.837  77.041 
17.951  48.523  83.275 
14.449  49.308  76.389 
20.123  40.947  83.219 
17.714  49.588  83.819 
16.630  51.258  82.381 
19.366  52.493  86.803 
15.222  48.204  77.474 
17.969  42.123  79.122 
17.005  47.813  81.833 
14.758  46.694  74.721 
18.577  44.503  82.843 
19.920  42.818  83.845 
20.416  32.711  74.010 
24.310  33.965  83.091 
21.253  43.031  85.793 
15.837  41.883  72.373 
17.884  34.967  68.512 
15.556  42.317  73.659 
21.854  31.429  73.597 
27.275  30.209  82.811 
20.669  37.119  81.594 
18.024  42.082  80.673 
25.815  29.515  81.000 
28.394  26.563  81.274 
26.756  32.644  84.206 
24.061  27.810  73.003 
25.480  26.229  73.096 
25.940  29.933  80.130 
19.899  34.573  75.904 
18.507  39.327  75.855 
22.103  30.056  71.430 
21.369  33.527  78.139 
25.673  25.606  68.995 
26.951  28.056  80.468 
22.039  28.543  66.894 
25.695  27.213  76.986 
23.859  30.894  79.507 
23.406  29.589  76.340 
25.258  27.427  73.073 
23.178  27.874  71.872 
29.093  24.785  78.571 
27.067  26.163  78.354 
31.566  22.733  77.882 
28.944  24.303  75.005 
28.596  27.563  82.196 
24.861  27.601  75.645 
32.515  20.934  74.023 
31.642  22.196  76.990 
31.357  23.078  76.977 
36.134  18.697  74.591 
29.427  23.435  74.161 
37.280  17.450  73.812 
37.874  19.350  79.988 
37.542  19.170  80.381 
40.606  17.538  79.026 
40.843  16.318  72.448 
40.108  17.595  78.933 
42.402  15.552  74.587 
42.478  15.678  75.739 
43.470  13.451  72.060 
42.536  14.795  73.958 
45.216  16.700  81.883 
41.472  16.501  76.921 
49.606  13.555  79.211 
47.882  12.274  74.204 
44.810  16.132  80.866 
49.025  13.993  79.859 
49.805  13.796  79.905 
56.629  9.724  67.711 
44.277  13.371  73.519 
43.913  16.374  79.280 
47.735  12.044  65.123 
54.420  11.648  72.956 
62.893  11.854  71.752 
51.512  12.655  77.046 
58.278  9.973  68.213 
57.904  9.794  67.523 
55.545  13.008  80.608 
52.985  10.818  70.548 
57.156  10.273  65.764 
52.000  13.909  80.680 
58.242  11.262  73.848 
51.093  10.275  66.939 
55.770  10.085  69.389 
54.556  11.411  74.000 
60.367  10.592  70.871 
66.931  12.879  77.174 
70.795  13.115  75.397 
54.500  10.214  70.173 
54.444  15.703  83.523 
64.218  11.178  70.333 
67.389  12.413  73.219 
60.749  11.016  71.352 
65.330  11.659  70.671 
70.091  11.934  70.745 
72.455  13.154  72.927 
72.631  12.995  72.004 
72.807  14.245  76.842 
69.525  13.123  74.011 
68.195  10.541  59.429 
68.720  11.660  70.245 
74.956  11.973  61.563 
76.979  16.673  80.465 
72.551  13.807  74.008 
75.134  14.150  73.121 
73.718  12.568  69.299 
76.273  13.235  67.466 
73.359  13.125  73.064 
80.206  18.745  81.374 
76.675  16.818  80.925 
72.032  15.154  80.837 
84.817  17.461  71.171 
75.421  15.360  78.288 
84.158  17.585  73.367 
76.163  14.939  76.791 
83.476  16.560  70.441 
83.120  17.723  75.014 
85.804  18.275  72.988 
78.077  13.501  67.671 
78.916  15.864  74.801 
86.094  21.178  79.693 
87.362  19.564  73.123 
88.314  19.082  67.845 
88.677  27.743  86.056 
86.368  20.766  76.730 
90.444  23.772  76.314 
78.971  14.331  67.662 
88.052  21.610  75.114 
93.341  23.969  70.254 
84.715  22.600  84.641 
97.592  27.886  67.838 
96.679  27.899  72.562 
87.880  22.026  78.192 
98.055  30.145  71.205 
93.681  28.002  77.596 
89.903  24.180  78.317 
101.907  33.557  66.297 
96.216  28.903  76.052 
93.925  23.018  65.993 
97.985  28.585  70.100 
97.253  31.226  76.117 
98.147  35.679  80.117 
96.884  31.141  78.236 
100.229  36.640  79.754 
105.191  41.028  69.641 
100.906  36.011  74.296 
105.236  40.202  68.078 
101.305  39.242  79.016 
102.222  39.207  76.351 
101.376  42.962  80.778 
94.017  33.769  84.764 
99.162  35.916  79.819 
101.037  38.797  79.706 
103.504  39.646  74.433 
101.851  42.747  80.178 
105.065  48.563  77.160 
103.083  38.075  74.127 
104.766  40.855  71.619 
100.896  38.180  79.309 
104.717  46.263  75.864 
106.294  50.665  74.288 
107.713  48.736  71.242 
106.091  51.495  75.982 
104.299  47.843  78.234 
105.815  50.581  76.407 
105.136  51.416  78.583 
109.887  58.497  67.895 
109.295  55.245  68.053 
109.594  54.657  66.620 
109.324  60.162  71.579 
106.418  56.400  76.783 
108.132  49.433  71.086 
105.600  58.696  77.635 
109.994  57.449  67.807 
109.638  63.438  70.804 
106.095  52.827  76.400 
106.090  57.002  76.037 
109.333  61.696  66.537 
109.571  61.350  70.859 
109.812  64.839  63.904 
107.165  52.551  72.363 
109.319  54.642  69.663 
109.827  61.962  67.238 
105.856  59.047  78.812 
109.058  57.439  71.636 
108.474  60.518  74.465 
107.436  52.742  73.140 
107.969  54.070  72.402 
106.003  60.292  78.229 
107.528  62.349  76.579 
107.321  62.922  76.744 
105.695  71.451  75.575 
104.563  76.039  74.391 
104.813  72.872  76.869 
101.104  74.488  83.522 
104.952  74.746  74.407 
102.383  75.683  76.940 
103.511  74.505  76.473 
102.316  74.236  80.234 
104.219  77.840  72.859 
103.601  77.358  75.038 
102.973  78.168  75.639 
101.886  78.174  77.359 
102.544  78.344  75.797 
102.163  78.846  76.178 
102.259  79.410  75.252 
101.857  80.076  75.802 
100.885  80.330  76.147 
100.710  81.905  76.153 
100.060  82.443  76.253 
99.618  82.614  76.719 
99.792  82.980  75.927 
99.402  83.432  76.457 
98.735  84.306  75.380 
97.703  84.817  76.488 
97.265  84.931  76.140 
96.577  86.357  76.575 
96.206  86.510  76.845 
95.805  87.417  77.382 
95.886  87.602  76.648 
94.961  87.722  76.842 
95.099  88.377  77.079 
95.162  88.946  75.944 
94.578  89.498  76.346 
93.937  89.733  76.799 
93.239  90.862  76.258 
92.750  91.166  76.525 
92.311  91.259  75.761 
91.644  92.605  76.198 
91.242  92.896  77.091 
90.604  93.540  77.091 
90.030  94.026  76.793 
89.622  94.290  76.725 
89.260  95.156  77.045 
89.227  95.640  76.462 
89.160  96.106  76.243 
87.704  97.054  75.853 
87.280  96.769  76.711 
87.784  96.951  76.749 
86.289  97.193  77.558 
80.012  101.617  78.389 
85.262  96.227  81.571 
86.304  98.095  76.663 
83.035  98.951  77.823 
83.795  100.920  73.164 
77.965  100.459  81.516 
79.353  96.864  84.611 
78.356  102.344  77.220 
82.227  99.458  78.061 
79.798  99.089  81.559 
74.500  102.690  77.938 
76.337  102.513  78.324 
76.212  101.305  80.554 
77.071  104.352  72.955 
76.649  104.916  71.228 
76.685  104.016  72.201 
74.857  105.248  72.048 
76.034  104.459  74.240 
68.856  104.768  77.643 
77.131  102.446  77.956 
67.288  107.951  71.653 
69.360  106.695  74.158 
73.623  103.643  76.889 
69.408  102.926  80.395 
71.426  102.416  79.904 
71.481  106.357  73.487 
66.922  107.172  74.766 
61.395  107.117  75.341 
67.269  103.944  79.095 
72.103  103.087  78.115 
68.783  105.314  75.326 
66.046  108.537  69.033 
68.830  107.764  70.835 
61.145  104.030  80.758 
63.724  109.249  68.376 
60.965  108.051  72.612 
60.544  105.046  79.411 
55.913  105.769  79.741 
63.123  107.397  74.831 
64.942  106.921  75.186 
51.194  103.387  82.772 
54.340  105.534  79.015 
47.688  102.124  82.357 
53.948  108.898  69.795 
49.634  107.632  71.289 
53.151  107.241  75.885 
50.674  105.530  79.477 
55.306  107.944  71.308 
55.013  109.518  66.598 
49.914  106.598  76.557 
48.393  105.402  78.183 
43.772  106.233  65.385 
47.967  106.338  75.051 
44.996  106.807  69.196 
53.965  109.066  69.338 
45.577  105.359  75.401 
51.867  105.496  79.922 
49.374  107.305  72.893 
33.968  98.529  78.203 
36.121  97.109  83.067 
26.111  94.907  70.461 
39.474  102.992  73.655 
57.829  107.473  75.523 
25.998  93.166  75.080 
43.454  99.474  85.721 
41.949  101.140  81.925 
39.253  102.259  77.453 
39.362  96.872  86.266 
29.315  95.661  77.257 
30.925  94.214  79.821 
25.015  89.417  78.405 
36.553  99.221  79.063 
28.688  90.232  84.712 
30.166  96.470  76.683 
33.645  95.121  84.111 
35.443  96.605  83.189 
29.422  90.416  85.392 
37.822  97.165  83.806 
24.544  90.872  75.575 
24.456  85.388  82.881 
25.592  88.136  82.379 
22.530  80.816  84.278 
33.140  89.915  88.902 
22.968  89.394  76.016 
24.258  84.313  83.421 
21.901  89.619  70.522 
20.428  84.580  78.169 
20.067  84.212  77.428 
25.460  88.831  80.110 
21.014  88.508  72.724 
25.942  84.500  85.691 
23.092  86.196  81.022 
19.981  80.020  81.562 
18.765  78.815  81.188 
20.394  78.141  82.704 
23.947  82.714  84.299 
15.794  74.688  75.998 
16.902  82.104  72.806 
18.018  78.041  79.123 
18.348  81.387  75.254 
19.100  74.044  82.961 
16.575  77.211  77.416 
16.134  76.391  77.704 
15.065  74.322  74.835 
14.486  73.960  74.222 
18.389  69.151  84.596 
14.707  73.481  75.011 
16.492  71.127  79.687 
16.540  70.152  80.676 
13.988  73.163  72.476 
17.202  70.354  81.914 
18.632  67.910  84.367 
13.064  69.740  73.318 
12.087  66.817  70.490 
17.517  72.498  82.162 
14.130  72.572  74.096 
14.223  67.959  77.139 
13.375  65.165  76.876 
13.636  63.358  78.193 
13.548  66.194  78.234 
14.334  62.670  79.580 
14.171  60.309  78.537 
13.195  56.825  74.868 
15.445  55.346  82.144 
13.348  60.727  76.505 
14.297  56.638  79.347 
16.448  62.574  83.124 
14.730  56.146  79.772 
12.911  61.812  75.251 
14.871  58.280  79.014 
13.471  55.089  74.316 
14.494  51.590  77.389 
14.004  51.120  74.794 
15.417  53.535  80.280 
14.668  48.638  75.055 
14.475  59.689  79.298 
17.477  50.386  83.496 
18.388  50.555  86.026 
13.830  51.717  74.823 
15.509  47.372  77.218 
14.409  52.395  77.546 
13.457  47.012  70.064 
17.911  38.000  74.059 
15.675  54.788  81.553 
15.801  45.212  76.408 
15.997  48.491  80.195 
14.961  47.557  77.556 
14.562  44.957  70.129 
18.207  41.567  79.765 
19.221  42.033  82.736 
18.357  45.864  82.953 
24.868  35.644  85.088 
18.053  56.549  85.372 
18.058  49.623  83.525 
20.268  33.512  76.518 
18.215  36.784  74.857 
18.885  37.232  75.579 
21.272  49.335  87.854 
18.313  45.081  82.787 
22.094  33.751  78.466 
23.478  31.679  79.719 
25.935  32.432  83.639 
19.619  33.523  74.126 
27.502  30.788  83.491 
21.089  34.761  78.584 
21.474  29.363  70.252 
19.368  36.605  76.952 
22.663  31.252  77.354 
22.717  26.907  65.272 
21.378  35.057  79.488 
20.489  33.973  77.425 
18.138  32.192  61.258 
22.467  28.749  69.908 
28.223  29.851  83.832 
19.410  33.900  71.457 
21.077  30.543  70.995 
28.065  24.453  73.379 
27.768  24.926  73.740 
23.936  29.821  76.843 
30.770  24.719  80.893 
24.595  30.054  77.987 
28.870  23.676  72.704 
20.932  32.365  74.634 
28.217  24.624  74.248 
30.752  22.517  73.434 
28.840  23.111  71.712 
32.990  20.355  74.466 
31.959  22.085  76.355 
32.402  21.305  75.423 
32.448  19.970  72.939 
33.427  19.709  74.426 
35.493  19.749  77.584 
36.904  21.348  82.052 
31.648  21.437  73.797 
34.546  19.031  73.147 
37.578  17.908  75.431 
41.595  15.550  73.670 
39.547  16.020  72.474 
42.324  14.388  72.628 
44.671  13.614  74.324 
54.183  14.989  82.984 
46.064  14.238  77.368 
42.964  13.813  71.478 
50.056  14.005  80.652 
45.282  13.501  75.239 
55.054  10.839  72.719 
53.328  11.089  71.283 
46.925  13.914  77.691 
52.812  11.191  73.738 
50.341  15.126  83.123 
54.484  15.400  84.478 
50.827  13.055  78.778 
46.679  13.522  74.833 
47.814  13.202  77.736 
52.724  9.743  65.290 
49.117  12.173  73.974 
49.962  11.336  69.198 
51.992  9.787  63.464 
47.806  12.341  72.924 
50.040  12.676  74.962 
51.375  10.703  71.559 
47.993  13.563  78.477 
52.032  15.244  83.405 
62.299  12.773  78.371 
56.911  15.021  83.857 
62.062  13.823  82.085 
59.888  11.360  74.416 
60.723  10.750  72.677 
55.616  11.846  74.953 
62.769  11.035  70.447 
68.791  12.717  76.267 
69.325  12.070  73.488 
66.955  12.958  75.618 
68.851  12.309  73.641 
68.893  12.158  72.315 
78.279  15.876  77.420 
74.480  12.222  65.976 
73.863  11.821  66.279 
71.218  12.396  72.730 
74.186  12.313  68.413 
74.923  21.421  88.351 
72.352  13.423  74.678 
75.768  14.341  72.523 
71.761  12.188  67.921 
71.097  14.084  78.498 
75.164  18.927  85.632 
75.330  15.885  80.094 
73.808  13.167  71.056 
66.815  12.263  74.812 
73.376  15.526  80.890 
75.711  16.339  80.540 
73.824  13.679  71.982 
78.990  13.821  66.972 
82.681  17.966  75.741 
80.047  14.914  65.125 
84.733  19.441  75.604 
84.005  16.693  65.306 
81.718  15.490  70.082 
77.569  15.390  76.058 
81.312  19.825  82.515 
88.916  20.849  71.182 
85.134  16.563  67.451 
77.678  14.467  70.773 
96.867  28.854  74.447 
89.586  21.038  70.860 
96.391  30.659  77.712 
88.025  21.002  72.221 
94.984  28.150  76.753 
93.626  26.266  72.812 
92.892  25.087  75.573 
83.714  19.374  78.588 
90.535  20.784  67.175 
94.645  26.466  73.705 
90.662  21.770  70.913 
94.236  26.171  71.076 
99.784  31.308  71.934 
101.439  32.910  57.950 
92.430  22.338  66.987 
102.836  33.626  65.373 
98.539  29.153  68.719 
98.886  31.041  72.873 
96.679  25.888  62.987 
100.924  33.577  71.920 
99.903  32.468  70.577 
101.006  36.621  78.111 
101.781  34.095  68.978 
101.755  39.218  77.181 
98.975  32.396  75.051 
102.183  37.303  72.816 
100.934  39.846  80.197 
101.521  42.536  80.982 
102.003  36.118  73.735 
104.627  39.629  71.878 
101.231  35.111  73.120 
104.549  44.733  74.326 
100.249  30.623  68.294 
105.248  48.416  76.173 
104.713  47.946  77.393 
101.882  41.148  78.794 
102.428  35.449  68.984 
110.043  56.080  63.881 
105.347  40.597  66.260 
104.499  48.305  78.080 
109.282  54.353  64.897 
107.789  57.991  74.961 
107.994  50.386  66.033 
108.894  54.821  71.587 
105.366  49.983  75.906 
106.341  53.398  75.774 
106.775  53.996  75.476 
108.279  58.527  72.955 
105.892  52.737  77.213 
108.175  63.381  75.547 
107.673  57.373  74.346 
109.312  54.756  61.026 
110.172  63.273  65.645 
109.128  62.302  72.608 
106.776  57.152  75.122 
107.302  57.361  75.206 
109.697  63.291  68.905 
109.606  58.751  65.639 
108.263  61.754  74.238 
107.346  61.485  76.547 
107.366  64.626  77.522 
106.929  58.225  76.159 
109.457  66.454  69.989 
106.109  65.682  79.856 
107.941  67.738  74.726 
106.939  55.157  74.802 
109.769  64.055  66.829 
108.308  65.073  73.487 
108.278  66.182  74.508 
105.721  73.961  73.842 
108.355  65.134  75.091 
101.068  73.891  85.363 
103.385  71.892  80.834 
104.446  75.245  73.795 
103.105  75.461  77.560 
101.452  75.350  80.050 
103.257  75.585  77.037 
104.273  74.055  76.883 
102.415  78.134  76.554 
103.359  79.167  74.728 
102.906  77.248  75.854 
101.981  78.466  75.801 
101.826  79.380  75.583 
101.526  80.747  75.413 
100.701  81.625  75.472 
101.001  81.835  74.851 
100.506  82.428  75.491 
99.972  82.155  75.629 
99.630  82.503  75.472 
99.042  83.936  75.949 
99.178  84.102  75.068 
98.693  83.564  75.747 
98.211  84.185  75.909 
96.566  85.426  76.586 
96.066  86.251  75.842 
95.636  87.386  76.174 
96.237  87.796  75.400 
95.636  88.157  75.836 
94.738  88.177  76.104 
94.453  89.349  75.897 
94.617  89.793  75.686 
94.008  90.237  76.098 
93.633  89.999  75.415 
93.624  90.886  75.591 
93.666  91.377  74.683 
92.971  91.439  75.128 
91.018  93.126  76.704 
90.627  93.569  76.205 
91.083  93.486  75.960 
90.417  94.039  76.058 
89.337  94.707  76.291 
89.579  95.775  75.638 
88.785  96.236  75.809 
88.457  96.621  76.028 
87.530  96.895  75.022 
87.380  97.831  75.318 
85.706  99.775  73.695 
84.356  98.499  78.050 
84.628  98.947  77.075 
75.321  104.262  76.042 
84.018  100.389  74.086 
76.985  102.154  78.529 
82.654  98.755  78.140 
83.545  101.191  71.405 
79.758  102.339  73.884 
83.621  98.009  80.118 
85.695  97.442  78.561 
77.658  100.506  81.091 
77.086  103.771  70.956 
74.559  105.524  71.639 
77.576  104.203  72.089 
73.339  106.502  67.791 
73.753  105.862  70.232 
71.856  103.597  77.277 
75.174  104.255  76.511 
71.710  105.191  74.942 
71.740  106.403  71.809 
73.422  103.065  78.593 
75.112  103.184  77.623 
74.477  101.429  79.883 
72.023  105.249  73.976 
72.054  106.049  74.109 
67.207  106.584  74.963 
66.183  108.504  70.569 
66.292  104.096  78.496 
71.510  106.509  70.375 
69.188  107.787  67.949 
68.079  104.718  78.022 
61.420  105.310  77.948 
63.663  103.242  80.605 
63.205  105.087  78.337 
63.962  105.343  78.242 
65.174  104.731  77.837 
57.941  105.439  78.897 
65.519  106.675  75.058 
58.293  107.235  74.274 
55.437  104.955  81.596 
61.974  106.322  78.186 
59.625  109.729  65.385 
59.367  105.893  78.527 
53.767  108.165  69.863 
70.762  106.652  73.130 
58.916  107.775  72.327 
58.743  107.347  73.978 
53.050  108.633  70.212 
50.303  101.645  86.103 
56.528  106.746  76.056 
56.021  107.108  74.225 
52.440  107.515  74.490 
49.586  108.626  68.246 
51.698  109.325  68.744 
45.207  101.716  83.261 
47.477  105.195  77.739 
54.066  107.158  75.944 
45.154  106.052  69.774 
47.638  106.378  73.928 
38.124  101.442  77.976 
36.245  102.596  67.619 
35.754  98.445  80.912 
40.425  102.936  73.898 
45.939  105.054  76.322 
27.491  93.556  77.602 
40.311  102.278  78.553 
43.413  103.305  79.291 
35.555  93.460  86.548 
38.490  95.277  87.332 
29.122  95.819  75.137 
30.057  92.852  83.218 
25.328  92.612  75.224 
30.030  93.719  81.137 
35.177  96.478  80.893 
28.417  94.837  76.857 
28.237  93.872  78.337 
27.994  92.211  81.246 
29.560  94.725  79.223 
31.038  87.540  87.627 
29.452  88.523  85.530 
26.702  88.671  84.099 
33.528  100.250  70.168 
26.169  90.556  80.714 
26.760  90.359  81.856 
24.487  90.310  78.190 
23.285  85.127  82.175 
22.586  88.703  75.416 
25.925  87.576  82.990 
20.769  82.372  81.352 
18.180  75.073  81.392 
25.956  86.392  84.279 
23.131  91.195  72.194 
24.201  86.154  82.845 
27.098  97.041  65.714 
21.065  87.125  75.878 
21.904  85.832  79.832 
18.235  73.512  82.504 
18.055  81.032  76.582 
21.628  75.386  85.311 
18.001  82.849  73.972 
25.663  87.440  83.788 
17.767  80.185  76.445 
17.083  72.631  81.538 
18.419  83.219  73.717 
18.755  78.000  81.343 
15.782  75.833  75.118 
11.361  67.800  68.038 
16.988  79.485  76.055 
15.619  76.762  74.998 
14.381  71.307  74.916 
14.049  67.884  77.929 
16.549  72.462  78.055 
19.234  74.134  83.752 
19.089  65.746  85.555 
20.604  76.761  83.740 
12.312  62.061  72.290 
16.776  66.779  83.637 
16.363  60.153  83.131 
13.128  63.421  77.278 
12.687  68.533  72.303 
13.563  62.665  78.758 
12.325  61.797  73.047 
12.902  66.927  74.783 
12.119  61.657  71.268 
12.923  68.767  73.219 
13.630  63.705  78.584 
14.099  64.235  79.128 
14.065  50.390  75.795 
15.271  57.763  81.374 
15.687  53.883  81.081 
15.569  51.869  81.259 
19.623  47.848  86.421 
12.586  58.280  74.371 
14.331  59.834  79.788 
11.939  58.922  72.305 
15.669  51.001  80.374 
13.194  53.232  74.640 
15.247  47.163  75.837 
14.287  57.172  78.630 
19.100  47.489  86.152 
20.962  43.583  85.144 
14.845  56.374  78.959 
16.361  47.153  80.723 
17.219  45.054  78.368 
15.589  45.532  75.748 
17.186  42.096  77.699 
16.771  44.944  79.752 
17.083  37.938  72.425 
15.786  47.773  78.676 
19.198  48.148  85.547 
22.903  35.772  82.962 
15.421  44.568  73.100 
26.837  29.379  81.945 
19.485  34.403  73.773 
23.475  36.101  84.080 
16.822  39.585  73.920 
19.483  35.711  76.160 
17.019  43.323  77.388 
23.464  34.829  83.219 
15.941  39.018  69.775 
18.419  36.579  74.327 
18.305  36.636  72.188 
18.739  42.441  82.218 
18.335  38.931  76.897 
22.564  32.481  80.169 
17.420  34.567  65.642 
26.303  30.048  81.430 
19.364  35.733  73.949 
21.887  34.789  80.807 
21.544  28.985  68.646 
19.652  31.295  67.717 
19.405  36.837  75.588 
27.528  25.045  74.557 
21.027  31.548  73.833 
23.624  30.602  78.596 
22.291  29.662  71.285 
26.105  27.400  78.571 
26.794  26.650  78.311 
26.170  25.581  71.146 
26.660  25.561  71.968 
29.458  23.570  75.180 
26.691  24.617  69.124 
30.662  21.959  74.426 
30.548  22.191  72.512 
25.200  27.014  72.495 
31.851  21.230  74.649 
31.681  22.675  76.154 
31.988  20.889  72.925 
31.430  20.261  71.723 
36.690  19.651  80.298 
31.973  20.172  72.789 
35.657  18.436  72.448 
32.160  20.309  73.605 
30.201  22.052  72.882 
41.152  17.101  79.100 
39.700  18.505  78.119 
42.620  16.762  79.956 
38.188  16.771  73.183 
40.843  15.703  73.830 
39.724  18.210  78.578 
41.136  16.132  74.842 
45.655  13.995  77.481 
46.145  13.892  75.860 
40.430  16.683  74.910 
44.478  15.294  77.953 
60.059  15.597  85.221 
55.768  10.746  72.796 
44.530  13.785  72.355 
49.907  15.501  83.743 
57.213  11.345  76.067 
46.009  13.101  75.261 
49.588  11.684  73.452 
54.805  12.131  78.442 
55.228  9.422  67.684 
57.094  11.050  72.137 
61.437  10.732  70.188 
58.058  10.141  70.195 
53.570  11.566  75.670 
53.667  10.445  70.267 
54.224  9.332  66.090 
58.255  10.551  69.517 
51.720  13.342  79.176 
59.239  10.809  74.148 
58.653  14.676  82.828 
53.426  9.914  69.246 
55.352  9.478  68.726 
61.994  12.165  77.260 
60.036  10.540  71.649 
64.505  12.090  72.192 
61.446  11.419  75.639 
65.306  11.547  72.475 
63.641  11.971  74.682 
64.742  11.503  73.355 
69.274  12.471  71.548 
65.878  12.066  75.061 
71.166  11.186  66.340 
68.179  11.680  71.932 
62.163  11.552  75.573 
74.885  14.544  74.781 
72.115  11.409  64.468 
69.752  13.201  75.693 
66.612  11.464  70.713 
72.071  14.730  79.440 
68.753  13.235  77.467 
73.350  11.965  65.093 
68.807  14.895  81.116 
77.303  13.219  65.356 
74.324  14.341  76.713 
72.683  15.341  79.604 
69.496  13.682  77.824 
74.477  14.877  77.842 
76.197  13.147  68.279 
78.948  16.541  78.463 
76.414  13.890  71.009 
86.366  20.660  78.447 
88.819  19.665  68.156 
80.457  17.117  75.976 
85.469  17.414  69.571 
82.349  16.471  72.559 
85.753  18.779  70.345 
90.307  21.443  69.059 
82.117  16.668  62.926 
88.515  19.782  67.428 
83.062  16.309  72.572 
85.931  17.306  69.505 
87.954  19.591  69.718 
90.170  22.339  73.250 
87.427  22.972  81.094 
89.132  21.657  74.284 
92.961  25.723  77.158 
88.807  23.960  80.764 
90.351  20.937  68.885 
83.472  17.355  70.286 
95.512  24.665  64.421 
92.795  22.921  68.419 
98.288  29.532  69.594 
91.533  24.102  75.059 
93.587  25.324  72.623 
91.951  22.933  62.604 
99.020  30.105  71.317 
97.125  26.293  64.141 
99.753  30.685  61.838 
98.659  31.928  73.464 
96.422  27.244  71.394 
95.173  31.545  81.016 
100.538  35.833  77.592 
97.597  31.963  77.225 
101.974  34.741  71.033 
102.466  36.341  68.491 
101.672  35.374  73.831 
100.671  35.912  75.494 
101.085  38.489  78.542 
107.054  50.323  72.943 
103.257  43.747  77.742 
102.966  40.966  77.102 
103.506  38.456  72.539 
109.525  56.237  62.520 
106.373  42.841  66.203 
105.928  47.989  74.688 
102.546  42.480  78.117 
105.156  46.032  75.346 
103.969  45.243  76.489 
104.173  48.747  78.725 
103.454  45.820  77.875 
104.869  47.258  76.214 
105.512  54.441  76.830 
104.108  46.111  76.548 
106.370  55.372  76.477 
103.139  44.034  78.175 
106.793  54.522  75.450 
109.697  55.642  64.619 
109.121  57.516  68.838 
105.933  55.676  78.107 
108.274  49.826  65.498 
109.019  50.902  66.960 
109.002  59.781  70.910 
108.506  50.135  66.953 
107.961  59.864  74.353 
108.822  53.915  71.017 
108.866  59.566  72.112 
107.884  66.055  75.669 
106.438  71.827  75.483 
108.792  65.307  70.160 
109.115  65.969  67.609 
109.154  56.786  70.405 
108.432  57.089  73.042 
108.592  56.223  72.028 
109.348  62.482  71.024 
109.130  63.842  68.009 
98.515  68.942  90.912 
108.722  60.603  73.480 
106.009  61.960  79.575 
105.840  68.699  79.521 
107.081  71.981  73.425 
106.721  72.487  73.621 
106.609  74.941  69.610 
101.417  73.027  85.494 
106.242  73.311  73.898 
104.903  71.791  76.949 
103.958  77.518  73.890 
105.052  73.990  74.968 
103.982  75.177  76.155 
106.544  73.898  70.228 
102.863  76.785  76.318 
102.663  79.003  75.508 
102.792  77.830  74.925 
102.798  78.944  74.702 
102.108  80.316  75.427 
102.000  80.468  74.784 
101.370  81.204  75.448 
101.642  80.453  73.869 
101.285  81.322  74.120 
100.797  82.361  74.779 
99.651  83.404  75.208 
99.702  83.804  74.389 
98.724  84.475  74.506 
98.589  84.917  74.794 
97.852  85.907  75.300 
97.563  85.690  76.000 
97.392  86.881  74.614 
96.964  86.337  76.212 
96.399  87.078  76.121 
95.875  87.579  74.870 
95.873  88.378  75.412 
95.274  88.683  74.646 
94.583  90.401  74.959 
94.052  89.790  75.170 
94.041  90.850  75.260 
94.001  91.026  74.671 
92.062  92.343  75.584 
91.474  92.857  75.394 
91.596  91.815  76.193 
91.077  92.606  76.218 
90.817  94.111  75.511 
90.133  94.972  75.595 
89.315  94.896  75.686 
89.301  95.554  74.875 
88.889  96.289  75.269 
88.299  96.837  75.326 
87.490  97.494  76.021 
87.396  98.057  74.583 
82.045  98.978  78.769 
84.950  97.811  79.103 
86.225  99.197  74.815 
86.841  97.872  75.288 
74.411  101.596  79.346 
81.790  101.158  74.404 
79.279  102.696  75.478 
81.767  100.225  78.364 
80.950  101.436  75.811 
85.765  97.576  77.106 
66.991  106.649  75.839 
75.454  103.188  76.901 
71.890  102.981  78.588 
76.947  104.550  71.377 
76.274  104.983  72.026 
75.658  104.879  71.847 
65.650  107.641  72.528 
71.953  106.540  68.805 
70.861  107.222  69.273 
69.504  107.424  71.554 
71.959  106.473  70.419 
68.465  105.558  76.179 
74.568  104.799  75.347 
73.260  101.513  81.204 
71.820  102.829  79.182 
64.404  107.654  71.819 
65.100  109.468  61.328 
71.025  106.841  71.696 
69.077  106.016  75.200 
67.359  108.367  61.139 
70.954  102.833  79.224 
66.942  108.280  71.027 
57.319  106.917  77.860 
65.565  102.321  81.835 
67.313  104.332  78.331 
71.186  105.856  73.790 
62.202  109.411  66.592 
67.629  108.448  67.333 
59.758  103.465  81.727 
63.951  105.777  77.452 
61.871  106.601  76.911 
46.836  108.088  69.016 
57.702  105.036  80.353 
57.453  107.818  73.651 
58.908  105.152  78.888 
57.523  106.639  77.353 
58.034  108.368  70.634 
53.326  109.543  68.522 
58.666  108.790  70.141 
58.158  108.537  69.607 
50.136  108.707  66.464 
53.841  108.442  70.755 
55.720  108.945  69.811 
46.667  105.007  76.932 
55.239  108.586  71.847 
54.329  107.717  73.645 
40.351  103.781  73.077 
50.660  106.755  76.143 
45.856  107.198  69.276 
50.666  106.296  77.284 
40.212  96.661  86.215 
50.802  105.655  78.869 
48.012  106.564  74.533 
36.537  98.353  80.431 
56.727  106.394  77.750 
46.499  104.859  77.865 
40.588  97.856  85.026 
25.239  93.112  73.430 
34.013  94.839  83.385 
42.302  101.664  81.169 
27.239  94.695  75.351 
30.972  96.845  76.547 
28.548  95.372  75.900 
26.934  94.307  73.650 
23.707  92.053  70.544 
33.288  97.895  77.890 
31.220  97.289  74.938 
39.451  97.974  84.130 
26.197  90.649  80.218 
25.462  92.180  76.542 
28.196  93.436  79.446 
25.253  92.629  73.587 
24.735  89.058  79.117 
29.939  96.114  76.934 
28.404  94.722  75.359 
24.453  92.056  73.979 
26.458  90.744  81.093 
22.551  83.125  82.787 
22.266  85.825  80.660 
24.193  88.440  79.305 
17.719  78.967  77.905 
25.136  85.997  84.256 
20.251  79.561  82.173 
16.668  73.868  79.804 
21.324  90.274  71.887 
21.055  83.965  80.954 
22.094  81.548  82.270 
23.895  84.601  83.498 
17.969  82.209  73.989 
18.305  77.358  80.513 
23.675  90.505  75.229 
22.106  89.187  74.722 
19.548  77.137  82.948 
17.915  82.025  74.767 
17.052  74.509  80.299 
18.345  79.299  79.105 
14.801  72.218  75.947 
20.635  76.828  84.265 
14.234  70.052  75.727 
14.646  73.616  73.762 
14.864  65.324  80.142 
15.499  73.795  75.448 
15.671  69.886  80.507 
11.975  64.668  70.413 
14.852  71.480  74.250 
13.771  71.777  71.198 
16.920  71.412  80.918 
16.601  68.950  81.991 
17.746  75.218  81.123 
17.119  69.160  82.597 
17.723  68.087  84.022 
13.963  67.194  77.587 
13.614  67.923  75.922 
13.132  62.219  75.361 
14.811  70.059  76.052 
14.521  56.404  80.172 
11.994  59.687  71.666 
15.551  71.215  77.334 
12.651  60.138  75.100 
11.827  60.021  71.362 
13.451  51.554  73.843 
14.496  63.219  80.482 
16.166  70.405  80.962 
13.802  50.060  72.945 
12.529  58.173  75.202 
12.209  57.919  74.421 
13.090  53.458  75.953 
12.118  61.504  72.107 
12.639  54.132  72.370 
13.073  56.361  76.009 
17.962  45.229  81.957 
14.522  50.381  75.626 
20.616  44.616  85.035 
15.179  47.537  78.063 
19.081  41.874  80.685 
14.324  44.699  70.756 
16.120  42.989  76.608 
17.733  43.428  80.423 
17.015  42.042  76.185 
12.953  47.990  69.322 
14.405  45.379  69.206 
16.764  35.517  67.483 
17.738  51.967  83.877 
19.627  38.231  79.374 
14.161  41.036  62.868 
18.402  37.041  73.661 
17.483  49.335  83.134 
17.960  40.238  77.730 
24.299  31.829  80.504 
15.046  45.321  74.603 
20.022  39.833  81.761 
26.089  31.102  82.413 
21.800  36.029  83.073 
18.038  36.018  72.923 
18.592  43.040  81.374 
25.049  30.285  79.753 
19.321  37.627  77.075 
17.338  38.508  73.980 
19.826  32.116  72.409 
22.443  28.132  69.775 
21.264  31.606  73.387 
19.492  31.473  68.835 
25.542  27.853  76.232 
18.346  41.896  81.035 
21.299  29.536  69.373 
28.464  25.032  73.014 
27.055  25.734  74.712 
23.489  31.918  80.208 
26.138  25.905  72.772 
28.315  24.955  75.987 
25.158  26.480  69.838 
27.610  25.423  75.330 
26.915  25.408  73.946 
25.710  31.728  83.110 
30.826  23.004  77.819 
29.014  23.930  73.456 
31.706  20.176  70.896 
31.180  21.071  73.603 
32.098  20.760  72.159 
30.190  22.459  71.848 
33.072  19.515  73.002 
33.065  24.152  83.865 
34.922  18.244  71.927 
34.104  19.495  74.678 
34.659  18.788  72.471 
40.787  17.656  77.938 
46.074  16.350  82.786 
39.340  16.225  70.214 
36.980  17.879  74.592 
37.633  16.873  73.047 
40.903  17.329  78.326 
44.704  13.133  70.976 
40.708  15.729  73.223 
43.422  14.987  75.561 
57.849  13.949  82.666 
47.691  14.943  79.856 
47.157  11.743  67.974 
50.091  11.115  71.215 
40.083  16.766  75.437 
57.741  10.599  70.436 
50.498  10.618  69.184 
45.791  13.885  75.224 
44.963  12.446  68.389 
48.010  12.344  75.010 
55.255  11.366  75.338 
53.253  10.020  66.854 
48.147  11.596  72.174 
52.598  11.406  72.849 
54.932  9.499  66.930 
51.234  12.551  77.609 
51.204  12.098  73.714 
52.722  12.052  77.920 
53.518  12.177  78.309 
52.846  9.829  68.823 
59.084  11.248  75.066 
53.947  11.458  74.775 
55.434  10.059  67.852 
62.210  11.858  73.548 
59.445  10.570  68.156 
59.210  9.873  67.128 
65.126  11.995  74.908 
64.569  11.715  71.910 
62.020  11.331  71.383 
63.952  12.916  78.236 
64.359  11.835  70.887 
63.827  11.765  71.520 
69.789  11.952  71.721 
68.697  13.190  76.139 
63.107  11.201  71.009 
71.608  12.936  74.173 
66.209  12.592  75.669 
73.285  11.982  67.088 
68.229  11.445  69.622 
78.965  17.167  78.905 
78.110  14.033  70.116 
78.844  16.243  75.716 
69.974  11.257  66.433 
77.852  16.986  79.708 
80.441  17.422  78.555 
76.399  13.073  64.697 
76.027  14.387  71.377 
74.443  14.418  73.756 
70.829  14.307  79.424 
81.108  20.740  84.915 
71.222  14.704  79.955 
83.572  21.151  83.998 
81.086  16.895  76.264 
79.397  16.678  77.621 
78.736  14.313  69.428 
84.960  18.521  74.585 
86.754  18.771  70.134 
87.395  18.707  66.472 
82.045  17.975  75.264 
83.049  16.973  65.261 
84.519  17.192  64.176 
82.054  15.826  67.002 
85.238  20.045  76.251 
79.756  17.435  79.075 
83.114  16.996  70.936 
94.020  26.091  71.539 
76.878  13.645  68.177 
81.072  14.917  69.462 
97.248  27.711  68.561 
80.720  15.655  72.270 
96.461  31.664  79.995 
93.413  26.300  77.273 
91.733  23.759  73.124 
93.234  25.567  76.691 
96.651  27.441  69.762 
96.394  27.098  68.880 
96.965  31.950  77.398 
96.472  25.676  64.343 
93.892  26.566  74.232 
98.909  29.403  64.869 
98.966  36.025  81.205 
94.534  26.857  75.502 
98.478  34.437  79.451 
99.662  33.531  73.886 
98.414  31.041  72.414 
101.163  34.353  72.917 
96.217  25.890  65.432 
100.041  30.332  67.332 
106.706  48.218  73.323 
105.023  42.104  72.183 
103.009  38.954  74.321 
101.928  34.528  69.508 
105.991  46.562  73.920 
104.761  45.881  74.192 
100.150  39.185  81.246 
106.713  45.791  71.631 
105.464  51.470  76.573 
104.447  45.648  75.656 
102.724  42.745  77.072 
106.965  54.151  74.319 
106.251  49.800  74.394 
105.480  51.261  77.841 
109.018  52.991  69.916 
105.581  48.543  75.317 
106.577  46.517  71.131 
105.405  54.059  77.698 
107.531  46.412  69.337 
106.212  51.202  75.008 
106.524  49.288  73.856 
108.099  56.011  72.777 
109.461  55.318  69.221 
108.704  56.648  71.724 
107.662  54.616  73.575 
109.280  61.044  68.444 
109.612  57.758  69.966 
109.659  64.802  67.384 
109.572  54.801  64.701 
110.174  61.670  65.051 
109.677  58.158  69.082 
109.986  64.614  66.305 
107.249  59.263  76.166 
108.729  59.712  73.567 
109.341  58.812  71.622 
108.356  60.324  72.682 
109.159  54.863  70.652 
108.848  60.354  74.013 
108.903  63.386  68.930 
107.287  63.661  76.316 
107.741  67.652  76.206 
108.900  61.163  73.842 
108.306  72.402  67.070 
105.264  76.940  70.570 
105.181  70.794  79.010 
103.543  71.945  81.552 
103.260  74.402  77.848 
109.034  70.414  68.859 
109.498  68.089  63.577 
106.487  76.896  64.100 
104.871  75.684  74.093 
103.885  76.635  75.320 
104.010  77.382  74.650 
104.322  76.011  73.112 
103.260  78.236  73.843 
103.457  78.048  74.306 
102.631  79.970  73.685 
102.274  80.424  73.117 
102.061  79.562  74.408 
101.826  80.957  74.672 
101.922  80.802  73.472 
101.793  81.549  74.011 
101.134  81.681  74.423 
100.950  82.944  74.199 
100.451  83.433  74.056 
99.355  84.103  74.190 
97.984  84.742  75.113 
98.558  85.259  74.100 
97.902  85.908  74.438 
97.532  86.267  75.321 
96.993  87.077  74.110 
96.775  86.791  75.787 
96.299  86.953  75.210 
96.593  88.710  73.938 
96.306  88.338  74.557 
95.190  89.440  74.884 
94.406  89.874  74.251 
94.331  90.971  74.140 
93.918  90.955  73.818 
93.043  91.215  74.247 
92.646  91.934  74.245 
92.205  92.864  74.903 
91.323  92.524  74.873 
91.454  93.296  75.056 
90.418  94.526  74.765 
90.148  94.456  75.132 
90.197  95.391  74.447 
89.100  95.624  74.057 
88.054  96.032  75.277 
87.614  97.428  75.065 
88.135  97.450  74.291 
85.122  97.944  77.537 
86.706  97.604  76.975 
83.567  102.540  68.237 
83.991  98.997  77.478 
84.175  101.072  72.311 
84.323  101.214  71.763 
84.878  98.472  77.417 
77.199  101.695  79.036 
76.984  102.709  77.516 
78.351  102.682  75.773 
84.821  100.141  73.905 
78.174  103.697  72.119 
78.638  102.620  77.509 
80.206  103.330  70.939 
80.566  102.513  71.883 
78.924  102.821  73.205 
73.008  106.051  70.259 
74.085  102.279  79.280 
79.871  102.481  74.733 
68.916  107.212  71.248 
66.671  105.066  77.750 
71.064  105.644  75.241 
72.612  105.937  70.976 
69.282  108.160  67.412 
76.652  104.004  73.535 
65.428  108.274  69.606 
70.348  103.818  77.982 
70.836  106.899  70.072 
68.498  107.803  69.743 
68.750  107.935  68.867 
69.324  103.390  79.701 
67.756  108.622  68.224 
63.093  108.012  71.411 
73.885  105.187  72.802 
72.590  103.805  77.200 
68.669  104.309  77.553 
68.765  106.580  72.837 
63.570  108.098  72.817 
61.513  109.071  67.618 
67.735  106.943  74.455 
64.437  105.441  77.360 
66.038  107.930  71.193 
55.955  110.008  60.745 
65.432  105.601  77.622 
56.736  106.605  78.620 
59.304  106.690  77.302 
51.468  108.299  71.854 
55.349  107.968  72.314 
53.219  109.393  67.266 
48.327  108.044  64.194 
55.273  109.263  68.279 
48.676  103.375  81.697 
57.131  105.786  79.358 
47.394  107.670  69.196 
50.110  107.820  72.040 
48.826  105.615  77.077 
43.355  104.058  74.104 
46.002  104.684  77.574 
43.825  103.220  78.433 
49.630  103.112  82.578 
43.936  104.901  71.365 
42.234  102.878  76.343 
50.013  106.106  76.964 
43.378  104.778  73.650 
38.526  99.315  80.920 
48.084  106.207  76.239 
35.370  97.468  80.488 
33.655  98.734  75.562 
34.375  98.704  77.159 
39.411  103.080  71.989 
38.241  99.349  81.653 
41.261  103.811  73.389 
38.706  99.374  82.218 
28.457  95.801  74.720 
25.069  91.639  77.114 
27.779  89.292  84.105 
32.326  97.346  77.048 
29.863  97.808  69.963 
31.543  92.744  84.443 
24.320  91.561  75.766 
30.097  93.660  81.783 
31.444  96.400  78.203 
23.656  91.130  74.417 
