73.610  11.806  56.592 
73.810  12.454  55.256 
74.945  12.046  58.108 
70.196  12.599  46.358 
75.190  12.483  68.641 
76.194  13.711  51.830 
71.424  11.675  52.265 
75.889  14.458  51.358 
75.485  14.847  47.896 
78.473  14.875  52.599 
78.272  14.706  54.509 
75.008  12.425  54.784 
78.157  14.774  53.991 
79.502  15.070  54.299 
81.058  15.520  54.302 
81.506  16.061  53.830 
82.516  16.602  54.330 
82.401  16.482  55.361 
83.372  17.845  55.354 
85.045  18.161  55.477 
85.014  18.969  54.923 
85.955  19.907  53.500 
86.341  18.945  56.038 
86.812  20.910  53.282 
87.515  20.884  52.879 
88.393  22.058  53.834 
88.466  22.339  54.752 
89.953  23.027  55.480 
90.077  23.227  53.667 
92.151  24.105  55.051 
91.628  23.751  56.615 
89.677  22.164  55.667 
91.464  23.482  55.230 
92.599  24.133  56.252 
100.219  33.346  52.207 
92.929  25.463  52.384 
96.070  26.124  56.931 
96.373  25.394  59.228 
94.329  28.779  48.628 
94.115  27.609  51.065 
93.704  25.019  54.810 
95.990  27.104  54.140 
102.711  35.291  64.414 
94.235  26.730  52.487 
97.211  29.113  55.420 
97.134  29.691  53.355 
97.328  31.309  48.692 
101.708  33.970  54.834 
101.666  34.941  53.491 
99.291  33.412  51.250 
100.778  34.993  50.865 
101.209  35.710  51.161 
98.724  32.070  50.973 
102.328  36.100  52.655 
102.942  35.446  55.984 
103.291  36.348  55.886 
102.191  33.896  60.114 
102.665  35.953  57.700 
102.817  38.363  51.614 
103.678  38.670  56.044 
104.362  38.270  59.938 
105.029  40.240  58.361 
105.194  43.178  53.801 
104.775  42.318  53.525 
105.429  44.260  55.913 
106.203  46.293  54.081 
106.564  45.725  55.588 
106.469  46.193  56.276 
107.304  47.206  56.394 
107.368  47.015  57.607 
107.004  48.311  57.398 
106.897  49.204  57.101 
107.409  48.043  56.341 
107.648  49.497  57.098 
108.023  50.092  58.692 
108.366  50.712  58.006 
108.138  50.880  56.688 
108.162  51.574  57.064 
108.131  52.839  57.765 
108.349  53.725  58.092 
108.794  54.937  57.807 
109.014  54.400  58.008 
109.028  58.205  52.091 
108.949  58.837  54.533 
109.219  61.103  53.320 
108.616  55.870  53.788 
107.757  55.464  51.796 
108.589  62.198  52.426 
109.297  60.206  57.992 
109.344  59.654  54.022 
109.151  61.981  53.695 
110.009  59.494  57.270 
108.486  63.552  53.963 
108.162  65.320  54.569 
108.641  65.602  56.331 
108.795  66.174  57.369 
107.980  66.087  56.055 
108.431  67.790  56.437 
108.298  68.964  57.072 
108.272  68.705  56.286 
108.079  69.659  55.862 
107.928  71.249  55.842 
107.505  72.293  56.252 
106.921  73.624  56.064 
107.462  73.466  55.388 
107.055  74.203  55.010 
104.676  81.706  56.740 
105.416  79.438  54.661 
104.324  82.578  61.555 
106.300  74.669  53.227 
106.685  75.229  56.372 
104.559  79.508  50.211 
102.374  82.748  47.932 
105.781  78.332  55.083 
101.717  87.049  60.462 
102.875  84.624  53.921 
102.797  83.899  51.395 
100.568  87.618  63.254 
98.492  91.545  59.115 
97.262  91.942  58.996 
94.980  95.373  57.810 
97.452  91.954  59.575 
104.739  80.935  56.349 
96.649  92.800  57.781 
99.750  88.682  53.742 
101.280  85.647  51.018 
96.298  93.070  55.731 
96.464  92.747  53.905 
97.442  90.471  67.109 
97.989  88.796  68.707 
97.857  91.357  56.648 
91.835  97.398  54.866 
93.494  96.632  64.008 
94.472  95.215  58.383 
100.253  87.431  65.762 
93.789  95.360  51.692 
97.975  91.430  64.139 
97.633  89.238  49.424 
91.101  99.449  60.307 
84.759  102.961  57.992 
96.000  92.493  54.594 
93.071  97.011  60.108 
93.900  95.588  64.948 
93.821  95.626  55.132 
89.366  99.903  58.324 
89.604  98.640  51.474 
89.588  99.167  53.854 
90.480  98.877  56.981 
81.617  104.182  58.859 
91.841  98.311  59.655 
90.521  98.359  51.295 
86.725  101.582  55.491 
83.755  103.521  54.317 
92.576  96.939  54.737 
80.704  105.203  57.730 
88.233  100.016  50.748 
86.994  101.722  58.302 
77.646  105.404  49.943 
81.762  103.822  60.612 
87.335  101.282  59.365 
80.231  105.335  55.127 
77.474  106.684  58.401 
75.919  105.596  50.952 
77.872  105.870  58.601 
76.494  106.607  56.551 
80.790  105.161  53.551 
73.977  106.790  49.825 
79.352  105.127  59.163 
81.484  104.531  56.587 
78.172  104.861  48.028 
71.932  107.080  52.346 
79.801  105.509  57.939 
68.785  107.341  54.664 
70.050  106.338  48.035 
69.141  107.387  53.297 
69.911  107.389  56.665 
68.227  107.718  53.337 
67.111  107.971  54.531 
67.930  107.900  54.198 
66.722  108.429  55.132 
65.644  108.247  54.492 
65.367  108.439  55.682 
64.572  108.803  55.131 
63.722  109.052  56.043 
63.131  109.292  55.503 
61.854  109.041  55.751 
62.739  108.964  55.716 
59.271  109.342  61.042 
51.685  108.076  61.390 
59.611  108.969  52.227 
49.802  107.965  65.636 
58.889  109.049  56.032 
56.934  108.821  52.661 
55.885  109.021  55.004 
49.694  106.540  52.509 
51.989  108.005  53.562 
52.043  106.707  47.253 
50.415  105.610  48.755 
52.025  106.589  49.370 
42.677  105.550  67.375 
48.284  106.557  57.509 
47.246  106.888  60.729 
46.590  106.177  57.996 
44.292  105.765  59.770 
44.695  105.854  57.504 
45.209  106.067  58.601 
43.490  104.694  56.762 
45.194  105.800  56.293 
42.931  105.144  57.984 
42.530  105.188  59.877 
40.191  103.522  57.368 
39.862  103.717  56.577 
38.705  103.290  57.709 
39.374  103.733  56.823 
37.973  102.908  57.210 
37.139  103.062  58.151 
37.161  102.702  57.738 
36.355  102.156  56.868 
34.157  101.957  55.724 
31.440  100.255  62.174 
33.412  101.754  55.421 
36.488  102.238  69.112 
30.692  99.907  58.485 
30.183  99.842  59.211 
32.927  100.867  54.094 
32.103  101.218  59.628 
29.298  98.924  62.020 
34.155  100.364  48.642 
33.279  99.622  48.496 
30.035  99.732  57.261 
30.356  100.176  55.329 
26.764  97.259  57.508 
25.390  95.441  65.883 
25.697  96.364  61.223 
24.229  94.320  63.080 
22.269  92.917  63.469 
22.915  93.897  55.969 
24.331  95.496  54.880 
26.860  96.760  53.137 
26.351  96.594  56.742 
29.308  98.512  50.525 
28.621  99.172  57.978 
26.529  95.837  50.976 
20.243  89.262  51.936 
31.391  100.306  52.635 
25.210  95.563  52.919 
21.287  92.285  64.180 
22.508  93.693  55.080 
21.295  90.310  54.545 
17.858  86.220  57.630 
15.937  82.955  63.719 
16.957  84.963  62.753 
16.842  83.490  60.104 
16.600  84.649  62.556 
20.450  90.870  59.788 
16.825  83.541  58.172 
15.972  81.460  58.204 
16.026  82.182  58.930 
15.534  80.325  57.561 
15.246  80.668  58.529 
15.169  79.652  59.219 
14.840  78.945  59.762 
14.440  79.266  59.993 
13.966  78.038  60.373 
13.671  77.516  60.515 
14.033  77.486  59.786 
13.291  75.574  60.287 
13.702  76.255  60.634 
13.348  74.095  62.648 
14.279  76.894  62.191 
13.721  72.971  56.554 
11.799  71.154  62.122 
12.806  70.413  56.769 
13.181  71.306  56.383 
11.665  71.117  61.211 
11.936  69.186  57.932 
12.072  68.467  54.074 
12.296  72.214  63.382 
12.913  72.777  60.481 
12.589  73.837  63.028 
12.908  71.892  58.664 
12.502  72.555  61.695 
11.245  67.773  65.394 
11.754  65.383  55.336 
10.329  62.202  58.733 
11.860  71.248  62.913 
11.195  66.496  61.578 
11.488  65.422  56.453 
10.443  59.721  61.101 
11.732  55.278  65.144 
10.697  64.655  65.668 
10.386  61.073  61.235 
11.783  49.080  59.304 
10.716  57.570  62.663 
11.405  54.491  60.763 
11.940  56.916  71.310 
10.920  54.652  52.927 
11.619  48.238  53.430 
12.027  52.270  60.665 
11.683  50.955  55.465 
11.954  48.841  58.754 
14.221  48.399  47.964 
10.992  55.046  57.591 
11.730  47.797  56.997 
11.918  47.493  58.185 
13.059  43.939  56.471 
12.356  47.035  59.335 
13.232  43.643  53.751 
12.396  49.941  50.754 
12.199  44.908  57.984 
11.171  51.528  53.934 
12.615  42.253  56.820 
16.545  37.329  70.177 
17.524  33.578  55.500 
21.850  26.229  57.461 
15.911  35.711  56.076 
15.209  41.938  51.401 
17.785  34.795  70.791 
14.618  39.178  57.337 
17.588  33.029  63.838 
17.624  33.362  54.799 
20.412  28.514  62.933 
14.827  38.387  62.222 
22.411  29.528  47.447 
22.988  30.022  46.483 
15.729  35.960  59.914 
15.239  38.248  54.965 
21.562  28.080  53.982 
19.298  30.364  54.820 
20.682  31.706  48.644 
20.539  28.612  55.443 
23.226  26.281  52.159 
20.069  28.874  57.822 
24.598  24.039  55.785 
30.740  19.282  56.208 
35.010  16.777  57.551 
24.767  24.485  58.109 
34.000  17.228  55.733 
26.650  24.781  48.858 
26.706  23.192  51.241 
29.957  20.663  52.667 
31.161  20.465  52.057 
27.339  21.653  60.711 
22.734  26.348  54.174 
27.365  22.402  62.226 
32.108  18.077  59.387 
35.549  17.111  58.930 
30.621  19.721  60.568 
33.779  18.051  59.320 
39.722  14.744  57.746 
33.572  17.911  60.978 
40.120  14.709  54.219 
33.675  17.454  57.462 
39.506  16.475  52.028 
29.738  19.326  57.721 
37.804  17.863  50.118 
40.281  16.365  51.436 
36.048  16.410  54.876 
35.362  17.416  55.053 
39.779  14.746  56.589 
41.290  14.164  60.114 
42.794  13.898  57.627 
43.585  13.596  54.331 
42.779  14.542  56.105 
43.415  13.878  56.297 
44.200  13.888  54.536 
45.644  12.806  55.291 
45.797  13.210  56.113 
45.829  12.592  56.151 
47.189  12.641  55.376 
47.812  11.959  56.595 
48.802  11.582  56.592 
49.604  11.303  56.598 
50.354  11.465  57.034 
50.675  11.084  56.471 
51.245  11.673  57.713 
50.790  11.025  57.294 
50.339  10.889  58.592 
52.185  11.015  58.210 
54.445  9.305  59.406 
54.907  9.888  57.576 
55.296  9.089  59.544 
57.614  8.974  60.174 
54.633  9.302  62.435 
56.526  10.024  54.939 
55.024  10.890  51.270 
57.111  12.997  44.301 
59.801  9.342  57.032 
59.692  13.030  41.934 
55.324  13.058  43.561 
63.752  9.969  56.573 
69.897  12.296  48.296 
74.113  14.744  46.325 
66.978  10.364  56.005 
67.118  10.898  50.816 
70.430  11.153  55.881 
69.950  10.448  54.416 
69.544  12.487  45.946 
74.982  11.911  57.271 
70.039  11.273  52.917 
77.118  13.809  56.872 
71.888  13.349  47.102 
74.609  11.655  60.873 
69.197  10.523  55.629 
76.279  12.234  63.416 
76.490  12.407  64.352 
73.895  15.431  45.225 
77.744  14.788  52.312 
77.957  14.586  55.074 
78.629  14.518  55.497 
77.230  14.269  56.053 
76.856  15.149  51.101 
79.590  15.864  51.230 
80.566  15.676  53.666 
82.056  16.767  53.736 
81.680  16.437  53.037 
83.162  17.246  54.097 
83.468  18.108  53.815 
83.739  17.706  55.705 
85.084  18.588  53.824 
85.838  19.159  55.182 
85.421  19.059  53.048 
86.166  19.555  54.327 
86.794  20.752  52.725 
86.146  20.030  53.961 
89.650  22.706  53.759 
89.807  22.818  53.030 
90.765  23.040  55.024 
89.737  22.929  54.536 
90.724  23.261  54.332 
91.291  23.805  55.992 
94.256  26.375  52.148 
94.252  25.622  55.290 
91.682  24.535  53.160 
93.432  24.855  56.028 
94.672  28.508  49.520 
95.431  28.323  50.801 
101.325  34.010  54.187 
95.027  26.162  54.248 
95.256  27.273  52.347 
100.801  31.964  60.226 
94.256  26.286  52.844 
100.293  32.940  56.734 
97.932  31.005  51.792 
97.160  30.285  52.452 
96.775  27.967  54.813 
101.706  36.692  50.874 
98.094  29.520  57.296 
98.553  34.062  47.868 
102.179  36.638  51.752 
101.631  34.074  58.472 
102.083  35.036  56.954 
99.531  35.629  49.048 
102.081  34.548  55.649 
102.412  36.839  53.045 
101.749  34.124  57.675 
103.828  38.663  54.770 
101.484  34.541  54.230 
103.113  39.644  53.946 
102.998  37.719  53.812 
105.030  39.834  60.491 
105.618  42.694  57.941 
105.382  42.148  57.404 
104.011  43.055  52.219 
104.621  42.032  54.391 
105.085  43.601  52.826 
106.495  45.561  56.602 
106.692  46.724  55.955 
106.711  46.855  55.209 
106.657  47.278  57.229 
107.331  47.649  57.087 
106.972  47.787  55.750 
106.834  48.303  55.587 
107.281  48.586  55.960 
107.591  50.279  57.148 
107.950  50.271  56.427 
107.562  50.975  55.923 
108.607  52.321  57.312 
108.235  52.969  56.884 
108.941  53.107  57.709 
108.459  54.117  55.424 
109.383  55.495  56.904 
109.540  58.761  61.387 
109.846  58.566  55.141 
109.168  59.299  53.369 
108.650  57.588  51.971 
108.772  57.275  54.291 
110.111  57.221  57.930 
109.325  61.234  57.476 
108.967  64.005  56.246 
109.251  59.721  56.049 
109.917  61.073  57.871 
107.858  64.230  54.239 
108.342  64.901  53.324 
108.489  64.087  53.134 
107.445  66.260  55.218 
108.426  67.388  55.533 
107.916  68.066  55.783 
108.008  68.736  55.760 
108.141  69.097  55.232 
107.526  70.245  55.580 
107.391  70.954  55.207 
107.593  72.023  55.049 
107.441  72.701  54.918 
107.208  73.831  55.669 
105.922  74.342  53.411 
106.351  75.249  54.609 
106.408  74.371  54.473 
106.587  76.582  56.614 
106.321  74.751  49.938 
103.512  80.134  49.605 
105.881  76.317  52.326 
106.530  73.722  48.877 
103.567  82.864  59.130 
103.993  83.272  58.460 
105.588  78.799  56.349 
101.291  87.025  61.767 
102.792  84.800  56.761 
100.929  86.287  50.552 
101.710  86.550  60.502 
103.170  83.837  55.917 
98.456  91.513  57.681 
102.562  85.262  60.547 
102.098  85.637  61.754 
98.271  89.373  54.073 
97.655  88.861  46.934 
100.678  88.858  56.430 
90.060  98.039  49.461 
99.991  88.694  64.062 
99.762  89.300  63.481 
90.987  98.491  56.634 
95.885  92.322  67.079 
90.310  98.544  56.151 
94.395  93.952  51.341 
96.516  93.714  58.756 
91.176  97.841  51.312 
95.766  93.796  62.446 
91.524  95.358  47.831 
92.607  96.082  65.124 
94.630  90.746  42.918 
91.439  98.055  55.971 
88.880  97.098  46.917 
97.120  89.421  48.695 
92.731  97.218  62.864 
92.819  95.501  49.197 
89.581  99.883  62.628 
96.265  92.860  65.390 
90.219  99.664  60.398 
91.603  97.838  54.046 
90.462  98.837  54.969 
87.329  101.132  51.219 
89.707  99.683  52.640 
86.228  101.945  58.786 
91.080  97.951  52.341 
85.217  103.030  54.794 
85.779  102.333  58.160 
84.258  102.844  60.439 
77.234  106.443  52.488 
79.913  105.572  56.653 
79.220  105.790  57.240 
74.130  107.339  56.642 
78.990  105.251  58.175 
78.825  106.190  54.501 
79.816  104.360  49.491 
86.778  100.687  64.205 
77.946  105.967  53.464 
78.245  106.373  55.164 
77.343  106.381  55.708 
73.396  104.870  45.666 
77.261  106.458  56.560 
73.016  107.999  58.127 
72.945  107.050  54.609 
78.843  105.930  57.646 
73.822  106.275  48.901 
69.257  106.484  50.815 
67.362  107.821  53.136 
67.905  107.642  52.787 
67.853  107.503  51.962 
66.441  107.816  52.763 
66.330  107.996  54.114 
65.469  108.428  53.951 
64.696  108.305  54.370 
64.924  108.476  54.792 
63.447  108.313  54.691 
63.253  108.754  54.275 
62.540  108.955  54.833 
60.979  108.705  55.607 
56.767  109.402  56.263 
59.909  108.809  55.512 
54.491  109.026  61.115 
57.677  108.621  54.315 
54.859  108.335  53.513 
58.986  109.568  55.115 
58.715  108.821  51.798 
55.637  109.025  58.134 
56.261  109.190  59.457 
54.299  108.922  56.598 
48.825  106.006  54.826 
47.969  106.894  56.588 
54.310  108.788  60.122 
44.788  105.260  58.036 
44.505  105.725  61.577 
45.196  105.420  58.355 
46.205  105.966  57.724 
44.675  105.409  57.129 
44.353  104.988  57.940 
43.491  105.444  58.249 
43.375  105.574  59.760 
41.644  103.967  55.870 
44.426  105.783  58.299 
40.907  104.564  56.707 
40.351  104.252  56.794 
39.794  103.965  56.162 
38.224  103.494  56.850 
37.927  103.030  56.716 
37.666  103.330  57.490 
35.748  102.340  57.240 
35.974  102.518  54.350 
35.193  102.491  57.974 
25.968  96.684  57.874 
35.847  102.670  55.099 
33.144  100.221  49.668 
23.825  94.636  59.073 
22.109  92.584  59.356 
32.935  101.433  58.948 
31.859  101.047  53.551 
27.817  97.714  52.187 
29.356  99.500  59.367 
30.160  99.450  55.411 
22.516  92.661  64.236 
31.362  101.158  59.990 
26.581  96.692  64.238 
25.821  95.604  65.742 
33.732  101.257  52.585 
24.531  94.828  59.568 
22.331  91.243  70.227 
27.773  97.115  66.989 
27.634  97.838  56.564 
23.065  92.366  50.288 
30.600  99.773  51.461 
33.229  101.408  54.626 
19.835  88.991  55.375 
24.720  94.052  49.961 
18.295  88.112  64.595 
22.094  92.456  55.324 
25.202  95.144  53.345 
21.706  93.124  58.426 
19.942  88.329  52.555 
23.735  95.005  58.315 
16.902  85.309  62.343 
18.582  86.309  55.972 
17.872  86.187  58.219 
17.861  84.609  59.137 
17.242  84.336  57.670 
17.797  83.897  58.600 
16.324  82.422  58.146 
16.744  82.681  58.902 
15.615  81.350  58.623 
15.090  79.862  58.297 
14.835  79.370  58.736 
14.371  78.783  58.882 
14.699  78.447  59.017 
14.287  77.723  58.448 
14.213  77.895  58.966 
13.629  76.356  59.679 
13.341  76.401  60.297 
13.596  76.649  58.922 
13.930  76.203  62.124 
13.519  76.493  61.318 
13.210  75.050  59.339 
13.820  73.303  55.581 
12.724  72.239  57.532 
13.699  73.964  58.100 
12.957  72.988  63.964 
13.278  74.602  58.620 
12.463  71.104  60.585 
12.851  74.476  63.589 
12.047  69.414  60.844 
10.743  64.339  57.820 
11.924  68.364  57.464 
11.874  67.741  69.248 
12.445  71.508  66.551 
10.884  63.402  64.767 
10.829  57.963  55.932 
11.826  69.996  58.198 
10.588  64.397  56.341 
10.316  56.925  54.891 
10.723  59.070  60.066 
10.891  55.658  55.568 
12.207  69.201  59.551 
11.510  54.380  49.834 
10.865  58.882  60.854 
11.649  62.663  53.837 
11.383  51.105  59.230 
12.074  51.091  57.876 
10.660  55.215  54.855 
13.870  41.884  58.744 
11.582  47.968  58.547 
11.520  49.835  59.464 
11.432  51.475  58.456 
11.589  50.329  59.512 
10.708  59.479  52.975 
10.584  57.018  52.505 
13.452  49.267  48.009 
11.605  49.041  55.987 
11.926  48.210  56.497 
12.595  44.089  56.252 
13.891  43.312  58.864 
14.060  42.627  54.332 
14.829  40.184  63.116 
11.944  48.746  53.936 
15.051  39.152  58.186 
19.559  29.879  58.425 
13.930  41.324  57.570 
18.346  31.781  64.229 
13.026  53.034  46.063 
14.862  38.409  61.011 
17.814  32.463  59.242 
15.721  37.179  55.485 
18.705  31.076  53.400 
16.729  34.900  56.866 
17.699  32.866  65.868 
20.205  29.462  55.765 
22.483  30.327  48.592 
23.016  27.181  50.484 
19.190  33.133  51.710 
16.494  37.214  52.397 
17.473  33.594  61.597 
25.487  24.897  48.771 
19.688  30.008  53.498 
25.084  25.741  50.361 
25.583  23.739  52.845 
26.974  22.002  58.032 
21.172  27.468  61.917 
30.700  21.953  49.668 
28.415  20.764  55.381 
25.245  25.843  47.094 
30.708  19.527  57.232 
30.660  19.798  54.741 
28.559  20.142  60.313 
26.784  23.868  50.099 
22.671  30.390  46.333 
36.708  16.532  60.185 
30.720  20.889  51.537 
31.493  19.818  53.225 
36.141  16.224  59.699 
32.621  20.211  51.443 
32.526  18.824  59.263 
30.520  22.318  48.521 
34.850  16.812  58.378 
38.324  15.779  53.532 
35.650  18.651  51.160 
27.665  23.077  50.446 
38.524  14.780  60.956 
41.392  16.306  49.096 
37.510  16.235  53.581 
42.413  14.584  53.904 
41.058  14.445  55.140 
37.781  15.350  53.933 
42.197  15.212  52.679 
36.308  17.215  52.125 
42.791  14.311  55.140 
42.899  13.955  54.248 
44.298  13.396  55.361 
44.541  13.230  54.111 
44.659  13.373  56.005 
45.636  12.805  53.838 
46.520  13.048  55.868 
47.488  13.014  54.896 
47.840  12.180  55.432 
48.845  11.859  55.622 
49.501  12.242  56.189 
49.560  11.494  55.778 
50.111  11.347  56.246 
50.915  10.962  56.069 
51.535  10.661  57.825 
52.042  10.660  57.260 
52.594  10.119  57.035 
53.669  10.016  54.841 
53.297  9.990  59.720 
58.811  9.393  57.467 
52.954  10.122  57.526 
56.032  9.101  60.804 
74.265  14.321  48.487 
62.663  12.030  44.360 
67.939  10.480  59.640 
64.177  11.485  48.398 
66.447  11.714  47.398 
75.745  12.250  59.209 
73.786  14.685  45.642 
61.196  10.375  51.512 
73.605  11.296  57.922 
69.433  10.917  55.338 
65.128  11.029  51.732 
68.529  11.654  48.855 
63.294  9.902  54.921 
71.989  11.632  50.703 
72.678  11.921  52.806 
69.609  11.975  47.936 
77.351  12.638  65.431 
76.456  14.993  49.128 
74.184  12.005  54.890 
75.740  13.361  54.111 
71.086  11.060  56.085 
75.464  13.185  52.488 
74.555  12.235  61.599 
79.130  15.803  51.552 
76.479  14.637  51.934 
78.807  15.390  54.831 
75.212  13.435  54.400 
80.912  16.768  52.107 
80.219  15.674  52.052 
80.684  15.458  55.008 
80.468  16.165  52.583 
81.531  16.752  53.436 
81.017  16.109  52.498 
82.795  17.508  52.946 
84.192  18.227  55.267 
84.977  18.233  54.598 
84.508  18.425  54.138 
85.825  19.918  52.557 
85.501  19.301  54.704 
87.818  21.589  52.450 
87.175  20.348  53.557 
87.758  21.342  53.627 
90.908  23.210  53.876 
89.201  22.283  53.311 
90.873  23.364  52.988 
90.882  23.015  55.664 
91.676  24.574  52.135 
92.110  23.897  55.582 
96.280  26.792  56.367 
92.261  24.437  53.397 
92.211  25.304  50.218 
92.821  24.735  53.990 
92.336  25.072  51.888 
94.353  26.303  55.720 
93.333  25.374  53.733 
96.975  30.003  51.078 
95.228  28.925  50.009 
95.814  29.507  49.925 
94.331  27.147  51.091 
100.403  33.156  54.136 
96.450  31.473  47.866 
99.876  31.427  55.572 
97.716  29.506  53.012 
102.126  36.838  52.269 
99.222  32.903  51.282 
97.938  35.312  46.836 
102.283  34.300  56.481 
100.714  32.694  54.353 
98.899  29.451  58.311 
99.467  35.626  48.299 
103.791  38.240  56.149 
104.007  40.180  54.687 
100.408  36.170  49.783 
103.278  38.981  54.784 
103.366  39.961  53.004 
104.132  40.616  55.491 
103.375  36.799  56.157 
104.108  40.401  54.255 
104.591  41.644  55.293 
105.686  43.978  53.949 
104.800  42.817  53.235 
106.614  46.209  55.829 
104.610  43.221  54.384 
106.075  45.756  52.899 
106.050  44.266  55.699 
106.462  46.328  54.640 
106.834  47.389  55.412 
106.955  48.020  56.521 
107.153  48.260  54.988 
107.005  49.152  55.243 
107.252  48.729  56.834 
107.941  49.964  55.691 
108.126  51.065  55.802 
107.977  52.163  56.228 
108.468  53.094  55.962 
108.584  52.567  56.212 
108.790  53.996  57.315 
108.798  54.377  56.438 
108.914  58.304  53.731 
109.638  54.808  58.082 
110.027  54.956  61.000 
108.210  58.889  48.429 
109.313  59.292  60.105 
109.637  57.163  57.728 
108.837  62.381  53.856 
108.675  61.541  49.262 
109.427  58.936  55.074 
108.805  62.953  51.272 
108.383  64.081  55.844 
108.005  65.678  50.250 
107.644  65.399  52.062 
107.831  66.839  53.238 
107.934  67.156  54.052 
108.045  67.539  54.927 
107.921  68.481  54.883 
107.663  69.347  55.202 
107.894  70.491  55.350 
107.784  71.345  54.843 
107.343  70.987  54.244 
107.460  72.161  53.343 
107.449  72.668  54.028 
107.096  74.052  54.508 
106.759  73.412  53.089 
105.329  79.391  54.001 
106.437  75.737  54.600 
105.662  76.054  51.294 
104.934  77.941  51.829 
103.993  82.107  58.447 
102.430  81.573  49.154 
104.676  79.926  54.392 
103.242  82.389  51.808 
102.907  84.021  54.658 
103.611  82.882  54.999 
103.646  82.216  53.234 
103.151  84.558  59.497 
98.982  89.191  56.909 
98.418  89.100  51.606 
101.762  86.815  56.341 
96.802  91.991  54.347 
99.889  88.862  58.635 
96.083  93.842  60.308 
96.134  93.817  58.108 
102.190  79.447  42.355 
96.287  91.407  50.939 
97.982  89.720  50.742 
99.936  88.180  51.430 
99.252  89.951  63.099 
100.278  87.199  53.376 
93.056  96.447  52.947 
99.693  89.582  58.249 
95.453  94.007  64.870 
94.399  95.057  55.695 
94.941  92.365  49.607 
99.372  90.920  59.134 
93.992  95.874  54.711 
94.350  94.330  52.465 
90.626  98.845  59.893 
92.118  96.613  51.124 
85.634  102.749  55.486 
92.195  98.068  61.049 
93.418  94.525  51.323 
95.024  94.217  62.804 
94.298  95.781  61.210 
90.080  99.923  61.281 
90.747  98.136  53.671 
88.798  97.853  48.522 
82.989  103.414  55.350 
91.149  98.366  62.756 
88.863  100.028  54.428 
78.838  106.268  55.749 
85.190  102.563  54.222 
78.151  106.390  57.189 
73.678  103.593  39.655 
79.827  104.936  59.497 
83.397  103.879  58.915 
81.340  104.412  61.903 
77.341  106.609  53.398 
76.934  106.848  57.928 
78.615  103.801  47.345 
75.707  107.197  56.863 
74.179  107.193  57.505 
78.050  104.171  46.117 
77.365  105.157  49.266 
73.283  107.678  56.057 
82.995  104.245  56.385 
75.572  106.954  57.689 
74.207  107.481  57.914 
70.686  106.510  52.450 
71.827  105.834  46.531 
70.865  106.424  50.317 
67.924  106.903  51.393 
68.442  106.731  50.730 
69.675  107.449  53.911 
68.223  106.692  52.215 
66.869  108.360  53.420 
66.213  108.307  52.862 
65.711  108.119  53.340 
64.699  108.224  53.515 
63.882  108.053  54.061 
63.365  108.889  53.347 
62.719  109.357  54.693 
62.521  109.503  55.447 
61.867  108.918  55.053 
61.123  109.065  55.074 
54.929  108.401  50.704 
50.824  108.308  58.568 
53.691  107.320  49.210 
57.457  109.260  55.563 
59.538  108.964  55.965 
53.723  108.911  60.739 
51.319  108.227  60.041 
54.161  107.194  51.204 
49.977  107.039  55.376 
48.608  106.532  56.318 
46.881  105.728  57.709 
48.286  107.077  58.085 
45.702  106.027  57.741 
47.136  106.824  59.934 
47.433  106.060  57.056 
49.991  107.598  66.323 
43.451  105.128  55.465 
44.040  105.388  56.925 
45.425  105.816  57.000 
43.407  105.437  57.385 
42.415  104.643  54.483 
42.484  105.167  57.403 
40.855  104.366  56.005 
40.387  104.204  56.038 
39.237  103.283  55.859 
38.526  103.309  56.007 
37.654  103.423  55.985 
37.363  103.395  56.796 
36.736  103.075  57.259 
34.861  102.374  55.520 
33.272  100.699  51.478 
35.528  102.241  55.663 
28.690  98.852  66.274 
35.934  102.911  57.751 
29.098  98.741  57.221 
34.599  101.984  59.794 
34.537  102.218  56.656 
27.639  97.954  65.885 
27.767  97.990  61.921 
25.165  95.243  50.376 
33.628  101.847  61.304 
34.231  102.310  60.990 
27.252  97.742  58.585 
33.803  101.525  58.657 
22.365  92.570  65.591 
23.411  94.188  57.023 
32.703  101.499  57.344 
30.841  100.325  57.681 
19.296  89.595  58.193 
27.676  97.336  51.807 
29.852  98.656  53.045 
30.655  99.711  49.967 
25.250  95.875  60.649 
29.927  98.159  54.679 
25.715  96.623  58.812 
20.818  90.661  53.280 
19.100  89.076  58.281 
20.242  88.331  50.335 
18.662  86.824  56.214 
18.715  88.012  61.334 
20.679  88.360  52.148 
17.632  85.145  62.055 
21.396  91.927  57.574 
19.135  88.143  55.854 
17.209  83.758  57.371 
17.133  83.047  57.814 
16.462  82.880  58.148 
16.467  82.715  57.383 
16.415  81.226  57.593 
15.845  81.337  57.410 
15.541  80.321  58.224 
14.900  78.915  57.436 
14.950  78.852  58.142 
14.561  78.506  58.168 
14.467  77.708  57.890 
14.026  77.169  58.360 
14.233  76.570  59.376 
13.149  75.128  59.833 
13.307  75.618  61.885 
12.221  71.276  61.511 
13.403  73.592  57.189 
14.466  75.022  54.833 
14.254  72.162  50.976 
12.843  69.232  54.118 
13.062  72.939  57.592 
13.004  73.669  57.921 
13.334  72.098  51.067 
13.264  74.868  62.388 
11.838  69.362  57.064 
11.864  68.090  54.409 
10.835  58.968  67.261 
11.781  68.068  55.987 
11.407  67.206  57.967 
12.941  73.397  60.013 
11.083  66.126  57.074 
10.843  61.625  59.805 
10.798  58.035  63.648 
11.712  68.753  57.663 
11.051  54.281  59.478 
11.009  58.467  61.530 
11.142  59.525  56.602 
10.282  59.531  62.876 
12.096  51.561  60.148 
11.766  53.419  60.070 
11.013  54.156  60.004 
11.769  48.425  54.823 
12.092  67.674  55.235 
12.818  49.679  51.513 
11.604  48.143  59.084 
13.499  50.219  48.132 
13.483  53.689  41.778 
11.394  55.121  49.446 
12.175  47.611  53.383 
10.911  53.985  55.510 
12.659  48.207  50.155 
12.883  46.845  53.516 
14.066  50.672  44.824 
10.792  53.827  57.135 
12.212  45.443  56.441 
12.016  47.157  57.206 
14.728  43.402  51.632 
16.203  36.134  66.636 
15.245  37.818  59.458 
14.638  40.814  62.450 
16.399  36.678  54.143 
15.942  38.399  66.788 
14.783  38.121  57.349 
17.062  33.939  58.946 
15.281  39.743  62.706 
15.587  35.933  60.827 
14.580  38.669  57.285 
16.818  35.676  55.159 
15.400  37.602  56.880 
16.387  39.099  51.347 
21.925  28.740  51.779 
20.385  28.612  59.292 
20.287  29.873  52.801 
24.516  25.810  49.472 
18.530  31.647  56.358 
22.548  29.671  49.917 
22.595  27.969  50.121 
23.501  25.493  54.371 
24.537  24.057  57.350 
26.170  22.983  56.935 
28.171  22.043  55.126 
21.740  28.263  58.683 
26.115  22.889  54.668 
24.997  24.440  54.488 
29.503  23.568  48.852 
27.766  21.299  58.129 
36.205  18.117  50.719 
30.055  23.858  46.903 
24.668  25.173  52.490 
29.005  20.537  54.780 
34.695  19.163  52.206 
33.870  19.205  50.973 
33.127  20.278  49.824 
33.594  18.644  54.100 
31.142  19.399  56.988 
37.512  16.118  60.352 
36.776  15.856  58.818 
41.527  13.324  60.686 
35.223  17.319  60.855 
37.116  16.073  57.551 
37.938  17.429  50.349 
40.064  17.040  50.093 
44.389  14.578  51.459 
38.556  16.591  51.511 
37.072  16.198  56.057 
40.843  14.435  57.376 
33.676  17.392  56.588 
42.680  14.662  51.317 
44.191  13.745  52.370 
43.522  14.056  52.957 
41.852  15.450  50.273 
41.946  14.072  56.069 
44.902  13.513  54.070 
45.347  13.534  54.774 
45.015  13.141  55.011 
46.667  13.135  54.290 
46.819  12.759  54.572 
48.085  11.958  55.875 
49.051  12.411  55.201 
50.205  11.863  54.257 
49.874  12.005  55.212 
50.544  11.361  55.559 
51.109  10.846  55.225 
51.501  11.201  56.817 
51.856  10.493  56.516 
54.155  10.581  53.586 
53.994  9.973  54.466 
56.339  10.580  51.978 
53.701  9.704  56.076 
62.693  11.421  46.585 
60.211  10.882  49.213 
65.315  11.551  46.502 
60.529  9.557  55.383 
73.001  12.014  50.633 
63.003  10.332  58.936 
59.142  10.494  51.806 
66.157  10.839  53.631 
67.276  10.649  51.586 
65.821  10.007  53.931 
64.631  11.061  49.021 
59.367  12.247  46.048 
69.104  10.499  52.550 
64.032  12.125  45.499 
75.099  11.845  58.939 
75.628  12.528  63.156 
72.151  11.575  57.825 
71.046  10.731  59.685 
67.081  11.395  49.103 
72.424  12.067  53.659 
77.688  14.869  53.023 
75.428  12.666  57.002 
74.534  11.457  59.984 
78.468  16.060  49.161 
77.955  16.176  49.029 
80.363  16.827  48.345 
76.303  13.330  55.894 
78.949  14.846  54.142 
81.209  16.428  51.891 
77.544  16.387  47.301 
80.354  15.715  52.862 
80.372  16.498  51.796 
82.176  16.648  51.743 
81.046  16.935  51.077 
83.626  18.439  52.304 
82.889  17.239  54.650 
83.518  17.503  54.316 
83.364  17.441  53.073 
84.404  18.240  53.456 
85.418  19.445  53.941 
86.117  20.243  52.858 
86.857  20.783  52.180 
87.088  20.954  51.331 
88.167  21.454  52.721 
88.731  22.466  53.252 
90.386  23.358  52.677 
90.860  23.981  53.079 
91.535  23.677  54.283 
90.291  24.236  51.388 
91.958  24.337  53.845 
92.217  24.124  54.216 
93.339  26.494  50.709 
93.045  25.924  51.668 
94.102  28.931  49.052 
92.884  26.119  51.099 
95.526  26.678  54.803 
93.859  28.136  48.151 
95.760  29.972  50.248 
93.825  26.961  51.561 
94.729  27.867  51.601 
94.014  26.583  53.448 
98.587  31.767  51.949 
95.908  30.336  48.486 
98.288  32.347  48.931 
100.624  34.010  54.515 
94.138  25.801  54.811 
99.902  32.378  54.107 
96.955  31.628  47.532 
97.506  31.217  50.090 
99.928  35.207  49.833 
97.496  31.055  50.989 
99.430  34.404  50.115 
101.487  35.091  52.039 
102.806  38.359  53.218 
103.475  40.001  53.927 
103.284  39.519  52.780 
102.738  37.622  52.205 
101.903  34.294  60.701 
104.857  40.441  59.627 
103.714  40.912  53.547 
105.362  43.637  54.414 
104.539  43.134  52.406 
105.056  42.797  54.460 
104.313  43.431  53.086 
105.212  42.939  55.317 
106.132  45.494  54.862 
106.652  47.268  53.292 
106.631  46.928  54.096 
106.244  47.436  55.379 
106.683  47.608  54.561 
107.052  48.947  54.517 
107.554  49.404  55.499 
107.222  49.384  56.260 
107.691  50.333  55.535 
108.315  51.612  55.369 
108.546  51.773  55.838 
108.547  53.231  55.509 
108.816  53.306  56.727 
107.967  55.351  54.107 
109.936  57.816  57.214 
109.233  60.074  52.907 
109.258  56.308  57.540 
109.706  60.732  59.829 
109.501  60.669  56.663 
108.069  59.837  48.238 
109.228  57.331  54.944 
106.476  55.081  44.921 
108.782  63.485  52.681 
108.755  63.640  51.795 
108.282  64.634  54.114 
108.059  65.131  52.493 
107.435  66.226  51.913 
108.468  64.760  51.718 
107.429  65.951  53.330 
108.079  66.340  54.452 
107.393  67.799  54.501 
107.680  68.550  54.425 
107.997  69.882  54.687 
107.810  70.903  54.458 
107.707  71.461  53.504 
107.752  71.768  54.130 
106.764  72.967  53.684 
106.636  72.601  50.509 
107.144  73.573  53.905 
106.822  72.905  52.772 
106.952  73.349  54.803 
106.166  77.032  53.578 
106.185  76.148  53.950 
103.089  82.744  50.939 
102.690  85.125  54.660 
102.030  84.231  52.767 
104.033  75.690  43.874 
104.154  83.401  56.924 
104.812  81.583  54.452 
105.284  79.688  55.589 
102.951  84.046  53.989 
98.948  85.520  44.782 
99.834  87.622  55.239 
105.677  78.119  52.476 
96.348  92.102  53.786 
95.645  94.683  55.687 
103.354  83.123  51.658 
101.915  86.163  57.538 
97.991  89.698  52.599 
101.882  83.454  47.349 
93.972  93.226  48.934 
96.323  92.902  58.672 
100.579  86.873  49.868 
100.184  86.798  48.276 
97.316  92.758  59.346 
94.143  95.780  56.374 
95.554  93.984  63.563 
98.665  88.409  49.300 
89.084  99.820  52.151 
93.827  95.350  64.008 
96.324  91.667  49.858 
91.159  97.895  53.715 
96.316  92.349  49.264 
92.809  93.442  45.391 
97.086  91.213  54.400 
97.243  92.560  56.654 
97.543  90.948  55.720 
89.896  99.491  54.552 
95.785  93.420  54.392 
93.381  95.986  57.309 
89.484  99.492  63.304 
85.864  102.228  59.529 
88.434  98.891  50.840 
73.878  107.585  58.340 
86.440  101.581  54.560 
86.556  101.613  61.240 
89.281  100.477  56.424 
83.321  102.629  51.406 
75.276  106.674  51.368 
78.234  106.323  56.205 
80.678  104.737  59.788 
73.641  107.914  59.709 
82.364  103.581  57.587 
76.647  106.783  52.529 
75.370  106.803  53.013 
87.168  102.235  56.033 
74.462  107.377  53.708 
77.043  106.252  59.964 
76.270  106.062  54.801 
71.913  106.645  53.086 
82.873  104.296  54.538 
73.712  106.509  54.046 
74.267  106.711  55.780 
74.629  106.550  50.258 
75.713  106.299  50.487 
68.107  106.611  48.556 
76.020  105.156  47.716 
69.348  106.639  50.101 
67.405  107.484  51.170 
67.192  107.140  50.883 
67.173  107.998  52.659 
65.769  107.754  52.217 
65.346  107.984  52.611 
64.855  108.366  53.062 
64.375  108.632  53.585 
63.647  108.197  53.635 
62.564  108.870  53.812 
62.071  109.130  54.605 
61.277  109.057  54.326 
61.728  109.079  53.880 
61.591  109.220  56.656 
54.040  108.475  57.315 
54.971  107.859  52.187 
55.984  108.317  49.249 
55.422  107.995  46.734 
54.486  108.122  55.456 
52.598  108.004  55.255 
54.615  107.676  47.813 
51.434  107.936  54.571 
56.507  109.473  59.890 
50.749  107.349  53.377 
46.666  105.930  55.893 
49.884  107.523  56.071 
47.847  106.853  58.338 
45.039  105.556  54.668 
46.961  105.964  56.402 
44.702  105.588  56.434 
43.412  105.152  56.486 
42.119  105.068  56.630 
42.739  105.191  57.007 
43.848  105.840  60.497 
41.606  104.768  57.444 
41.858  104.723  56.797 
40.932  104.156  55.454 
39.522  103.695  55.084 
38.925  103.654  55.042 
38.281  102.927  56.027 
37.141  103.097  55.596 
36.813  102.816  56.315 
34.659  101.421  54.837 
34.249  101.833  63.524 
30.447  99.398  50.681 
36.103  101.702  52.709 
29.080  99.274  61.670 
35.034  100.073  48.256 
23.217  93.360  64.449 
30.459  99.310  66.827 
30.784  96.713  43.925 
33.027  101.184  51.846 
30.404  99.325  59.696 
35.406  101.445  54.514 
30.938  98.517  48.240 
25.001  94.866  52.329 
26.471  96.977  61.516 
27.296  96.716  52.157 
21.359  91.633  67.404 
26.623  97.212  63.627 
32.070  100.612  53.829 
34.143  98.830  43.566 
27.134  97.863  57.779 
36.067  101.076  50.960 
33.284  101.760  58.102 
22.295  92.967  54.641 
24.733  95.548  59.272 
24.714  95.248  61.819 
29.210  98.601  56.418 
19.269  88.940  56.265 
21.443  91.092  56.647 
21.796  91.398  52.534 
19.763  88.010  55.418 
18.267  86.758  56.647 
22.369  93.283  56.383 
17.704  84.417  59.857 
17.838  85.761  56.719 
17.552  85.455  58.173 
17.313  84.370  56.933 
17.588  83.165  56.947 
16.823  82.340  57.110 
16.236  82.046  57.698 
15.693  81.041  56.978 
15.691  80.778  57.562 
15.617  79.729  57.028 
15.475  79.632  57.487 
15.169  78.275  58.088 
15.135  78.437  56.573 
14.380  77.275  57.554 
14.173  76.574  57.837 
13.534  75.986  57.879 
14.039  76.022  58.784 
13.377  74.936  57.831 
13.274  74.439  56.353 
13.109  75.924  58.893 
13.005  72.320  56.116 
10.896  65.548  58.265 
12.212  70.311  55.430 
12.722  70.332  52.646 
11.633  66.518  53.969 
12.715  72.099  61.559 
12.529  73.391  65.622 
13.112  72.564  53.763 
12.110  71.379  59.707 
12.403  69.393  52.878 
10.858  64.044  55.604 
10.668  61.970  59.409 
10.901  63.798  56.641 
10.590  62.187  57.822 
10.610  64.428  63.777 
10.787  65.607  67.260 
11.505  67.033  55.644 
11.400  66.943  58.591 
10.959  54.900  51.455 
11.028  53.039  58.364 
10.588  58.940  56.791 
10.974  54.217  56.390 
10.976  64.304  54.862 
11.005  51.121  54.620 
11.643  52.522  53.265 
11.771  51.626  52.572 
12.370  53.981  63.230 
11.610  54.552  51.720 
10.596  54.407  54.317 
13.220  54.266  44.678 
11.411  55.214  62.813 
13.607  44.702  51.996 
11.270  52.344  57.627 
11.625  49.942  53.905 
13.299  41.463  55.500 
11.236  53.894  50.405 
11.448  53.821  52.043 
12.489  45.433  59.104 
15.530  40.675  51.533 
11.877  49.251  55.089 
17.596  36.953  51.352 
12.022  47.084  54.031 
14.406  41.348  54.420 
17.563  34.173  63.074 
18.048  31.695  60.839 
15.331  36.960  59.866 
13.533  45.723  51.649 
15.052  42.438  52.359 
19.403  31.835  52.825 
12.814  43.312  58.195 
22.068  29.741  48.949 
21.631  28.944  50.795 
20.190  30.404  52.183 
22.377  26.518  62.431 
16.414  37.073  53.241 
21.639  29.959  50.223 
21.135  28.073  59.727 
21.757  26.890  63.193 
25.892  23.050  56.046 
14.649  39.458  59.207 
27.077  22.937  53.405 
28.835  20.557  58.712 
21.822  28.181  53.155 
20.949  33.366  47.240 
22.935  28.402  49.091 
24.457  24.372  54.980 
15.445  36.915  57.614 
22.651  27.036  54.022 
24.133  25.747  50.613 
31.594  18.325  56.359 
28.496  24.779  46.002 
36.425  18.310  49.921 
29.961  20.659  61.206 
29.895  22.083  49.988 
25.321  24.507  50.570 
25.353  22.861  60.230 
30.354  19.301  58.748 
29.682  19.681  59.139 
33.149  17.526  58.593 
38.990  15.212  54.278 
34.266  17.513  57.988 
38.597  15.553  55.877 
36.957  18.157  51.056 
32.822  19.738  51.444 
41.842  16.068  49.134 
38.519  17.310  49.753 
46.465  14.047  51.422 
38.877  16.726  50.613 
43.594  14.570  53.436 
46.276  13.457  50.281 
42.346  14.957  50.594 
41.126  14.969  54.355 
43.645  14.375  52.120 
43.330  14.924  51.857 
43.830  13.812  53.846 
45.211  13.284  53.122 
45.824  12.755  54.611 
47.261  12.554  53.708 
47.696  12.382  54.557 
48.601  12.171  54.680 
47.899  12.336  54.110 
49.241  11.820  54.340 
50.407  11.541  55.041 
50.980  10.997  54.771 
52.003  11.174  55.162 
51.394  11.093  56.105 
52.969  10.357  55.132 
51.876  10.528  55.698 
55.863  9.720  53.208 
53.212  10.154  58.003 
57.108  9.736  57.743 
55.410  9.232  57.589 
64.842  10.817  49.662 
68.641  10.344  55.022 
57.529  11.299  50.988 
56.709  10.173  53.189 
52.367  12.798  45.088 
66.883  12.442  45.051 
64.123  10.634  50.877 
62.525  10.394  51.471 
56.195  11.360  49.549 
70.931  11.202  51.698 
71.470  11.095  54.548 
58.325  10.262  51.442 
68.169  12.603  45.080 
70.902  14.772  42.776 
74.087  12.905  51.195 
68.933  11.921  47.208 
72.221  12.196  49.948 
74.885  12.643  55.332 
76.924  15.268  49.740 
78.899  15.379  53.811 
74.831  13.011  53.849 
74.035  13.179  50.674 
77.392  15.472  49.141 
79.905  16.326  50.476 
76.840  16.370  47.125 
77.436  17.061  45.226 
79.569  16.741  49.809 
74.665  14.075  49.215 
77.370  15.174  50.857 
79.446  15.019  55.651 
80.472  16.070  50.410 
81.774  16.427  52.129 
80.979  15.901  53.263 
82.742  17.670  51.856 
83.168  17.262  53.597 
83.736  18.661  53.164 
84.174  18.046  54.355 
84.702  18.896  53.555 
84.939  19.025  51.175 
86.725  20.288  51.807 
85.460  19.662  51.638 
87.355  20.939  52.036 
87.573  21.727  51.882 
87.877  22.307  52.677 
89.262  23.194  52.968 
89.810  22.899  52.217 
91.055  23.975  52.330 
91.205  24.033  53.425 
92.758  25.186  53.252 
92.196  24.957  52.643 
92.821  25.505  51.882 
93.045  25.922  50.396 
93.748  26.241  51.482 
93.677  27.480  50.782 
92.776  24.319  55.782 
95.624  27.708  51.468 
95.749  27.857  54.123 
97.784  29.579  53.919 
96.822  30.474  49.996 
96.519  30.795  48.851 
96.023  28.137  52.149 
96.174  27.990  52.592 
97.272  30.034  51.940 
96.855  29.683  52.561 
102.160  32.951  66.552 
96.719  32.414  46.642 
98.569  33.729  49.072 
102.651  34.939  55.105 
99.044  32.824  52.593 
101.741  33.351  57.990 
100.148  31.233  57.203 
99.669  35.053  50.554 
104.175  39.280  57.467 
101.557  33.536  55.221 
103.257  36.071  58.284 
102.059  35.053  61.517 
104.036  41.007  52.856 
103.961  42.540  52.886 
104.311  41.682  53.303 
105.604  43.482  53.564 
105.072  45.041  52.846 
104.481  43.455  51.031 
106.161  46.417  53.552 
106.569  45.081  56.385 
105.028  44.171  53.300 
106.523  45.009  55.465 
105.622  46.268  52.543 
106.527  47.381  52.725 
107.493  49.318  54.079 
106.830  48.442  54.049 
108.056  50.200  55.235 
107.614  49.604  54.912 
107.932  50.448  54.645 
107.985  52.275  55.408 
108.750  52.507  55.474 
108.942  53.958  55.196 
109.265  54.744  56.535 
109.625  57.783  56.694 
109.298  59.743  54.918 
109.892  58.158  55.878 
108.459  56.244  52.137 
109.984  57.665  55.384 
108.683  58.507  51.042 
109.961  60.447  65.655 
110.040  56.142  62.376 
109.221  61.405  52.019 
109.629  60.416  55.580 
109.046  61.082  55.011 
108.966  62.882  52.120 
107.376  68.632  49.147 
107.716  66.444  51.248 
107.705  65.206  53.026 
107.769  66.874  52.745 
107.244  67.129  53.373 
107.411  67.682  53.611 
107.851  69.402  53.868 
108.072  69.011  53.242 
107.360  69.653  54.255 
107.761  70.314  53.769 
107.842  70.815  53.615 
107.210  71.402  53.120 
106.797  72.459  53.332 
104.161  78.773  50.717 
106.701  74.129  52.305 
103.575  78.311  45.713 
106.912  74.882  54.914 
103.367  83.322  58.362 
106.241  75.101  50.496 
102.054  85.741  64.362 
106.137  77.079  57.440 
104.087  82.250  55.450 
101.329  86.361  55.165 
103.286  82.786  53.574 
101.073  86.337  53.096 
103.663  79.698  47.757 
99.620  84.183  42.618 
103.426  82.854  52.515 
101.409  85.721  50.160 
102.007  85.562  52.652 
105.486  78.518  53.805 
105.931  77.203  52.130 
99.607  86.914  47.493 
89.724  99.350  55.374 
92.750  97.664  62.042 
101.171  86.953  54.146 
96.788  90.990  53.273 
97.600  90.492  54.331 
96.201  89.918  44.269 
94.181  95.800  58.282 
94.604  92.147  47.368 
99.263  90.031  55.861 
93.070  95.312  50.682 
93.880  96.194  62.604 
95.695  93.068  53.333 
92.389  97.566  54.159 
83.120  101.839  47.745 
94.970  94.362  52.300 
93.628  94.284  48.320 
92.882  94.193  47.809 
91.696  96.871  52.090 
87.759  100.312  51.543 
86.260  98.800  46.501 
90.769  97.293  50.185 
86.612  101.241  63.856 
89.036  98.305  49.694 
93.180  94.602  47.580 
90.229  99.044  56.262 
88.267  100.869  55.012 
89.346  100.178  56.008 
83.609  103.574  56.279 
78.855  105.345  52.698 
87.696  100.926  52.508 
85.183  102.129  57.125 
84.139  102.916  54.034 
79.006  105.042  59.662 
79.168  105.505  56.035 
71.554  106.208  48.268 
79.582  103.957  47.720 
75.984  106.255  51.294 
78.960  106.018  56.579 
71.175  107.182  54.945 
77.743  104.201  46.778 
87.406  100.555  52.490 
71.768  106.519  49.913 
71.774  105.077  43.041 
72.435  107.188  53.079 
68.888  106.649  49.853 
72.382  106.401  50.373 
66.161  107.410  48.661 
67.265  105.676  43.606 
66.532  107.060  49.979 
72.644  105.527  46.480 
70.058  107.097  52.246 
67.974  106.436  50.000 
66.921  107.619  51.386 
66.835  107.332  52.145 
65.492  107.944  51.732 
64.652  107.751  52.627 
64.333  108.300  52.686 
63.941  108.192  52.976 
62.378  108.740  53.219 
62.342  108.451  53.987 
60.698  109.279  54.755 
59.334  109.264  58.290 
55.987  109.609  60.209 
57.242  108.404  53.458 
59.439  108.867  52.979 
52.054  108.422  61.878 
54.584  107.075  48.036 
57.049  108.476  49.880 
55.497  108.145  47.912 
49.849  106.105  49.601 
55.036  109.003  54.213 
50.985  106.705  50.229 
46.903  106.482  57.123 
51.988  107.024  51.591 
51.081  108.181  57.076 
47.572  106.567  56.408 
47.414  106.643  55.859 
46.714  106.355  56.692 
45.367  105.926  55.476 
47.059  106.142  53.738 
43.622  105.148  54.875 
42.939  105.144  56.183 
42.390  104.127  55.300 
41.872  104.414  55.004 
43.012  104.846  55.402 
41.445  104.577  56.003 
40.241  103.880  55.422 
38.094  103.096  55.163 
36.960  102.905  55.047 
37.640  103.091  53.860 
36.479  102.470  55.543 
36.224  102.936  55.683 
34.488  100.929  50.541 
35.628  100.761  49.792 
27.409  97.232  56.035 
33.867  101.342  57.322 
35.191  102.651  63.124 
28.348  98.827  57.706 
31.731  100.125  50.999 
34.267  101.424  66.457 
34.711  102.436  57.469 
26.471  96.839  58.998 
24.740  93.816  48.632 
31.330  99.802  50.447 
26.628  96.544  51.963 
29.600  98.855  62.813 
32.772  98.795  45.194 
31.795  99.937  51.900 
30.251  99.419  52.540 
18.478  86.983  62.215 
26.333  96.777  62.247 
28.535  98.842  60.040 
27.455  97.401  61.431 
27.646  97.729  57.067 
32.004  101.200  57.067 
29.499  99.099  51.656 
20.698  90.627  54.969 
27.079  96.801  55.172 
18.415  85.863  52.756 
19.049  87.672  54.661 
21.051  90.352  52.935 
18.656  86.353  56.911 
18.510  85.486  53.449 
19.786  90.404  59.504 
17.826  84.783  58.090 
17.640  85.054  57.363 
18.088  84.430  57.224 
16.944  83.026  55.777 
17.130  83.660  56.476 
16.391  82.300  56.718 
16.520  82.100  56.058 
15.891  81.520  56.309 
15.746  79.927  56.066 
15.575  80.161  56.722 
15.462  79.062  57.059 
14.978  78.658  55.721 
14.897  78.109  57.329 
13.901  76.738  57.451 
13.876  75.481  55.867 
13.586  76.426  58.265 
13.955  76.036  57.125 
13.391  75.559  58.173 
13.287  74.460  57.319 
13.803  73.711  56.548 
13.736  72.901  54.521 
13.063  71.268  50.485 
13.948  72.818  51.035 
13.505  74.281  59.824 
13.356  73.545  56.228 
12.147  66.340  53.065 
12.129  68.837  53.640 
11.403  66.375  58.071 
11.582  67.635  57.568 
10.591  61.198  57.971 
12.223  67.620  54.372 
11.064  65.856  61.231 
12.396  71.508  58.859 
11.691  70.172  60.848 
10.523  58.726  53.192 
11.123  67.867  60.235 
10.585  57.632  58.556 
10.875  59.781  52.577 
10.791  59.668  58.879 
11.614  51.988  58.932 
10.809  56.655  56.548 
10.755  59.275  59.222 
11.177  58.396  60.278 
11.460  50.458  58.749 
12.132  51.593  61.180 
11.978  47.546  54.731 
13.293  53.804  43.292 
11.428  53.590  61.044 
11.155  55.339  52.540 
10.512  55.790  58.121 
13.996  44.344  51.761 
11.444  51.458  57.533 
14.067  40.328  58.978 
11.882  52.977  49.320 
14.130  40.577  60.410 
11.885  49.522  52.062 
13.297  41.942  56.398 
12.465  46.544  59.141 
17.328  37.377  50.124 
14.351  40.533  55.400 
13.426  44.499  54.131 
14.918  38.590  58.939 
13.856  41.214  54.929 
16.130  36.726  58.141 
14.319  41.962  53.749 
14.957  39.242  55.953 
16.416  34.727  58.845 
20.734  28.483  53.970 
15.609  39.252  52.685 
17.614  33.504  60.962 
18.458  34.570  49.855 
18.327  33.177  55.028 
17.068  34.973  53.890 
23.728  29.230  45.582 
25.174  27.268  44.514 
21.786  29.566  49.367 
25.182  25.613  48.966 
23.703  26.375  50.500 
22.075  26.950  58.706 
26.292  23.427  52.014 
27.960  24.059  48.060 
30.104  19.318  56.757 
21.284  29.347  52.569 
28.428  22.078  52.020 
27.453  23.871  49.529 
25.941  23.918  54.219 
22.437  25.782  56.655 
33.545  19.126  51.795 
30.464  18.900  57.426 
29.375  22.603  49.345 
32.046  19.616  52.195 
25.487  23.056  55.243 
35.946  16.704  58.070 
32.612  20.745  49.003 
30.488  18.916  57.918 
34.294  19.264  51.363 
32.431  18.194  55.904 
37.304  15.588  59.408 
31.083  19.325  55.364 
33.489  17.746  55.175 
39.154  14.545  60.154 
29.275  23.359  47.733 
37.901  15.901  55.817 
39.616  16.343  50.809 
44.732  15.431  45.786 
38.889  17.513  51.284 
42.200  14.094  54.610 
43.930  14.297  51.157 
47.375  13.403  51.255 
40.671  15.364  52.732 
40.794  15.242  53.151 
41.870  14.381  53.655 
44.871  13.463  52.723 
44.370  13.557  53.274 
46.527  12.892  53.531 
45.929  12.889  53.207 
46.621  13.616  52.906 
47.086  12.737  53.052 
47.772  12.559  53.317 
48.628  12.559  54.281 
49.500  12.416  54.430 
49.847  11.886  53.853 
50.400  11.412  54.291 
51.786  11.382  54.452 
