97.750  28.382  55.334 
100.982  35.200  51.273 
104.517  39.504  57.411 
103.712  35.208  60.898 
101.598  32.502  65.103 
104.836  38.677  63.532 
105.160  39.331  65.852 
106.195  42.412  62.450 
104.364  39.247  56.484 
103.875  36.179  63.342 
105.405  41.516  58.694 
106.751  43.830  62.511 
106.173  42.098  68.950 
106.514  43.981  59.847 
106.042  40.841  64.622 
106.292  43.095  59.238 
106.973  44.273  61.262 
107.244  45.263  62.117 
107.763  46.532  62.588 
106.722  46.115  60.686 
107.563  48.745  61.576 
108.641  49.474  63.730 
107.539  47.751  59.740 
108.214  49.690  61.313 
108.740  50.493  62.297 
108.435  50.536  63.258 
108.736  54.670  62.073 
108.656  50.984  62.585 
108.073  48.622  67.008 
109.709  57.584  59.168 
109.663  59.980  59.202 
110.060  62.249  61.922 
109.216  56.717  63.152 
108.621  52.226  62.810 
109.011  52.993  62.500 
108.520  60.443  48.712 
109.554  63.226  58.678 
109.433  60.091  57.405 
108.800  56.831  53.416 
108.946  64.934  57.177 
105.751  73.485  72.621 
109.081  62.622  60.548 
108.474  67.714  60.677 
109.631  65.530  64.902 
108.592  69.856  62.076 
109.770  65.599  62.354 
108.318  70.525  59.921 
107.752  71.309  59.041 
108.337  70.043  69.696 
108.310  70.127  68.143 
108.022  72.265  62.228 
108.486  71.767  60.897 
107.893  73.473  59.542 
108.253  74.553  64.788 
107.997  73.260  64.400 
107.040  75.572  61.091 
105.382  82.558  60.661 
103.759  84.107  54.725 
106.117  79.527  59.011 
104.524  82.991  58.825 
105.617  79.700  64.642 
104.874  81.176  65.923 
104.436  82.173  63.006 
104.990  83.148  61.345 
105.444  81.599  60.886 
106.519  78.130  63.873 
104.692  82.412  65.659 
105.393  79.774  65.901 
102.747  84.943  64.733 
100.264  88.802  53.792 
97.776  91.986  56.791 
102.012  85.867  54.207 
104.844  80.542  65.059 
96.983  90.704  66.614 
96.839  92.190  65.291 
98.436  89.843  65.318 
96.174  89.683  68.869 
98.547  91.553  60.102 
98.629  91.947  59.347 
93.992  94.050  66.852 
97.040  93.377  58.028 
91.860  97.189  64.512 
94.829  92.831  67.140 
94.628  93.405  65.951 
92.051  97.476  61.735 
93.852  96.494  59.608 
95.102  92.393  65.823 
97.994  90.239  65.793 
97.311  91.982  64.772 
92.733  95.037  66.098 
99.520  89.506  63.049 
88.383  99.952  58.311 
85.857  99.495  71.342 
92.063  97.797  57.560 
102.009  85.243  65.488 
90.501  97.574  64.945 
86.800  101.515  56.247 
92.474  97.707  58.303 
85.151  101.754  58.646 
86.198  101.736  55.407 
88.093  99.305  67.833 
83.227  102.770  64.945 
82.729  103.152  64.408 
83.986  103.156  60.915 
81.932  103.135  62.510 
82.056  103.577  62.713 
81.379  103.817  62.655 
80.822  104.098  61.892 
79.668  105.035  62.503 
78.861  104.969  62.673 
79.129  105.506  62.261 
78.464  105.696  63.204 
77.986  105.825  62.982 
77.062  105.857  62.888 
76.549  106.315  62.468 
70.152  108.258  58.360 
74.111  107.148  64.004 
74.059  107.200  60.333 
72.605  107.288  64.678 
73.005  107.815  57.741 
70.402  108.394  59.553 
73.962  107.333  62.019 
74.314  107.369  53.694 
68.685  108.034  58.594 
71.786  107.479  55.160 
69.642  108.639  58.246 
70.542  108.028  57.284 
70.605  108.443  58.228 
64.693  108.742  59.407 
62.262  109.392  60.510 
58.446  109.436  58.492 
54.307  109.191  56.669 
61.026  109.818  60.593 
58.226  109.282  56.757 
59.222  109.650  63.156 
64.779  108.146  58.086 
61.809  109.591  62.130 
52.871  108.707  65.291 
54.595  108.441  70.048 
58.184  109.167  68.031 
58.093  109.326  60.730 
51.844  108.879  63.242 
54.153  109.345  59.579 
51.846  108.077  58.005 
45.737  107.315  64.187 
47.800  106.864  59.246 
54.440  108.926  68.392 
46.938  107.379  62.380 
55.614  109.296  63.106 
52.843  109.137  66.457 
52.782  109.215  61.544 
42.420  105.192  62.271 
41.137  105.460  68.465 
42.873  105.220  61.557 
42.863  105.075  62.388 
41.229  104.717  62.513 
40.034  103.982  63.471 
39.416  104.500  66.699 
39.528  104.227  61.897 
40.085  104.379  61.391 
36.796  103.294  62.403 
38.456  103.352  61.976 
40.136  104.332  60.866 
38.029  103.560  67.009 
33.544  101.166  63.765 
35.245  102.823  59.934 
38.131  103.521  70.002 
37.040  103.204  65.629 
31.259  100.360  54.938 
32.378  100.049  66.413 
36.459  102.437  68.739 
35.544  102.221  63.864 
37.668  98.982  81.998 
28.389  97.808  66.068 
31.196  99.718  60.264 
31.950  99.192  72.495 
30.710  99.413  69.062 
24.035  94.289  62.150 
27.155  96.730  65.088 
22.294  91.505  64.614 
21.154  90.248  65.438 
27.761  96.736  72.009 
20.859  89.946  67.611 
25.465  95.786  65.020 
22.969  93.374  62.439 
26.425  97.042  53.856 
20.216  89.507  55.913 
25.210  96.253  62.841 
19.905  89.028  57.301 
20.338  88.545  67.458 
19.869  88.338  62.633 
24.345  94.496  67.048 
21.474  90.914  58.276 
17.337  83.802  66.704 
21.305  90.794  62.040 
19.763  87.438  55.176 
22.263  89.839  72.965 
22.869  93.184  61.541 
19.270  87.818  63.588 
17.331  83.331  61.374 
18.275  82.349  75.987 
16.196  81.630  62.800 
17.592  83.854  65.787 
19.368  84.311  74.541 
16.118  80.866  67.619 
15.661  80.677  64.430 
14.857  79.518  64.487 
15.369  79.185  63.817 
15.132  78.714  65.372 
14.061  76.737  64.664 
14.367  77.775  63.991 
13.630  75.384  64.564 
14.835  77.409  63.231 
14.799  78.536  66.120 
14.044  76.324  64.963 
12.621  72.241  61.165 
13.513  75.305  66.522 
13.760  73.524  70.098 
11.209  67.637  67.018 
12.211  71.003  65.817 
11.920  64.298  73.346 
12.910  72.424  65.010 
12.518  71.165  58.703 
11.392  62.834  67.668 
14.546  66.936  78.507 
12.513  72.127  65.474 
13.914  73.001  73.690 
11.621  68.613  62.705 
11.797  56.822  70.075 
12.085  55.718  72.501 
10.299  66.757  63.024 
11.314  59.367  70.631 
10.360  66.016  62.480 
10.994  67.444  58.743 
11.064  67.778  61.176 
11.145  54.103  55.373 
11.641  61.315  71.646 
11.365  59.244  69.766 
11.240  59.742  67.802 
11.338  56.720  64.721 
11.087  57.404  66.272 
10.893  57.273  63.690 
11.617  53.426  65.186 
11.899  54.265  63.238 
11.664  52.894  64.649 
11.704  52.084  64.660 
11.752  51.277  64.640 
11.936  50.643  63.297 
11.787  50.277  63.796 
11.983  49.968  64.139 
12.575  47.897  61.649 
12.846  47.968  64.297 
12.786  46.874  62.984 
13.065  45.275  62.978 
13.011  46.777  62.334 
16.215  36.350  62.386 
13.336  45.172  65.580 
13.359  42.027  61.425 
14.468  43.354  68.279 
16.095  35.273  60.667 
12.436  46.621  58.861 
21.312  28.123  62.240 
14.255  39.838  57.946 
20.936  28.876  71.152 
16.236  36.854  68.366 
13.754  43.093  62.823 
17.352  33.743  63.103 
15.239  38.292  65.345 
16.684  37.448  71.310 
24.808  23.683  60.351 
16.824  34.450  54.875 
20.517  30.020  72.074 
16.591  34.797  67.001 
18.932  31.284  56.454 
20.224  29.222  65.903 
18.711  32.108  61.539 
25.979  24.128  62.114 
21.596  28.181  52.166 
28.767  20.934  60.163 
17.863  32.556  60.737 
24.775  24.126  61.143 
26.607  23.783  64.892 
21.876  27.319  64.175 
20.301  31.070  69.618 
29.672  19.406  58.871 
23.507  24.692  58.508 
30.073  19.738  59.520 
29.513  20.722  61.300 
23.921  25.619  61.883 
28.556  21.740  62.728 
28.997  20.986  63.102 
29.916  19.336  55.994 
32.310  18.690  60.827 
30.604  20.098  64.089 
31.426  18.451  60.390 
32.212  19.647  62.274 
33.410  17.730  61.394 
31.821  19.251  63.281 
33.512  18.578  62.746 
38.721  14.287  56.282 
36.716  16.158  61.714 
37.295  15.037  54.782 
37.398  14.629  56.717 
39.689  14.830  63.058 
34.160  17.054  59.669 
35.939  16.144  61.854 
42.296  13.098  61.208 
38.314  15.081  55.850 
38.991  15.212  64.198 
45.383  12.629  65.049 
42.044  13.838  59.196 
41.187  14.026  61.442 
40.055  14.481  60.782 
41.513  13.258  60.697 
44.200  12.478  61.414 
43.474  12.814  61.072 
44.918  12.345  61.169 
46.254  12.539  60.911 
45.626  12.082  60.676 
46.825  12.183  60.387 
45.564  12.026  62.501 
47.937  11.266  63.052 
50.509  11.220  66.082 
50.316  10.541  60.559 
52.854  10.294  60.092 
55.466  9.528  60.863 
64.068  9.863  59.700 
54.577  9.580  63.521 
54.361  9.209  64.544 
56.919  9.332  63.831 
55.547  11.149  49.362 
51.604  10.999  67.200 
57.093  9.830  54.757 
66.285  10.208  55.447 
59.935  9.957  52.682 
56.108  9.108  58.690 
61.293  9.972  56.585 
63.606  10.229  56.220 
64.408  9.756  57.072 
63.697  9.609  57.465 
65.067  10.219  57.719 
65.513  10.444  59.015 
67.754  10.163  56.117 
68.263  10.168  56.967 
65.765  10.029  58.155 
66.612  11.392  50.518 
72.022  12.353  50.619 
76.081  12.914  59.051 
66.520  10.653  52.886 
72.592  11.587  59.545 
74.759  12.249  57.809 
72.963  12.133  61.659 
77.794  14.313  56.830 
79.076  14.799  59.185 
76.058  13.044  57.065 
76.677  14.064  58.310 
72.956  11.733  60.890 
78.529  15.028  57.856 
74.955  12.241  63.323 
78.344  14.606  57.575 
81.095  15.408  58.880 
80.592  15.760  59.684 
82.099  16.880  57.962 
83.629  17.102  58.828 
83.118  16.854  58.367 
83.927  17.924  59.045 
85.216  18.814  59.809 
84.585  17.758  58.408 
86.004  18.802  57.008 
86.802  18.974  57.219 
86.723  19.226  58.175 
87.551  20.079  57.056 
88.069  20.201  56.184 
89.829  20.861  61.596 
92.055  22.779  57.449 
91.741  23.161  56.875 
89.477  21.186  60.825 
89.576  21.700  58.474 
92.818  22.739  62.375 
91.429  22.211  60.347 
91.457  22.114  62.293 
93.334  24.350  57.109 
98.958  28.112  60.274 
94.356  24.048  65.809 
94.469  24.179  59.739 
91.971  22.925  58.445 
100.687  30.894  57.836 
97.319  30.418  49.727 
90.408  20.944  68.187 
96.516  25.466  59.792 
100.787  30.961  60.339 
98.981  30.905  72.001 
96.473  26.728  54.692 
100.269  29.618  58.083 
97.500  28.998  53.637 
97.688  26.635  60.763 
100.403  31.230  54.923 
97.463  27.323  58.796 
101.134  33.095  70.743 
104.006  35.701  61.014 
104.882  39.940  56.076 
103.139  36.028  54.613 
102.010  35.263  52.300 
104.184  37.654  61.811 
105.393  40.908  61.760 
106.510  43.021  60.640 
105.781  41.721  60.927 
106.102  42.194  59.464 
105.507  40.937  61.039 
104.087  36.346  62.300 
103.034  36.786  55.739 
104.799  41.390  55.884 
105.913  41.768  61.534 
105.195  43.219  55.206 
106.214  43.699  59.140 
106.237  42.727  61.526 
106.349  44.836  61.004 
106.826  45.056  60.707 
107.498  45.703  62.744 
107.901  46.956  61.536 
107.830  48.554  61.012 
107.536  48.503  60.059 
107.438  49.216  61.559 
108.389  50.139  61.999 
108.707  51.544  61.925 
108.964  52.003  62.486 
108.713  50.878  65.554 
109.086  56.060  57.433 
110.291  59.332  60.556 
109.870  58.505  69.300 
109.446  56.053  63.750 
109.483  55.010  62.362 
108.872  51.917  65.412 
109.554  56.246  57.904 
109.592  62.825  57.591 
109.938  60.328  57.216 
109.240  62.914  58.017 
109.196  64.125  57.194 
109.654  63.338  60.210 
109.737  64.794  61.774 
109.404  65.895  59.405 
109.128  63.257  60.048 
109.505  63.092  56.778 
107.619  66.448  72.943 
108.888  67.967  61.428 
108.647  68.670  61.136 
108.312  69.067  59.181 
108.411  70.305  58.650 
108.659  70.604  61.368 
107.595  72.717  60.372 
107.676  74.118  60.490 
107.961  72.623  59.600 
107.446  75.525  62.985 
107.057  75.949  62.290 
106.029  78.361  54.287 
106.153  78.974  55.528 
106.038  79.232  59.763 
107.479  75.391  59.021 
106.047  78.959  63.303 
106.805  76.664  54.879 
105.829  80.248  64.094 
106.932  77.233  59.177 
106.593  77.122  57.989 
103.595  83.644  59.386 
101.897  87.204  61.236 
95.107  95.387  57.744 
102.150  86.909  60.887 
100.892  87.005  65.066 
96.033  94.215  55.873 
95.383  95.354  61.045 
105.232  80.801  64.658 
103.504  85.015  63.617 
97.031  92.940  61.921 
102.093  86.109  53.198 
102.724  85.662  58.405 
98.436  91.889  58.619 
98.183  92.480  57.971 
100.529  88.430  57.565 
101.372  87.599  56.347 
94.835  94.274  54.090 
100.146  89.580  58.557 
95.440  92.321  66.966 
97.859  92.222  60.240 
99.132  90.704  60.101 
97.565  90.957  64.216 
89.303  98.419  65.738 
88.437  99.975  62.973 
95.748  94.782  61.645 
96.223  94.375  61.654 
84.656  101.611  68.964 
96.054  92.592  65.598 
84.492  100.856  70.258 
88.943  98.433  67.720 
87.561  101.015  61.429 
95.023  93.501  65.153 
87.016  101.202  55.576 
89.354  99.224  59.962 
85.745  101.558  62.615 
86.678  100.972  65.373 
81.356  105.464  56.311 
86.361  101.063  66.141 
85.640  101.511  66.186 
83.530  103.907  57.002 
82.866  103.281  62.555 
82.602  103.750  61.987 
80.457  105.056  59.540 
82.088  103.545  61.636 
80.140  104.760  62.502 
79.502  104.424  62.239 
78.950  105.102  62.021 
78.408  105.724  62.245 
77.880  105.929  61.560 
77.415  105.930  62.435 
77.384  106.308  60.120 
75.826  106.396  62.796 
73.812  107.289  53.032 
72.874  107.703  55.019 
73.627  107.094  61.546 
74.678  106.844  60.562 
79.177  104.997  49.153 
68.901  108.356  60.093 
75.272  106.230  49.463 
75.464  107.330  57.718 
72.207  107.080  63.432 
75.008  106.916  63.256 
64.867  109.128  62.688 
66.741  108.485  57.920 
65.743  108.384  59.432 
58.787  109.267  57.911 
62.183  109.022  64.350 
65.829  108.789  58.937 
67.559  108.678  59.847 
63.507  109.531  63.854 
56.016  109.016  66.854 
61.490  109.604  63.851 
51.824  108.840  56.176 
55.575  109.463  64.139 
53.045  108.917  60.209 
60.379  109.924  61.678 
52.642  108.429  56.202 
53.770  109.097  65.072 
51.359  108.353  57.572 
51.853  108.842  65.423 
56.145  109.515  60.828 
40.967  105.226  67.706 
55.504  108.868  67.839 
48.258  107.560  67.993 
48.318  106.892  61.022 
48.475  106.469  56.790 
50.436  107.121  55.397 
42.070  104.827  62.950 
43.664  105.257  63.156 
39.314  104.053  65.786 
43.497  105.940  60.794 
40.658  104.609  63.675 
39.976  104.440  62.633 
40.513  104.784  61.933 
49.655  108.605  67.323 
40.695  104.789  59.590 
39.541  103.857  61.383 
39.725  104.281  59.296 
39.003  103.679  63.469 
36.404  102.808  62.616 
35.216  102.355  58.327 
38.290  103.613  63.333 
35.617  102.489  62.955 
39.948  104.374  65.900 
38.672  103.334  74.776 
33.565  100.462  65.834 
37.432  104.121  64.078 
23.470  93.530  65.254 
37.850  103.528  65.510 
28.993  98.253  56.769 
32.616  100.740  53.767 
34.102  101.638  65.124 
27.646  97.826  64.110 
34.353  101.677  68.820 
32.018  99.614  69.172 
30.928  99.502  65.510 
28.525  97.511  67.700 
23.613  93.568  68.476 
21.846  92.126  59.172 
26.585  97.393  62.349 
22.435  92.436  61.030 
29.577  98.689  66.476 
25.075  95.497  66.711 
27.188  96.877  67.566 
24.486  95.993  60.065 
19.808  88.648  54.344 
18.031  85.177  68.764 
21.629  91.975  57.725 
18.411  84.604  61.030 
20.552  89.031  70.462 
19.572  88.170  58.763 
19.015  84.996  73.563 
17.882  83.990  61.489 
21.178  89.058  73.021 
18.436  85.410  59.984 
18.656  85.265  61.395 
20.698  86.964  77.700 
16.919  82.712  64.414 
18.963  86.227  62.898 
17.531  83.713  65.304 
18.744  87.321  66.337 
16.548  80.982  67.175 
16.301  80.454  64.871 
15.466  80.371  63.006 
15.488  80.482  63.525 
15.741  80.169  62.490 
14.801  78.915  63.390 
15.100  77.924  64.274 
14.119  77.087  63.598 
13.628  76.052  63.341 
13.381  74.820  63.728 
12.875  73.303  65.187 
13.226  74.732  64.341 
12.200  70.710  73.018 
13.920  75.532  69.298 
11.868  70.420  64.338 
13.362  72.281  63.354 
11.255  67.047  68.013 
11.188  63.837  69.070 
11.002  67.146  68.946 
13.498  74.273  72.059 
14.212  76.263  68.148 
10.823  62.940  65.462 
12.331  67.650  72.943 
12.150  61.869  74.307 
10.070  62.057  63.341 
10.787  58.256  66.073 
10.188  59.663  61.862 
11.740  61.335  72.923 
10.023  61.867  61.914 
12.247  70.309  63.175 
11.199  50.348  58.600 
10.886  57.010  64.194 
11.162  55.815  60.924 
10.261  60.232  64.401 
10.889  58.627  65.071 
10.228  60.783  62.703 
10.896  62.426  61.191 
10.934  56.379  63.904 
11.537  55.591  66.957 
11.522  54.681  64.113 
11.647  52.865  64.001 
11.874  52.066  64.158 
11.873  50.862  63.885 
12.008  51.574  63.863 
12.289  50.019  62.842 
12.707  49.638  63.598 
12.024  49.254  63.206 
12.680  47.442  62.463 
14.046  43.903  61.271 
12.546  46.948  64.168 
13.243  44.939  61.889 
14.018  45.162  66.678 
13.673  44.294  64.942 
14.184  41.094  55.739 
13.288  45.817  66.199 
13.397  43.408  61.576 
16.616  35.404  69.379 
14.577  42.518  64.794 
15.957  39.720  72.140 
15.460  38.767  63.740 
16.253  35.692  69.559 
13.516  41.943  60.280 
17.659  32.908  58.136 
16.290  36.378  64.894 
15.104  39.445  64.259 
16.108  36.133  60.053 
20.931  28.667  63.543 
15.566  36.895  67.593 
19.553  30.469  64.031 
22.790  26.157  57.371 
18.923  31.471  62.880 
18.390  32.313  58.429 
22.591  26.491  61.388 
20.615  29.578  51.083 
26.993  22.641  52.614 
27.534  22.663  61.924 
26.865  22.456  57.781 
26.764  23.388  62.315 
21.656  27.659  60.235 
29.445  21.235  51.287 
25.756  23.943  62.985 
22.020  26.332  58.736 
24.854  25.075  64.567 
27.550  21.504  57.006 
19.893  29.800  61.514 
29.160  21.652  61.451 
30.599  19.747  61.457 
30.085  19.906  63.216 
30.659  19.475  62.185 
31.745  19.043  62.656 
29.884  20.175  62.037 
30.624  18.845  55.958 
32.329  18.328  59.113 
33.105  18.321  63.020 
31.667  18.109  58.923 
31.665  18.736  61.032 
33.463  17.935  62.077 
36.417  15.429  56.320 
37.277  15.123  58.173 
42.379  13.210  64.310 
39.324  14.479  55.261 
42.566  13.333  63.430 
37.885  14.778  57.478 
41.557  13.555  58.490 
37.599  15.615  62.485 
40.844  13.652  59.593 
41.410  13.929  56.496 
41.940  14.338  66.502 
39.765  14.031  60.003 
44.839  12.412  62.071 
45.287  12.667  61.207 
44.624  13.095  61.799 
44.961  12.535  60.439 
45.749  12.048  61.366 
47.525  11.667  60.446 
47.931  11.866  60.208 
48.612  11.442  61.014 
46.864  12.506  62.296 
47.335  11.887  61.627 
48.927  11.126  64.987 
49.071  11.599  60.969 
57.516  9.355  55.446 
49.130  11.202  67.603 
57.648  10.879  49.084 
52.962  10.239  57.168 
61.425  9.645  53.066 
58.512  9.820  60.304 
64.667  11.417  47.054 
60.019  9.623  61.104 
53.964  9.384  61.514 
65.058  10.019  56.292 
59.976  10.142  51.958 
61.770  9.644  57.169 
62.778  10.114  54.002 
64.258  9.981  55.010 
63.278  10.141  57.431 
66.576  10.895  54.636 
70.540  11.749  53.736 
67.283  10.936  60.051 
68.031  10.556  57.643 
67.338  10.524  59.273 
70.531  11.010  56.359 
70.262  11.301  65.765 
73.781  11.888  61.024 
78.406  14.126  61.496 
77.149  14.384  53.476 
70.712  11.058  61.058 
83.921  17.187  62.603 
81.339  15.551  65.821 
76.221  13.509  54.631 
76.775  12.830  62.946 
75.091  12.665  57.922 
79.846  14.785  56.051 
79.453  15.462  59.450 
80.372  15.203  55.319 
77.471  13.932  58.191 
79.600  14.856  57.799 
81.426  15.566  61.379 
81.131  16.272  57.391 
84.019  17.387  56.777 
82.818  17.284  57.521 
84.600  17.831  57.212 
83.488  16.867  57.224 
85.681  18.670  56.093 
86.780  19.598  56.938 
86.830  19.321  56.094 
89.091  20.929  56.623 
88.427  20.887  56.240 
88.665  20.497  57.845 
90.928  23.100  57.598 
91.963  22.526  59.671 
91.295  22.277  57.127 
92.981  23.544  56.828 
94.833  24.418  58.907 
98.900  28.516  63.562 
97.231  27.365  57.099 
92.139  21.786  62.358 
93.193  22.817  66.941 
91.648  21.549  62.756 
94.534  25.607  55.568 
94.878  26.876  51.070 
96.650  27.491  53.200 
94.191  25.661  53.828 
99.077  28.444  61.102 
100.114  29.793  61.859 
98.636  29.161  54.362 
95.012  24.654  57.124 
92.880  22.770  68.036 
94.198  23.963  59.208 
101.150  31.731  60.939 
97.956  27.811  56.583 
97.801  29.122  54.785 
104.329  36.134  63.148 
100.246  30.322  60.629 
101.680  33.466  54.445 
95.815  26.152  54.997 
100.776  32.320  57.531 
99.433  29.695  55.638 
103.345  35.499  58.325 
105.068  39.615  58.982 
102.479  34.306  60.464 
104.395  40.265  56.757 
106.059  41.798  62.483 
106.346  42.350  61.127 
105.212  40.410  59.331 
105.905  43.188  58.019 
106.736  47.338  72.047 
105.367  42.232  58.613 
106.413  43.169  59.984 
105.943  44.615  56.134 
106.522  43.827  60.553 
106.485  44.425  58.972 
106.820  44.841  59.032 
106.893  45.825  61.132 
107.485  46.556  60.764 
107.524  46.807  60.315 
107.441  47.669  60.693 
107.598  49.412  60.319 
108.290  49.833  60.676 
108.031  50.135  60.126 
108.515  51.383  60.445 
107.783  50.051  60.891 
109.152  54.201  60.706 
109.126  54.414  58.944 
109.697  60.685  61.453 
108.711  57.120  49.632 
109.318  54.196  62.387 
108.832  51.452  67.355 
109.384  62.118  56.432 
109.723  58.140  61.969 
109.092  61.708  51.703 
109.887  62.969  61.053 
108.608  56.750  54.576 
109.377  64.605  59.203 
109.679  62.614  58.308 
109.096  66.757  61.619 
109.275  65.135  60.017 
109.097  66.411  60.280 
108.313  68.162  59.449 
108.821  66.259  58.012 
108.550  67.893  58.475 
108.896  67.526  59.646 
108.791  69.611  58.687 
107.691  71.023  58.630 
107.600  72.564  59.274 
107.653  71.920  59.939 
107.786  72.998  59.977 
107.553  73.670  58.241 
107.510  74.267  59.189 
107.386  73.441  59.276 
105.701  79.697  56.289 
107.642  76.494  60.308 
106.515  78.391  59.798 
106.559  77.314  57.350 
107.178  75.523  65.043 
104.703  81.244  52.515 
106.522  77.949  58.043 
105.888  80.099  59.657 
104.100  84.326  61.014 
106.844  77.596  64.380 
104.093  82.720  59.153 
105.936  80.447  61.027 
104.046  83.065  64.481 
101.166  87.298  59.674 
105.542  80.423  59.303 
102.737  84.255  49.317 
102.151  86.062  58.169 
103.799  84.366  59.418 
95.053  95.157  55.831 
91.684  97.715  60.179 
100.406  88.857  56.675 
97.822  92.940  61.694 
95.247  94.674  63.242 
100.054  87.979  66.578 
97.503  90.027  66.098 
93.628  96.323  63.547 
95.196  95.405  59.938 
102.129  85.667  63.848 
95.656  94.201  61.033 
101.570  87.626  64.095 
96.762  93.548  58.837 
97.459  91.489  63.273 
95.060  94.785  61.695 
94.533  94.951  53.582 
96.871  93.499  61.024 
87.679  101.228  60.777 
89.871  99.639  60.715 
95.885  93.390  63.253 
87.409  101.132  62.682 
92.209  96.872  55.850 
91.901  97.139  63.867 
89.090  98.567  69.518 
92.895  96.971  55.295 
86.362  97.946  74.495 
92.468  96.189  65.403 
86.764  100.475  65.159 
85.060  102.105  62.601 
75.875  107.146  55.110 
94.196  96.287  56.186 
88.000  101.083  57.126 
85.843  102.122  60.676 
83.154  103.329  50.459 
82.477  103.961  61.065 
80.292  104.117  61.901 
79.165  104.436  61.378 
79.751  104.878  60.780 
78.858  104.708  60.968 
79.241  105.043  61.543 
77.307  105.317  61.456 
78.767  104.940  60.339 
76.425  106.585  61.615 
83.559  103.829  52.989 
77.958  105.715  60.840 
81.489  104.254  48.780 
76.326  107.204  57.550 
76.792  106.104  49.921 
74.260  107.123  52.275 
71.767  107.541  58.877 
73.329  107.542  53.528 
72.059  107.645  53.539 
73.236  107.243  60.625 
70.036  108.280  56.353 
66.695  109.018  60.092 
66.575  108.500  57.416 
70.507  108.494  61.276 
65.911  108.037  58.118 
66.710  108.446  59.429 
64.974  108.976  61.004 
61.147  109.064  57.421 
65.951  109.010  63.829 
56.049  108.977  66.015 
61.373  109.401  60.044 
56.608  109.167  55.208 
57.118  109.540  54.476 
51.950  107.669  54.058 
60.627  109.787  65.154 
47.945  107.832  63.779 
50.921  107.621  59.608 
57.390  108.989  61.407 
56.519  109.843  61.911 
53.304  109.032  62.111 
51.347  108.009  52.264 
44.368  105.983  62.789 
44.943  106.118  62.608 
46.653  107.525  65.638 
49.590  107.074  57.516 
45.703  105.859  61.550 
45.381  106.597  61.857 
53.891  108.841  67.139 
42.030  105.077  64.440 
47.477  106.886  61.218 
41.860  105.398  64.789 
41.309  105.277  60.361 
41.595  104.704  62.056 
41.184  104.914  59.428 
39.068  103.702  62.145 
40.741  104.426  60.299 
38.984  103.906  60.660 
36.081  102.867  59.426 
37.347  103.675  61.076 
31.285  100.905  56.382 
39.596  104.257  65.074 
34.877  102.696  60.784 
37.366  103.465  65.000 
36.149  102.903  64.443 
33.391  101.188  66.149 
33.790  101.590  62.389 
25.003  96.162  61.868 
27.853  98.326  57.441 
30.469  99.292  65.816 
32.105  100.962  63.885 
31.911  100.635  56.045 
36.053  101.834  65.897 
28.791  98.528  62.403 
31.921  101.064  56.585 
30.411  99.154  66.810 
31.201  99.737  66.927 
23.755  93.554  62.557 
24.863  95.197  61.840 
24.278  94.668  62.380 
19.495  87.393  68.459 
19.332  87.129  70.564 
18.508  86.154  67.494 
19.828  88.690  64.652 
21.725  91.568  58.023 
19.669  87.954  56.405 
23.414  94.299  56.640 
19.530  87.986  65.334 
21.847  90.465  61.256 
19.792  86.939  58.331 
21.208  90.824  60.745 
18.453  85.623  58.614 
18.902  86.628  70.234 
17.870  84.849  61.576 
18.705  86.554  68.741 
25.168  95.273  68.293 
17.219  83.081  63.479 
17.835  84.004  63.945 
16.633  81.708  62.650 
17.216  82.244  62.883 
16.519  81.985  62.045 
16.715  81.850  63.496 
15.962  81.193  62.015 
15.549  80.540  62.248 
15.375  80.082  64.347 
15.243  79.277  65.483 
14.681  78.414  64.576 
14.132  76.964  64.232 
13.476  75.820  65.498 
13.269  75.398  63.811 
14.007  76.499  62.953 
13.640  75.448  63.415 
11.308  68.037  66.089 
13.786  73.765  65.361 
10.325  64.017  64.101 
11.416  68.671  66.834 
13.585  73.737  64.353 
13.824  74.355  66.272 
12.530  71.789  66.167 
12.507  69.909  69.556 
11.580  57.782  67.462 
10.947  65.632  68.470 
11.001  54.849  60.044 
12.631  71.569  62.530 
12.563  70.433  57.262 
12.322  72.290  64.509 
12.315  71.603  65.164 
10.527  65.971  59.125 
12.587  72.858  57.481 
10.324  57.212  61.340 
10.540  56.161  60.412 
11.202  55.409  64.793 
10.940  63.176  56.302 
11.243  55.303  62.245 
10.057  57.173  57.897 
11.361  56.044  62.808 
12.325  49.093  60.067 
10.076  56.871  58.530 
11.368  59.154  67.468 
11.238  52.717  61.767 
11.512  53.674  64.375 
12.167  53.538  64.428 
11.903  52.079  63.168 
12.438  50.590  64.415 
12.133  47.732  61.763 
12.282  47.066  62.116 
11.770  48.272  59.719 
12.524  47.874  63.106 
12.026  48.716  63.064 
11.572  51.333  56.747 
11.976  48.522  61.626 
13.262  44.393  62.759 
13.550  44.557  64.019 
13.719  43.415  61.991 
13.654  44.220  65.837 
14.919  40.699  63.540 
15.225  40.511  66.157 
16.249  35.311  64.730 
16.794  39.688  74.957 
14.264  42.874  66.812 
15.165  41.008  70.966 
14.900  43.057  68.116 
15.715  39.255  68.673 
19.335  31.964  67.703 
18.340  31.760  64.484 
18.955  30.154  57.351 
16.449  35.378  66.459 
14.516  38.848  56.950 
19.400  30.637  59.725 
19.390  30.655  67.259 
18.737  33.290  70.522 
20.961  27.890  58.183 
25.251  23.896  61.052 
22.067  28.111  51.842 
17.943  32.031  63.647 
24.038  25.961  51.712 
22.086  26.635  56.810 
27.058  22.241  56.425 
28.111  22.061  60.576 
24.714  25.126  50.150 
26.758  24.240  48.723 
27.402  23.360  64.647 
29.488  20.944  62.597 
29.933  19.080  57.976 
27.316  22.408  60.916 
27.864  21.808  61.809 
23.612  24.407  57.562 
25.326  24.803  64.279 
19.990  29.891  60.788 
28.195  21.053  53.567 
32.652  17.587  57.763 
37.452  15.123  58.980 
31.150  19.967  63.201 
33.240  17.137  59.616 
29.555  20.882  63.969 
40.716  14.079  65.227 
39.115  14.470  58.908 
32.560  17.577  58.881 
40.054  14.937  54.330 
40.092  14.133  57.405 
41.549  13.486  60.180 
37.274  15.492  62.137 
37.991  15.652  65.348 
40.647  14.603  64.653 
41.126  13.535  58.775 
40.768  14.053  55.785 
35.224  16.588  57.543 
43.180  12.764  58.496 
39.063  15.481  66.239 
42.261  12.996  59.672 
42.764  12.819  60.062 
44.241  12.594  60.809 
43.920  12.716  60.164 
43.483  12.906  59.424 
45.587  12.499  59.944 
45.959  11.998  59.772 
49.945  10.418  63.818 
46.910  11.888  60.757 
49.109  11.300  60.166 
48.058  11.917  61.143 
48.371  11.870  62.381 
52.831  10.269  64.326 
59.646  9.946  55.883 
60.054  9.701  59.448 
58.458  10.240  53.489 
56.704  9.413  59.210 
63.587  9.538  56.092 
57.535  9.640  61.056 
61.471  9.917  51.904 
61.032  10.879  48.689 
54.142  11.642  47.906 
72.244  12.293  52.744 
60.244  9.429  58.601 
57.724  10.729  51.176 
61.986  9.832  58.195 
65.904  10.386  60.909 
67.154  10.526  55.710 
65.711  10.485  54.807 
66.785  10.259  57.699 
67.015  10.227  56.575 
69.134  10.202  57.012 
66.938  10.612  53.507 
74.204  12.226  54.821 
73.316  12.864  51.056 
68.338  10.448  58.609 
79.948  14.794  62.079 
76.731  13.820  53.837 
72.583  11.393  54.582 
76.159  13.368  53.426 
78.106  13.179  65.477 
74.370  12.305  61.304 
80.417  15.314  56.336 
78.733  14.808  54.284 
72.861  11.983  56.294 
77.522  13.849  55.067 
80.283  15.542  54.407 
80.495  15.593  56.837 
80.814  15.297  58.233 
81.810  15.899  56.955 
84.176  17.340  57.746 
82.606  16.353  56.821 
83.203  17.132  56.553 
83.741  17.969  56.796 
84.567  18.528  57.101 
85.939  18.842  55.551 
85.256  18.954  56.397 
87.429  19.814  57.528 
90.544  22.324  57.832 
89.382  21.017  57.219 
89.628  21.662  57.070 
91.098  22.664  58.332 
91.362  22.238  56.566 
89.555  22.207  55.590 
85.281  18.714  63.743 
91.420  21.551  65.932 
93.205  24.360  55.154 
91.698  22.835  57.756 
91.599  21.703  61.672 
97.168  26.635  58.710 
94.527  24.778  56.706 
94.670  27.095  51.797 
92.844  22.887  60.075 
101.335  31.738  61.965 
97.053  29.366  51.231 
101.487  32.028  56.309 
99.358  29.175  59.442 
94.949  25.176  59.246 
96.664  27.080  55.666 
98.556  30.614  53.311 
93.738  24.781  56.120 
101.021  31.181  58.178 
99.689  29.349  65.512 
103.753  38.513  53.695 
103.423  35.323  59.440 
98.147  29.519  53.206 
97.446  27.178  56.385 
100.280  29.650  58.622 
102.595  34.825  60.843 
102.050  32.829  59.574 
103.983  36.158  58.753 
105.343  40.427  63.260 
104.218  38.878  57.394 
106.418  42.194  65.817 
106.629  42.157  65.099 
104.649  38.997  55.724 
104.511  38.810  62.743 
104.356  38.770  57.883 
105.543  43.200  57.312 
105.009  41.417  54.946 
106.279  43.221  57.261 
106.548  43.582  58.404 
106.255  44.092  54.980 
106.629  44.095  58.522 
107.032  45.556  60.073 
107.070  45.304  59.168 
106.762  45.912  59.713 
106.737  46.586  58.688 
107.741  47.167  60.001 
107.178  48.548  60.377 
107.576  49.464  59.401 
107.121  50.094  59.729 
108.307  50.708  60.226 
108.191  50.569  61.370 
108.266  51.300  61.313 
109.156  51.855  63.878 
108.792  55.766  59.899 
109.191  53.330  64.381 
109.348  61.777  61.503 
108.619  58.293  51.470 
109.710  62.620  56.176 
109.520  58.783  60.382 
109.104  55.558  57.368 
109.348  62.233  59.532 
109.289  61.781  53.155 
108.821  58.979  52.854 
109.048  64.420  56.550 
108.689  64.686  55.493 
109.514  64.376  63.061 
109.286  65.735  58.578 
108.755  67.397  58.465 
109.076  66.632  59.794 
108.371  66.942  59.904 
108.126  69.293  58.196 
108.605  69.641  59.315 
108.220  69.960  58.136 
108.178  70.909  58.479 
107.288  72.394  58.231 
107.607  73.064  58.764 
107.358  75.856  59.706 
107.265  74.431  58.454 
106.413  77.912  54.449 
106.817  76.297  57.778 
107.626  74.529  59.608 
107.158  76.960  59.695 
104.139  81.400  51.754 
105.092  81.142  53.777 
103.428  83.957  53.361 
105.289  80.153  57.480 
103.811  83.547  62.264 
106.238  78.711  59.203 
106.878  77.305  58.407 
104.575  82.741  63.311 
102.655  84.686  56.910 
104.703  79.936  49.896 
105.915  77.434  66.270 
102.483  86.272  58.942 
101.242  86.757  61.070 
100.943  88.153  61.363 
90.995  97.812  60.631 
100.544  85.516  46.442 
102.421  86.364  63.541 
103.093  83.351  49.728 
99.117  90.628  58.828 
95.926  94.770  59.870 
104.386  82.885  61.465 
99.550  89.472  63.864 
96.111  94.826  60.798 
97.841  90.691  65.459 
91.791  96.583  65.078 
100.108  88.465  63.616 
94.452  94.521  64.466 
97.720  92.070  57.425 
98.012  92.586  59.036 
89.203  99.273  66.577 
96.703  92.479  62.606 
92.219  97.621  57.046 
91.991  97.441  63.160 
93.680  96.617  58.705 
81.265  103.127  71.074 
91.459  98.022  63.899 
90.106  97.793  67.048 
82.833  103.580  61.572 
86.234  100.526  67.371 
92.326  97.277  52.510 
87.340  100.998  55.200 
87.196  100.296  66.181 
78.526  106.632  56.742 
75.953  107.457  58.362 
85.027  102.620  59.002 
80.121  105.303  58.915 
83.754  102.929  60.141 
83.471  103.374  58.142 
81.113  104.157  61.081 
80.379  104.118  60.481 
82.302  104.111  58.980 
80.405  104.473  61.146 
81.473  105.034  55.872 
73.927  107.705  58.592 
80.183  104.730  59.889 
76.761  106.319  60.390 
75.386  106.561  60.191 
77.244  106.298  61.083 
76.352  106.188  61.190 
78.626  106.399  55.176 
70.223  107.164  53.530 
72.840  107.071  62.583 
71.123  105.868  45.766 
70.710  108.178  56.562 
69.436  107.968  52.692 
68.790  108.876  62.722 
73.012  106.816  49.853 
71.815  107.919  57.760 
69.124  108.356  56.931 
71.202  108.399  59.182 
69.916  107.739  55.179 
67.656  108.517  56.758 
67.872  109.250  62.847 
62.934  109.528  63.957 
64.160  108.731  57.963 
63.543  108.770  58.651 
56.009  109.659  58.255 
61.187  109.204  55.814 
51.772  109.253  61.366 
50.552  108.693  63.134 
57.154  109.318  57.634 
55.087  108.854  54.670 
51.933  108.428  55.494 
56.522  108.894  65.069 
46.432  107.281  62.541 
60.589  109.085  56.826 
55.496  109.120  57.491 
54.598  109.161  65.168 
52.049  107.914  52.673 
52.643  108.984  58.009 
49.163  107.096  58.190 
48.286  107.070  63.554 
49.967  107.448  58.135 
46.883  107.793  66.879 
50.966  108.535  63.466 
49.092  107.182  56.761 
46.226  106.952  60.789 
44.235  106.332  63.299 
41.348  104.899  61.210 
41.774  104.976  61.464 
38.823  104.117  62.197 
39.500  104.230  63.168 
39.420  104.180  59.846 
38.540  103.957  61.395 
37.407  103.600  60.175 
36.745  102.363  59.387 
36.837  103.402  63.024 
37.776  103.365  61.776 
37.174  103.116  60.809 
35.304  102.562  59.114 
32.882  100.643  60.409 
34.500  102.092  59.120 
31.976  100.149  65.917 
38.817  103.962  64.731 
32.390  100.821  67.163 
34.440  101.097  71.313 
29.295  98.226  69.450 
22.691  91.656  62.781 
31.115  100.259  64.236 
31.425  100.237  65.364 
22.775  92.296  63.442 
26.204  96.807  61.077 
24.978  95.476  64.472 
31.982  100.350  62.054 
20.033  88.979  68.112 
25.350  95.833  62.156 
21.982  91.230  68.174 
21.391  90.859  67.608 
32.230  101.199  54.498 
21.787  90.879  69.336 
19.132  87.670  64.387 
23.345  94.184  61.388 
25.769  97.053  62.617 
19.372  86.119  58.402 
22.482  91.350  54.117 
20.278  89.704  60.001 
20.492  89.045  60.017 
23.807  95.004  59.446 
20.736  89.723  54.744 
21.043  90.101  57.053 
18.570  85.217  65.815 
18.847  85.964  60.598 
18.905  85.304  62.253 
16.974  82.739  62.061 
20.354  89.794  66.404 
18.245  86.092  68.070 
16.514  81.157  63.595 
16.894  82.387  65.280 
16.445  81.734  66.161 
16.139  80.867  62.834 
15.684  80.312  61.406 
15.155  79.716  62.273 
14.884  78.785  61.872 
15.717  79.029  62.093 
15.112  79.162  62.458 
14.927  79.701  63.478 
14.003  74.568  64.489 
14.137  76.273  67.097 
14.079  77.175  66.489 
13.509  75.846  66.936 
13.187  72.677  61.650 
10.924  66.890  61.421 
12.355  71.025  64.047 
13.421  74.247  59.154 
12.388  70.670  61.029 
11.757  70.667  68.604 
10.952  58.732  66.530 
10.414  63.101  62.012 
11.683  70.554  68.043 
10.798  65.050  60.870 
12.438  70.681  57.763 
11.583  68.755  58.807 
11.065  67.109  64.897 
12.973  73.769  60.215 
10.734  63.812  62.258 
10.209  62.371  61.977 
10.653  63.248  59.191 
10.329  59.822  63.960 
12.407  70.493  60.107 
11.373  56.478  66.569 
11.734  62.135  71.629 
11.789  57.753  68.400 
11.475  58.510  69.124 
11.017  56.143  63.411 
10.501  58.529  58.950 
11.563  52.366  62.941 
10.542  63.528  63.339 
12.016  52.982  63.566 
11.336  53.170  62.616 
11.689  51.570  62.277 
11.605  51.124  61.604 
12.005  51.520  61.876 
11.506  50.367  59.409 
12.736  45.895  61.952 
13.090  46.994  61.602 
12.088  47.456  59.393 
13.543  44.931  64.408 
13.313  43.842  63.083 
14.191  43.983  63.699 
14.201  39.838  59.213 
12.565  46.598  60.523 
12.101  48.411  59.108 
15.261  37.021  61.982 
14.858  37.724  57.717 
17.162  34.866  61.926 
14.823  38.949  61.646 
17.585  34.149  54.273 
15.033  39.800  67.271 
17.696  33.798  67.356 
15.986  36.394  63.960 
19.026  31.243  61.489 
19.802  31.031  71.496 
17.872  32.130  57.229 
15.678  38.850  66.484 
16.566  35.467  60.281 
17.685  32.636  56.969 
16.296  34.956  59.174 
17.583  33.804  57.752 
23.165  25.163  59.451 
19.299  30.605  61.760 
22.814  27.158  71.170 
19.782  30.538  55.573 
20.435  31.424  48.339 
23.718  27.303  50.332 
26.374  22.610  58.352 
23.384  25.547  57.143 
27.115  22.090  61.594 
26.982  22.894  63.436 
26.276  22.213  56.802 
23.327  25.896  55.551 
22.308  25.871  56.470 
23.031  26.759  53.176 
29.323  19.450  56.662 
26.483  22.660  60.960 
28.976  20.970  62.258 
27.539  22.580  59.758 
25.902  22.565  59.143 
36.381  15.873  60.836 
31.756  20.199  52.085 
28.673  21.993  63.218 
35.889  15.574  60.814 
36.244  17.028  52.267 
40.112  13.463  59.913 
33.285  17.475  60.624 
33.422  17.895  53.466 
37.121  16.658  64.225 
40.283  13.993  61.571 
36.867  15.581  61.144 
39.860  14.205  57.868 
38.728  14.924  61.172 
40.222  13.807  59.119 
37.970  15.099  61.582 
42.401  13.721  58.001 
39.336  15.768  65.147 
37.478  15.179  61.376 
42.819  12.838  61.065 
35.896  15.962  57.433 
43.701  13.377  58.754 
44.128  13.333  59.500 
44.831  12.966  59.687 
45.140  12.402  58.888 
45.539  12.492  58.143 
46.261  11.945  59.232 
47.072  11.732  58.749 
47.005  11.845  59.915 
47.949  11.622  62.431 
49.733  10.929  60.495 
50.206  10.692  59.784 
49.013  11.126  61.487 
60.568  10.132  58.875 
60.202  9.832  57.797 
62.756  10.253  51.630 
52.385  11.848  49.506 
56.239  9.893  66.587 
56.395  10.309  52.067 
60.198  9.086  60.324 
60.471  9.655  62.484 
61.898  9.466  53.933 
61.221  9.662  57.070 
60.640  10.792  48.343 
64.383  10.416  51.224 
66.231  10.811  51.838 
60.275  9.731  54.647 
67.588  10.119  57.466 
59.132  9.405  55.925 
65.191  10.165  53.437 
68.551  10.848  53.214 
65.999  9.988  54.036 
69.235  10.740  54.612 
78.451  14.617  60.103 
73.140  12.570  53.993 
72.112  11.370  61.216 
72.002  11.534  57.464 
69.633  10.939  59.735 
73.205  12.582  52.360 
76.561  13.257  56.900 
80.267  15.498  62.710 
74.942  13.376  55.744 
72.619  11.575  57.018 
78.835  15.045  51.660 
75.407  12.908  57.533 
78.386  14.295  54.986 
80.583  15.633  55.345 
81.104  15.492  57.205 
81.519  15.649  55.651 
82.079  16.136  57.443 
82.983  16.418  57.644 
82.066  15.987  55.890 
84.176  17.668  56.180 
85.273  18.253  56.904 
85.126  18.161  55.607 
87.403  19.888  54.760 
86.071  19.327  55.842 
88.306  20.290  57.046 
86.465  19.885  55.180 
87.236  19.930  56.317 
88.248  21.108  54.476 
89.610  21.196  57.967 
88.146  20.603  53.854 
88.254  19.853  66.982 
89.913  21.386  56.696 
96.541  25.436  60.978 
96.066  25.537  58.706 
92.742  23.316  57.699 
92.933  23.258  58.610 
94.897  24.637  60.161 
92.018  22.199  60.985 
96.423  27.173  54.930 
98.459  28.387  56.504 
98.922  29.519  57.726 
95.993  26.531  54.294 
95.048  24.727  58.004 
95.423  26.552  53.119 
93.101  23.313  61.715 
97.822  27.199  58.473 
96.263  26.066  57.294 
97.141  27.687  53.867 
98.382  31.516  51.005 
103.204  35.084  61.596 
98.897  28.408  61.698 
102.367  33.994  56.000 
101.485  36.269  50.570 
101.693  31.924  64.565 
103.296  34.463  60.904 
102.403  35.382  51.923 
103.295  36.786  56.619 
104.352  37.856  56.874 
99.760  30.573  56.933 
105.227  40.207  60.085 
105.156  40.416  57.771 
103.128  36.242  52.877 
104.530  39.819  55.243 
106.272  43.120  62.175 
104.410  38.946  54.994 
105.669  43.520  53.542 
105.202  41.103  56.075 
104.534  41.332  54.339 
106.175  43.326  56.641 
105.939  42.429  57.586 
107.073  45.734  58.171 
106.649  44.954  59.702 
107.105  46.393  59.773 
107.036  46.496  57.044 
107.715  47.891  57.947 
106.909  46.873  59.844 
107.503  50.006  58.102 
107.788  48.849  59.777 
107.643  50.360  59.351 
108.548  52.382  59.734 
108.846  51.904  61.020 
109.008  52.694  60.769 
109.082  54.128  61.373 
109.225  54.863  59.884 
108.623  52.433  67.180 
109.765  58.230  57.600 
109.154  61.697  58.897 
109.042  60.815  50.448 
108.707  54.424  55.755 
109.941  65.254  63.137 
109.095  58.873  57.489 
109.242  61.499  54.322 
108.645  64.355  57.806 
109.262  63.661  57.426 
109.121  64.012  55.048 
109.237  64.889  58.329 
109.179  66.412  58.938 
109.228  64.924  57.798 
108.946  66.749  60.622 
108.473  67.455  58.906 
108.631  68.267  57.480 
108.777  69.059  57.960 
108.567  69.903  57.033 
108.126  70.532  57.335 
108.289  70.305  57.797 
107.796  73.568  58.684 
107.860  71.861  58.556 
107.927  72.580  56.314 
107.289  71.391  57.824 
107.108  75.146  58.570 
102.715  85.696  63.136 
107.189  76.089  57.239 
104.630  83.577  60.550 
106.644  78.332  55.927 
104.750  82.118  55.226 
104.102  82.670  56.103 
102.833  85.491  62.410 
106.078  80.018  62.724 
101.955  85.299  55.440 
105.731  79.010  57.482 
101.381  86.667  63.073 
101.011  84.667  46.604 
103.403  82.027  48.698 
105.769  80.985  59.846 
100.157  89.264  58.933 
96.776  93.419  55.639 
100.623  88.813  58.498 
105.191  80.509  55.775 
96.803  91.062  47.238 
100.798  87.816  62.816 
91.615  96.088  49.594 
101.034  86.036  65.799 
100.250  86.358  67.449 
100.910  86.895  65.517 
98.863  91.383  61.377 
93.686  96.653  62.061 
98.286  90.929  63.061 
93.168  97.240  60.625 
92.913  95.929  64.822 
100.695  88.693  62.978 
91.513  95.368  46.911 
95.495  93.033  48.886 
94.851  95.185  62.591 
92.595  96.685  64.529 
93.505  96.453  62.677 
90.369  98.030  66.244 
92.720  97.629  62.173 
86.917  101.045  62.105 
92.578  96.944  56.758 
88.605  100.193  55.937 
89.602  99.777  57.039 
91.566  97.684  56.469 
83.233  103.626  59.385 
93.824  96.537  61.250 
95.665  94.554  62.473 
87.854  100.645  52.680 
84.603  102.906  60.075 
82.533  103.814  58.253 
83.398  103.010  61.532 
90.911  98.207  52.638 
80.862  104.931  57.943 
81.201  104.501  60.531 
78.549  105.845  60.139 
83.617  103.085  51.012 
78.460  105.408  61.556 
79.583  105.020  60.217 
76.724  105.793  49.441 
77.589  106.466  56.887 
75.034  107.243  58.409 
77.705  106.323  54.206 
76.486  106.392  51.050 
73.639  107.492  59.786 
73.562  106.942  50.415 
72.131  107.697  56.417 
70.616  107.501  54.445 
70.049  108.039  54.671 
76.247  105.684  48.414 
73.343  107.498  54.354 
69.117  107.800  55.725 
73.061  107.597  52.645 
67.882  107.713  55.492 
68.489  108.316  56.403 
67.438  108.608  57.273 
65.261  108.682  58.558 
67.212  108.807  58.554 
64.651  108.353  57.499 
64.165  108.342  56.919 
64.580  108.212  58.807 
60.453  109.770  64.396 
59.034  109.069  60.650 
57.540  109.654  63.151 
61.855  108.353  57.999 
61.088  108.870  58.256 
53.330  108.718  58.781 
52.332  108.642  58.438 
61.477  109.539  62.920 
53.404  108.968  56.514 
53.014  108.664  57.877 
58.030  109.367  64.994 
55.428  108.353  69.646 
50.205  107.470  59.615 
47.856  107.388  62.101 
53.113  108.480  55.458 
52.963  108.252  51.029 
47.988  107.189  60.490 
49.904  107.470  56.762 
45.514  106.466  60.947 
44.079  106.151  59.137 
43.559  105.292  59.301 
41.885  104.888  59.729 
41.667  104.525  60.562 
51.216  108.277  54.976 
42.103  105.313  60.514 
40.949  104.953  58.254 
40.087  104.587  60.026 
38.933  104.066  59.174 
39.426  104.169  60.694 
38.650  103.411  60.828 
37.865  103.079  58.802 
35.481  102.505  61.476 
34.261  102.203  61.052 
34.762  102.370  57.836 
33.602  100.960  62.311 
32.143  99.731  67.958 
30.301  100.388  58.471 
27.280  97.262  56.795 
33.835  101.577  64.221 
31.306  100.251  62.517 
33.277  100.471  70.472 
20.815  89.963  63.473 
17.722  83.386  69.698 
26.800  97.626  61.129 
27.984  98.225  61.815 
25.836  96.492  62.766 
19.634  87.807  69.262 
29.185  98.584  64.320 
23.717  94.903  61.613 
26.487  96.745  57.231 
23.515  93.677  63.574 
21.797  91.229  61.031 
24.827  95.860  60.351 
21.485  90.189  64.588 
23.062  93.207  63.178 
21.104  90.524  62.519 
26.786  96.570  59.526 
21.550  90.901  64.814 
23.384  93.606  58.817 
21.613  91.412  66.947 
20.937  90.779  56.795 
21.037  89.609  58.892 
19.485  87.360  57.495 
21.158  90.174  61.637 
20.866  88.258  72.542 
21.382  90.634  65.964 
22.228  92.447  57.875 
19.729  87.020  71.955 
18.346  84.506  62.298 
16.366  82.038  60.618 
16.779  82.651  61.139 
15.999  80.841  65.612 
16.134  81.589  61.256 
16.414  80.775  61.282 
18.010  84.421  63.153 
15.871  80.779  61.452 
15.168  79.816  61.023 
15.332  78.098  63.444 
14.460  78.226  63.030 
13.621  76.344  63.771 
13.366  74.356  65.868 
11.509  65.599  56.866 
12.627  72.841  65.001 
13.223  72.973  54.849 
13.508  75.171  61.262 
12.731  71.615  59.427 
12.183  71.572  67.065 
13.211  74.093  64.945 
11.335  64.104  71.188 
13.301  73.344  61.824 
11.072  66.127  58.526 
12.031  69.194  57.107 
13.229  74.229  62.903 
10.353  65.075  63.511 
12.899  72.756  62.712 
10.525  62.007  58.993 
10.873  65.307  59.585 
11.373  68.459  61.901 
10.746  65.209  67.252 
10.957  67.237  62.681 
11.717  69.525  59.751 
11.456  68.136  64.180 
10.596  63.399  57.599 
12.480  71.615  60.013 
10.493  57.910  61.790 
11.272  55.972  67.776 
11.454  55.385  67.826 
10.712  62.494  59.071 
11.326  54.142  64.757 
11.145  49.289  57.819 
11.254  62.503  48.621 
11.264  54.166  62.839 
11.149  52.532  56.817 
12.097  51.105  63.080 
12.216  48.195  60.966 
11.928  49.681  63.480 
12.511  47.668  60.361 
12.388  48.274  62.412 
11.889  48.505  60.201 
12.379  46.442  61.297 
11.420  49.981  53.407 
13.519  45.306  63.729 
14.186  43.107  61.579 
12.773  44.463  58.110 
15.727  36.284  59.258 
17.184  33.819  54.898 
13.957  41.394  61.492 
14.501  40.950  52.830 
12.363  46.668  59.523 
14.397  37.737  56.613 
14.753  37.582  62.822 
15.103  39.075  65.802 
15.713  40.232  69.747 
18.549  32.067  62.491 
15.308  37.572  65.671 
17.085  34.891  66.416 
17.163  33.856  55.776 
17.825  32.169  55.356 
18.997  32.085  51.274 
16.811  35.546  58.729 
18.729  33.477  49.472 
20.724  28.445  58.682 
18.089  34.910  71.769 
18.512  31.796  63.483 
20.923  29.201  53.154 
19.239  30.760  54.898 
29.269  21.966  51.025 
27.060  22.714  62.294 
27.445  21.251  57.722 
20.830  28.577  54.026 
28.631  22.124  50.637 
26.648  22.183  58.150 
29.151  20.781  53.332 
26.792  22.795  59.509 
31.209  19.253  61.422 
28.374  21.383  61.225 
33.266  17.038  55.665 
28.290  20.833  56.968 
26.675  22.804  61.582 
26.080  23.237  59.340 
26.972  22.763  60.398 
32.965  17.012  57.157 
32.247  18.249  60.419 
32.586  17.430  56.155 
33.297  18.634  61.319 
28.524  19.684  56.306 
41.479  13.602  64.460 
34.097  16.864  56.165 
40.984  15.143  52.346 
34.948  15.888  59.395 
35.216  16.014  56.455 
43.078  14.270  52.230 
31.589  18.370  58.392 
35.232  16.160  61.522 
39.102  14.785  61.925 
37.054  15.144  60.416 
36.975  15.200  57.579 
38.297  15.029  59.089 
38.814  14.951  54.276 
42.988  12.831  59.176 
42.380  13.223  58.150 
43.375  13.866  57.399 
44.518  13.006  58.782 
44.513  12.447  59.031 
44.735  12.378  58.212 
46.586  11.702  57.882 
46.436  11.939  58.641 
46.941  12.135  59.408 
48.397  11.508  59.645 
47.657  11.461  59.355 
51.800  10.335  60.830 
48.298  11.752  61.606 
51.802  10.394  60.100 
50.332  11.062  61.045 
51.002  10.949  67.830 
55.983  9.957  53.867 
72.465  11.825  53.631 
57.184  9.815  58.570 
71.157  13.652  47.226 
64.195  11.137  49.215 
60.071  9.325  56.580 
58.448  10.107  51.415 
56.813  10.491  52.981 
69.379  11.375  51.353 
54.660  9.328  59.754 
69.236  10.873  58.216 
65.147  9.585  56.946 
66.105  10.925  53.652 
62.325  9.890  52.333 
73.475  11.767  55.932 
67.157  10.723  52.220 
71.515  11.244  54.669 
65.941  12.241  47.433 
65.617  10.190  56.426 
64.745  10.534  55.450 
69.945  10.302  56.806 
75.262  13.788  52.595 
66.358  10.387  56.880 
77.847  14.940  51.479 
69.671  13.063  46.947 
76.102  13.367  55.411 
78.042  15.312  50.649 
76.140  14.208  51.852 
75.467  12.182  63.978 
76.182  12.464  62.257 
78.253  14.447  58.268 
79.443  15.198  55.458 
79.549  14.906  56.368 
81.187  15.433  56.374 
81.525  15.933  56.459 
82.095  16.386  56.563 
83.592  16.962  56.061 
83.123  16.993  55.863 
84.360  18.212  55.583 
