24.974  94.046  71.167 
31.254  99.804  70.112 
33.533  97.867  80.389 
28.288  96.597  72.844 
28.933  98.216  72.058 
23.589  94.123  66.533 
30.275  97.403  73.596 
30.837  98.461  72.057 
25.493  94.783  70.907 
23.231  90.711  73.160 
33.668  100.605  72.321 
25.286  94.604  71.861 
27.382  96.281  71.397 
24.748  92.520  74.969 
24.242  91.724  74.754 
20.938  90.322  69.004 
20.534  82.382  81.812 
21.629  88.648  76.251 
33.759  101.420  70.524 
21.220  90.444  70.905 
18.112  86.420  59.948 
19.490  86.328  72.707 
20.781  87.177  76.846 
19.416  82.121  78.206 
21.492  89.343  74.485 
18.682  79.394  80.245 
19.930  83.892  79.270 
16.948  76.042  79.606 
23.324  89.172  79.157 
18.837  79.064  81.234 
20.074  84.273  78.582 
17.726  80.905  75.640 
19.535  85.519  75.058 
17.363  75.446  79.964 
18.714  82.934  76.945 
20.597  84.148  79.884 
18.091  80.724  76.563 
16.276  80.017  74.198 
16.761  77.299  78.533 
18.664  79.593  79.043 
16.816  79.153  75.066 
14.082  74.561  72.912 
13.897  75.942  70.874 
13.735  68.967  77.995 
11.498  63.755  72.072 
15.901  77.969  75.206 
19.963  69.454  84.937 
15.660  74.636  76.606 
15.553  71.689  78.344 
12.420  70.142  70.771 
13.064  68.967  73.924 
16.292  73.761  80.054 
12.845  59.266  74.727 
12.283  72.327  70.106 
16.362  69.050  82.408 
13.071  65.287  73.862 
14.305  62.730  78.473 
12.370  65.280  74.131 
11.183  60.769  66.068 
10.595  63.816  67.673 
16.739  60.967  83.935 
12.666  57.351  75.760 
12.805  62.919  75.805 
14.540  53.221  78.566 
14.223  53.607  74.597 
13.540  50.340  72.401 
15.636  50.856  81.512 
12.829  54.245  72.585 
15.134  48.533  79.354 
16.214  43.138  75.435 
14.843  49.589  73.768 
15.221  47.555  77.118 
14.527  53.326  79.504 
15.394  42.598  72.880 
12.527  55.557  71.358 
14.423  48.098  74.044 
17.134  42.792  80.193 
13.726  52.050  73.198 
13.862  47.209  69.288 
14.260  41.686  65.822 
15.034  42.140  70.010 
15.033  40.175  68.767 
17.428  38.063  74.347 
15.034  41.947  65.496 
15.776  39.897  69.204 
14.851  44.821  71.051 
14.075  44.382  69.336 
16.129  43.064  74.185 
16.596  38.726  73.319 
20.247  35.867  79.679 
15.465  37.098  64.085 
16.782  37.022  72.098 
16.011  38.845  72.765 
15.444  41.118  71.232 
17.062  34.954  67.530 
18.940  35.676  76.010 
16.619  38.081  71.398 
21.000  31.453  72.901 
15.738  45.450  75.235 
19.439  31.079  67.430 
18.824  37.485  77.271 
19.992  34.590  75.842 
21.355  27.989  64.900 
17.253  40.200  77.254 
26.622  25.658  73.517 
21.307  31.027  71.300 
24.212  30.391  78.218 
26.020  27.004  74.355 
22.093  28.786  69.717 
25.210  26.134  69.033 
27.044  25.397  73.551 
24.973  26.729  70.233 
28.731  24.146  72.783 
26.436  26.562  72.415 
28.212  24.184  71.564 
29.506  23.770  71.900 
30.408  22.830  73.066 
31.069  21.674  70.158 
31.118  21.862  71.394 
32.415  20.312  70.557 
32.597  20.104  70.987 
32.707  20.372  72.333 
34.029  19.742  71.650 
34.780  18.400  71.046 
33.891  19.991  72.817 
35.573  17.972  71.286 
35.589  18.498  71.803 
35.757  18.596  72.368 
35.711  18.409  72.875 
37.753  16.946  70.537 
38.530  17.205  72.114 
37.214  17.568  74.092 
36.655  18.527  74.423 
39.203  17.122  75.923 
50.825  12.020  74.609 
41.416  15.135  72.882 
50.769  16.665  85.208 
46.035  15.228  79.243 
46.776  16.881  82.777 
44.139  18.276  83.410 
46.001  13.129  71.684 
44.167  14.251  71.565 
40.838  15.002  66.892 
51.622  10.730  72.169 
46.275  12.701  65.354 
40.058  17.141  77.649 
45.757  12.822  66.921 
46.561  12.295  69.830 
43.947  14.000  68.964 
47.724  12.875  73.106 
53.684  10.693  72.414 
56.909  10.395  69.288 
49.635  11.702  73.717 
59.049  10.821  67.461 
52.448  10.274  62.106 
62.455  10.658  65.225 
50.381  10.738  67.219 
60.854  10.738  68.294 
52.127  10.166  65.261 
62.491  11.051  71.669 
64.024  11.746  74.192 
61.386  11.003  71.736 
63.463  11.221  67.233 
63.605  10.719  68.823 
66.530  11.251  68.156 
62.961  11.393  69.927 
66.056  11.024  68.161 
66.487  11.357  70.259 
63.911  12.782  78.239 
63.825  11.032  70.053 
70.244  11.954  71.452 
68.373  11.853  72.832 
74.678  15.727  80.254 
74.626  11.648  63.120 
69.426  11.183  66.507 
79.402  16.303  76.379 
71.706  11.345  65.237 
72.532  11.504  64.727 
68.139  11.305  67.652 
75.473  14.383  75.117 
71.081  11.514  67.050 
77.140  13.323  68.692 
79.091  19.082  82.954 
68.644  14.946  81.843 
84.503  18.122  73.318 
74.916  15.176  77.803 
82.649  16.203  62.551 
76.523  15.825  78.522 
80.125  14.442  64.534 
82.397  16.608  62.342 
79.743  16.113  75.621 
72.716  13.478  75.705 
78.683  14.802  73.141 
82.033  16.515  74.774 
81.055  14.930  67.854 
79.513  14.750  67.069 
80.818  14.927  70.322 
88.573  19.330  67.688 
80.946  15.124  65.946 
91.458  23.998  74.253 
90.823  22.965  74.566 
87.828  20.934  74.943 
89.827  20.766  68.569 
84.965  17.275  69.200 
95.526  27.661  74.181 
98.127  27.195  63.192 
88.986  20.435  71.292 
98.625  27.878  61.733 
100.578  34.816  75.336 
91.433  23.768  73.157 
90.259  20.921  67.025 
97.942  27.783  64.983 
99.913  32.428  73.602 
90.494  20.888  67.638 
98.353  28.988  69.183 
100.702  31.916  69.052 
102.148  33.405  69.117 
100.688  33.626  71.204 
98.682  29.297  55.102 
104.073  35.604  61.191 
107.509  45.103  66.503 
99.934  37.725  78.845 
97.394  28.164  70.044 
98.910  28.709  67.026 
96.138  26.697  70.258 
101.058  35.459  72.841 
96.805  26.275  64.902 
101.552  41.155  77.930 
101.389  39.184  78.205 
103.924  44.046  76.387 
102.769  40.576  76.097 
102.198  32.927  65.298 
105.869  46.726  73.011 
104.211  44.373  75.502 
106.100  41.144  65.975 
106.825  46.268  71.438 
107.390  46.949  68.452 
107.962  47.967  63.941 
109.978  64.278  68.288 
107.089  45.844  70.549 
104.214  42.040  74.598 
103.205  43.771  76.968 
105.137  42.601  72.987 
109.864  56.874  67.147 
106.130  47.489  73.413 
109.696  57.208  66.541 
105.037  46.761  76.288 
108.162  49.151  68.905 
106.355  48.087  74.016 
110.206  57.429  64.728 
110.205  63.081  63.889 
107.435  52.883  71.981 
108.776  62.984  74.057 
110.114  56.386  62.771 
110.059  64.975  65.637 
108.589  59.375  51.277 
108.089  59.660  72.893 
106.603  68.704  77.254 
110.156  60.001  60.265 
108.920  60.128  70.295 
109.553  55.116  67.963 
109.221  67.698  62.392 
109.481  64.121  68.333 
105.492  72.080  77.069 
109.269  67.847  63.527 
106.892  67.319  78.429 
107.683  72.787  63.365 
106.379  67.760  77.557 
107.784  69.804  74.166 
107.896  67.819  75.402 
106.540  72.387  72.819 
108.050  69.514  72.798 
106.534  76.735  59.827 
106.610  67.578  76.469 
107.051  72.303  71.215 
107.464  72.860  65.845 
107.591  74.397  65.261 
104.235  75.530  74.680 
107.446  69.052  73.594 
103.149  83.669  65.487 
105.431  75.849  69.991 
102.865  79.111  70.525 
104.363  77.541  72.300 
103.576  78.598  71.225 
103.705  78.174  71.864 
102.075  81.036  70.926 
102.215  81.482  70.680 
100.906  82.816  70.400 
100.474  82.992  71.546 
100.219  83.238  72.374 
100.513  84.157  70.458 
99.280  85.136  72.154 
99.146  85.512  71.332 
98.113  86.999  72.340 
99.227  87.362  69.923 
99.397  85.098  71.225 
97.336  88.580  70.817 
95.563  88.907  72.731 
95.653  89.619  72.160 
94.857  91.596  71.158 
95.542  90.065  72.652 
95.748  89.993  71.804 
94.302  92.571  71.041 
94.051  91.798  72.207 
93.560  92.746  70.935 
92.607  92.779  72.712 
93.466  92.632  71.863 
92.472  93.404  71.614 
91.765  95.408  70.843 
91.185  94.845  71.277 
91.669  94.571  72.267 
90.552  96.112  71.348 
89.649  97.032  72.347 
89.809  96.881  71.508 
90.152  96.367  72.044 
90.584  97.227  68.847 
87.342  100.203  68.668 
85.239  102.096  67.098 
86.903  99.246  74.097 
86.628  99.833  71.601 
89.981  98.014  68.024 
87.281  98.164  72.262 
79.244  98.856  83.004 
83.031  101.340  73.946 
82.886  101.878  68.291 
82.457  102.663  72.111 
82.928  102.617  69.495 
78.975  104.126  72.759 
83.970  101.873  65.896 
81.229  103.196  72.370 
81.087  103.037  70.893 
79.846  103.134  75.430 
76.886  104.759  70.372 
78.358  104.616  69.257 
63.896  108.099  71.519 
76.947  105.255  69.044 
72.430  106.393  67.022 
74.345  106.273  68.227 
73.416  106.962  66.140 
72.400  106.915  67.257 
70.504  107.956  68.732 
68.931  108.861  60.189 
68.679  107.561  70.864 
67.290  108.597  68.833 
71.278  104.228  78.082 
67.945  107.726  70.071 
68.256  105.548  75.771 
60.068  109.237  68.419 
66.813  109.161  63.801 
68.891  107.055  71.013 
65.736  109.236  66.301 
63.953  107.324  74.494 
66.273  104.404  78.907 
62.545  109.479  66.402 
65.631  108.102  69.403 
53.354  109.204  65.567 
59.457  108.110  72.454 
69.531  106.297  74.027 
59.356  108.982  67.807 
61.679  108.494  69.763 
61.099  107.554  73.892 
65.204  108.688  66.802 
58.998  109.769  65.956 
55.447  107.694  74.552 
42.481  105.304  65.732 
50.677  108.900  67.138 
53.993  108.006  72.384 
46.236  105.716  73.567 
48.893  108.130  65.926 
51.078  107.646  71.894 
45.805  105.830  73.198 
51.104  108.671  63.426 
45.185  104.680  76.481 
54.550  109.019  64.353 
48.558  102.107  83.283 
43.293  103.705  75.214 
39.699  102.800  74.896 
45.218  106.994  68.283 
44.293  104.901  74.977 
41.684  105.374  65.728 
41.668  105.599  70.375 
36.633  101.637  74.663 
42.971  105.645  66.833 
41.780  105.220  68.437 
46.955  108.016  67.159 
34.592  98.845  79.583 
45.878  105.703  75.137 
42.141  105.077  72.212 
34.033  102.227  65.191 
28.865  95.916  76.618 
33.871  97.596  80.719 
28.505  97.963  72.555 
28.595  97.615  72.824 
34.380  99.690  75.354 
36.508  101.255  75.550 
30.003  99.094  68.197 
24.078  92.745  72.995 
28.888  97.613  73.308 
31.331  98.994  72.416 
24.537  93.847  67.985 
23.649  91.895  74.455 
31.450  100.232  69.495 
19.988  89.421  67.770 
27.957  97.997  67.367 
26.631  96.564  70.714 
25.499  92.884  74.795 
21.216  86.678  79.581 
22.518  91.333  71.673 
18.213  85.391  68.877 
24.257  93.036  72.096 
24.663  90.398  80.587 
18.609  85.412  71.681 
22.601  85.342  82.744 
25.293  94.747  70.062 
19.392  87.272  71.489 
22.466  87.998  79.716 
18.518  86.433  72.373 
22.146  88.416  77.800 
19.732  83.562  77.220 
19.461  85.980  75.916 
23.017  89.214  79.870 
16.806  82.512  72.737 
16.814  83.141  71.171 
19.856  81.243  79.642 
18.994  84.732  74.848 
19.417  82.495  77.068 
18.772  85.582  73.894 
15.517  79.319  72.013 
17.212  80.369  76.448 
16.394  77.328  75.272 
16.569  78.922  76.100 
14.208  75.930  72.238 
13.267  71.116  76.506 
12.697  72.632  68.235 
14.319  71.763  75.908 
13.575  69.416  77.968 
12.292  70.733  69.196 
12.635  70.556  71.494 
12.687  71.436  71.535 
11.360  69.552  62.486 
12.776  71.363  68.582 
12.581  72.868  70.656 
11.973  67.873  70.902 
14.767  63.106  80.077 
12.614  71.330  67.191 
11.450  60.553  70.176 
14.054  60.750  77.066 
12.349  65.875  72.865 
10.577  61.291  67.441 
10.658  60.331  68.422 
10.966  58.197  69.601 
13.581  63.270  77.380 
14.512  54.051  78.683 
11.837  56.118  70.118 
12.578  55.488  74.341 
16.260  54.920  84.038 
14.971  53.163  79.741 
12.742  54.032  71.744 
13.205  54.300  74.015 
13.822  52.105  75.606 
13.770  51.683  73.940 
14.847  47.496  73.507 
13.524  50.901  71.807 
13.677  48.197  71.348 
15.611  44.487  74.448 
15.003  55.117  81.371 
14.369  46.207  71.492 
15.710  46.310  75.997 
15.199  41.100  68.878 
15.696  39.900  71.210 
14.501  47.828  73.214 
17.313  40.984  77.556 
17.751  38.723  75.630 
16.790  35.039  69.287 
14.958  40.147  60.312 
16.138  39.424  73.674 
14.923  41.169  66.990 
15.252  41.353  70.269 
18.291  38.630  77.443 
14.439  43.654  66.964 
17.289  38.964  73.270 
15.879  39.076  68.078 
15.385  45.318  73.739 
16.974  36.519  71.078 
22.515  35.363  82.942 
14.667  47.104  75.314 
16.222  37.936  70.152 
15.200  42.562  72.372 
20.235  36.916  80.968 
17.582  37.695  75.679 
19.359  31.593  70.497 
14.623  40.926  68.285 
21.989  33.328  79.553 
16.814  38.242  72.614 
21.367  28.927  67.846 
23.269  27.972  71.981 
25.289  27.772  76.822 
25.720  24.886  66.173 
25.809  25.457  68.499 
28.599  23.205  69.748 
28.322  24.051  72.046 
26.789  25.289  72.696 
29.658  22.991  70.169 
28.257  23.334  70.387 
29.308  23.033  71.639 
28.960  22.747  70.465 
28.915  23.161  70.810 
29.081  23.592  72.399 
32.423  20.223  69.648 
31.851  21.102  69.812 
33.044  20.125  70.553 
33.947  19.021  71.169 
34.810  19.018  72.517 
34.730  19.225  71.013 
35.281  18.502  70.576 
36.187  18.049  71.776 
36.162  17.407  71.032 
36.558  17.608  70.757 
38.527  16.451  70.603 
38.682  16.666  69.725 
38.605  16.654  71.411 
36.464  17.559  71.809 
45.226  15.042  77.727 
40.242  14.690  65.824 
40.320  15.792  71.736 
38.505  17.132  73.118 
41.573  15.197  71.378 
46.630  13.709  74.147 
41.723  18.237  81.030 
41.001  15.443  72.118 
43.345  14.646  72.843 
40.784  15.776  69.072 
45.501  12.215  66.487 
45.269  15.690  79.222 
45.151  13.175  69.108 
45.337  14.477  75.757 
48.121  16.751  84.394 
46.547  12.138  63.318 
51.743  10.753  71.487 
45.151  14.319  75.307 
52.505  10.804  59.367 
52.368  10.176  67.024 
45.842  12.296  64.687 
49.622  10.841  69.500 
57.783  10.452  72.163 
59.982  10.537  65.476 
47.695  14.298  79.289 
63.856  11.893  73.195 
58.532  11.152  70.371 
66.786  11.334  67.269 
62.581  10.625  68.168 
58.738  10.460  69.249 
62.455  11.392  69.155 
66.589  11.547  66.446 
65.530  11.905  69.618 
68.701  11.920  71.587 
64.797  11.021  69.652 
67.589  11.051  66.818 
68.031  11.322  68.506 
70.920  11.292  67.645 
69.620  12.282  73.283 
70.868  11.152  64.660 
69.367  14.037  78.780 
76.602  12.810  66.828 
69.076  11.275  64.112 
67.553  10.780  62.299 
71.175  12.049  65.234 
76.522  14.566  75.084 
76.931  13.283  69.523 
77.784  13.937  70.762 
77.904  13.506  62.026 
73.988  13.250  72.923 
73.871  11.732  66.541 
70.946  11.111  59.503 
77.445  12.946  64.483 
72.610  11.839  66.822 
74.449  13.724  71.264 
77.183  14.409  70.600 
78.833  14.131  62.411 
78.135  14.554  69.736 
87.545  19.588  71.077 
79.891  15.461  73.990 
78.183  14.427  71.389 
83.048  16.278  69.143 
83.149  19.350  79.540 
82.683  17.589  75.753 
83.870  17.056  65.489 
88.227  19.519  69.141 
89.362  20.621  70.426 
91.320  21.929  71.033 
81.828  15.648  64.673 
85.708  21.425  78.337 
89.887  21.464  65.143 
92.760  23.566  70.272 
82.879  17.449  74.375 
96.042  26.012  65.548 
90.458  21.605  65.756 
90.906  22.308  72.090 
94.223  24.880  67.586 
91.600  22.679  63.518 
93.370  26.693  78.757 
92.402  22.797  70.673 
101.908  32.252  65.685 
91.730  22.277  66.501 
96.300  25.841  62.684 
101.807  31.932  55.475 
99.810  32.044  72.905 
100.220  30.113  64.579 
99.200  32.325  74.648 
102.347  33.222  67.333 
99.258  33.589  75.098 
96.174  27.218  69.165 
101.306  33.764  71.633 
98.786  32.829  75.984 
101.750  38.597  76.402 
102.405  38.175  74.085 
105.624  43.034  71.241 
101.598  41.503  79.127 
99.673  30.538  69.869 
106.228  46.475  72.199 
103.862  37.782  70.396 
104.554  36.402  63.084 
101.185  33.073  70.249 
102.947  34.632  68.096 
103.457  44.496  76.308 
104.179  42.892  74.682 
107.388  46.535  66.325 
102.654  34.324  64.309 
106.844  44.230  66.001 
109.790  56.877  59.169 
106.708  43.481  70.273 
105.442  47.036  75.747 
105.672  47.894  75.771 
107.395  45.414  69.629 
108.789  55.199  70.474 
105.905  49.523  75.086 
110.525  59.251  65.643 
110.123  59.213  67.088 
109.967  61.301  67.388 
106.408  47.306  71.081 
110.117  58.134  65.297 
109.153  57.978  53.278 
107.598  54.529  72.528 
110.351  62.333  63.390 
108.248  52.938  69.831 
109.595  64.894  69.739 
108.720  65.536  71.157 
109.074  62.131  55.842 
110.424  59.962  62.929 
109.126  63.408  60.406 
108.354  58.765  49.616 
109.257  69.332  63.451 
107.518  68.246  75.930 
108.590  62.757  73.651 
107.786  71.555  70.772 
106.789  66.875  78.217 
109.097  65.076  70.746 
109.855  67.142  63.810 
108.460  66.829  72.493 
105.288  68.492  80.387 
107.071  70.341  75.446 
106.187  77.586  60.251 
106.820  74.295  68.586 
109.228  64.324  70.283 
104.254  77.960  71.654 
108.368  69.220  72.159 
109.039  58.564  71.468 
104.054  77.799  72.531 
107.364  74.031  65.646 
103.673  75.280  74.413 
107.390  71.018  72.537 
104.700  75.564  72.158 
104.528  77.605  70.764 
102.895  79.144  71.034 
105.310  76.978  68.191 
103.229  79.852  68.780 
102.997  79.920  70.777 
99.856  85.182  69.658 
100.860  83.259  71.245 
100.050  84.193  71.530 
100.797  82.875  69.870 
99.745  84.906  72.157 
102.810  82.307  67.460 
98.396  86.163  72.506 
98.879  85.772  71.921 
102.485  81.765  68.109 
100.480  88.359  57.421 
99.344  86.264  70.609 
99.285  86.842  69.936 
95.771  90.394  71.186 
95.189  90.415  71.951 
94.781  90.936  70.683 
95.600  92.054  68.765 
98.518  91.126  62.356 
95.840  90.263  70.526 
93.268  94.139  70.628 
93.380  93.442  71.389 
92.245  94.700  69.652 
92.524  93.900  71.579 
89.752  96.871  70.476 
91.409  95.142  71.636 
90.694  95.659  71.839 
90.298  95.558  70.901 
90.228  95.975  70.074 
90.785  97.423  68.090 
89.665  97.524  70.897 
87.089  100.424  67.173 
84.987  100.794  73.981 
86.376  99.962  70.738 
87.705  98.753  71.864 
87.582  99.581  70.582 
82.151  101.939  73.222 
86.938  98.653  72.653 
86.430  99.628  72.971 
81.203  102.506  74.516 
87.195  98.093  75.443 
84.960  100.109  74.687 
85.125  100.665  72.458 
80.152  103.210  70.681 
82.236  102.503  70.836 
88.353  99.207  69.487 
76.487  105.187  69.852 
77.702  105.049  68.860 
75.539  105.745  68.797 
75.569  105.968  67.915 
71.960  106.530  68.903 
68.702  108.113  62.452 
73.817  105.862  69.956 
73.100  106.774  67.037 
68.314  108.164  64.776 
70.747  107.574  68.134 
72.589  107.406  64.908 
71.120  106.888  67.865 
70.584  106.574  72.689 
66.091  105.749  75.187 
64.597  104.845  78.130 
69.879  108.295  67.483 
60.384  109.151  66.088 
62.089  109.427  65.695 
54.185  109.556  58.882 
59.340  107.495  74.224 
65.503  107.434  73.669 
64.476  109.119  67.479 
57.931  109.796  62.207 
66.366  104.442  78.397 
62.862  107.980  72.864 
54.657  108.188  70.553 
60.656  109.617  65.337 
59.351  109.112  70.749 
68.307  105.859  74.893 
57.502  108.110  74.174 
58.810  109.052  67.107 
52.695  108.093  70.187 
50.448  104.210  79.906 
56.237  109.179  64.324 
53.077  108.605  68.520 
59.542  107.844  74.621 
46.967  107.182  70.508 
56.176  109.059  65.811 
51.263  108.851  62.968 
46.013  107.102  69.946 
38.611  104.177  64.047 
44.261  106.393  66.226 
48.094  107.406  61.628 
50.725  103.872  80.862 
38.910  102.038  75.558 
49.066  107.479  69.614 
37.530  103.900  67.207 
40.566  102.432  74.896 
47.062  108.009  68.976 
43.374  106.244  67.308 
47.341  104.532  78.349 
40.155  101.492  80.291 
43.449  103.442  76.652 
38.322  100.401  78.359 
39.793  103.694  72.895 
36.901  102.652  72.118 
39.737  103.200  72.670 
37.899  102.892  69.821 
34.351  99.142  77.955 
37.886  100.132  81.246 
36.978  102.909  70.009 
34.165  97.950  80.967 
37.435  100.565  79.150 
35.851  99.578  76.270 
25.815  94.919  72.438 
24.795  94.460  71.809 
29.476  97.557  74.085 
30.835  98.565  72.670 
30.569  99.139  70.148 
24.423  92.729  73.475 
23.015  92.703  70.190 
21.386  86.943  78.505 
25.784  95.694  68.496 
26.371  96.905  65.889 
21.735  87.921  77.041 
21.781  92.070  67.122 
23.707  93.774  69.183 
20.769  88.024  75.101 
23.900  90.341  79.680 
22.861  92.289  70.989 
25.561  94.623  72.826 
19.656  82.988  78.918 
20.059  86.230  76.584 
18.063  84.249  71.895 
20.267  83.213  78.709 
28.862  96.814  74.822 
24.409  94.765  68.666 
17.867  85.065  70.965 
15.616  80.998  70.903 
16.646  82.564  70.590 
19.079  78.311  81.647 
14.776  77.288  73.396 
20.818  81.895  82.478 
19.284  85.631  74.170 
20.184  84.547  79.285 
18.099  82.827  74.467 
15.211  77.990  73.475 
15.546  75.769  76.690 
17.635  80.345  77.361 
16.138  78.146  74.803 
15.890  77.918  73.882 
11.334  66.350  69.057 
10.683  64.668  65.360 
13.495  71.951  73.706 
13.914  72.627  74.240 
14.990  68.231  80.022 
12.504  69.895  69.318 
12.356  69.486  71.649 
11.060  68.771  61.097 
12.776  67.934  75.804 
13.824  71.161  73.849 
11.590  68.276  70.024 
9.947  60.523  62.907 
10.576  63.438  65.934 
11.227  64.851  70.432 
11.336  63.641  69.913 
13.011  59.909  76.890 
12.354  57.280  73.136 
10.268  64.292  61.791 
11.398  63.973  70.268 
12.110  61.514  72.067 
13.920  52.186  74.709 
14.970  53.421  78.841 
11.518  61.956  71.906 
12.560  53.546  71.660 
15.176  47.037  75.295 
12.842  57.428  73.478 
14.207  49.196  73.901 
14.411  46.653  70.848 
13.281  51.668  72.654 
14.640  48.663  76.639 
17.132  46.176  82.374 
14.708  50.540  75.991 
14.024  48.333  68.788 
14.667  47.370  74.001 
14.407  47.069  72.754 
14.233  48.518  73.286 
15.922  44.343  76.410 
15.213  45.828  72.496 
13.717  47.443  70.179 
14.300  47.775  72.740 
13.196  46.715  65.021 
14.623  44.308  67.694 
14.349  41.754  64.051 
15.466  43.626  74.150 
15.842  39.207  71.485 
15.338  38.617  66.819 
14.835  42.773  70.008 
20.144  32.881  73.660 
20.060  31.678  71.143 
15.743  41.203  73.367 
16.229  44.630  79.858 
18.786  36.884  75.609 
22.236  26.533  60.222 
18.952  31.955  68.890 
17.854  34.115  69.216 
21.179  35.877  80.546 
20.914  32.681  75.153 
17.056  35.422  70.080 
20.527  31.035  71.355 
22.268  28.210  66.202 
14.525  39.825  64.707 
24.328  25.993  65.779 
22.062  30.611  73.556 
24.710  26.812  68.712 
20.680  35.325  77.741 
18.398  32.882  69.891 
26.695  24.975  69.828 
25.913  24.805  67.222 
26.067  25.130  66.878 
27.716  23.892  70.834 
26.659  25.120  70.666 
29.131  23.241  68.947 
29.662  22.768  70.943 
25.270  23.876  61.977 
26.502  25.034  69.133 
30.800  22.288  71.946 
30.005  22.116  70.398 
32.291  20.965  70.205 
32.027  20.080  68.693 
33.573  18.939  70.382 
33.217  19.374  70.944 
33.999  19.248  70.341 
34.346  18.511  70.713 
35.275  18.201  69.710 
35.932  17.956  70.467 
36.331  17.124  70.057 
37.483  16.485  70.235 
37.580  16.436  69.407 
40.873  16.228  72.310 
39.077  16.186  71.343 
38.912  16.352  72.058 
40.109  16.031  72.965 
40.174  19.847  83.761 
38.410  17.278  73.667 
40.101  19.184  81.717 
45.794  13.679  72.546 
41.014  15.851  73.306 
45.221  13.402  69.588 
48.355  11.359  64.762 
43.016  14.366  71.750 
44.689  12.630  65.150 
50.510  11.801  73.832 
51.692  10.375  63.234 
48.295  12.349  74.089 
47.225  11.983  70.361 
48.013  12.432  70.606 
46.797  12.398  68.749 
43.450  12.614  65.763 
50.834  10.832  67.873 
54.644  10.225  63.480 
58.542  11.203  74.740 
51.303  10.805  64.647 
50.337  11.246  70.679 
55.158  9.777  63.253 
59.780  11.214  67.225 
61.941  11.833  76.007 
56.438  13.519  80.254 
54.946  10.066  68.851 
60.801  10.989  70.143 
61.717  11.116  69.060 
68.756  11.764  68.069 
66.483  11.386  68.971 
65.095  10.561  65.741 
66.898  11.076  66.436 
65.881  11.433  69.801 
68.646  11.215  67.606 
64.022  10.486  68.106 
67.384  11.361  69.008 
67.801  11.328  67.145 
68.075  10.986  65.268 
67.410  11.193  68.093 
76.582  13.756  71.236 
75.699  14.364  73.528 
70.330  13.195  74.997 
76.039  13.220  59.474 
82.452  16.331  71.535 
73.473  11.748  60.161 
75.992  12.801  66.148 
77.431  13.136  61.875 
77.259  13.862  69.923 
79.352  15.330  75.114 
82.666  15.976  67.287 
70.302  12.939  75.668 
83.519  17.402  63.656 
84.001  17.079  64.464 
80.409  15.180  60.618 
86.597  18.591  70.169 
81.242  15.256  71.091 
80.538  15.706  61.223 
80.036  15.501  73.016 
86.276  20.483  76.334 
71.972  13.795  76.052 
77.991  13.544  68.322 
86.437  18.702  66.846 
85.206  18.773  63.930 
90.191  22.394  62.321 
90.608  22.437  60.275 
93.328  24.719  69.888 
92.867  23.206  67.724 
86.184  20.132  74.802 
88.229  19.543  67.340 
86.309  18.309  69.711 
86.279  19.611  74.393 
94.211  25.658  71.891 
83.113  17.787  75.071 
89.429  21.886  73.461 
97.328  27.519  70.510 
98.580  29.313  71.331 
100.847  31.544  57.315 
100.845  30.833  65.893 
92.342  23.272  71.757 
97.634  26.827  62.719 
104.432  36.727  60.188 
99.884  29.360  57.587 
97.053  27.607  66.076 
102.446  32.740  66.747 
96.499  26.402  56.677 
95.579  25.113  60.077 
102.364  33.878  62.417 
101.205  31.331  63.977 
101.942  33.602  68.060 
97.921  40.195  84.415 
105.180  39.728  61.950 
106.094  40.487  67.708 
104.344  41.840  73.747 
101.831  32.999  69.208 
99.376  28.887  67.551 
102.117  39.237  76.678 
104.901  39.988  71.252 
101.367  33.174  69.355 
103.153  35.079  66.950 
99.413  30.454  67.753 
105.271  38.781  59.696 
105.480  38.871  61.177 
100.948  33.458  72.002 
106.573  45.077  71.206 
99.178  28.681  65.195 
102.446  34.122  67.069 
104.129  37.446  68.905 
106.523  47.842  71.732 
107.099  44.683  67.907 
108.449  49.524  68.464 
106.865  49.558  71.646 
110.354  61.071  67.574 
105.349  45.831  74.454 
106.516  48.701  72.613 
103.144  38.129  73.921 
104.777  45.452  75.973 
106.791  51.318  73.720 
109.570  55.145  63.469 
109.737  56.711  66.266 
108.507  48.820  68.088 
109.877  63.006  62.793 
110.068  59.378  64.565 
109.834  67.215  65.504 
108.763  64.409  73.818 
109.895  59.852  62.721 
107.294  66.109  77.798 
109.368  64.656  62.379 
107.353  72.922  64.842 
108.986  66.878  68.854 
107.620  73.413  65.675 
109.717  66.342  62.611 
106.974  66.931  77.469 
109.204  67.741  66.339 
107.880  62.136  74.709 
108.002  70.923  71.924 
108.424  67.666  62.480 
106.757  64.543  79.220 
104.187  73.168  76.482 
108.345  67.589  71.867 
107.107  75.606  67.158 
107.882  73.069  67.446 
107.283  74.776  63.448 
103.371  80.647  67.726 
104.319  74.671  74.213 
104.960  75.198  71.238 
106.462  75.524  62.230 
104.069  77.795  70.259 
107.445  73.411  67.828 
103.737  78.062  72.911 
102.402  80.223  72.066 
103.499  80.628  69.046 
102.942  81.122  69.402 
103.401  78.434  70.612 
105.348  75.410  69.247 
101.342  83.680  68.982 
101.654  82.897  69.953 
101.878  81.951  71.275 
100.078  84.536  71.920 
102.518  82.948  68.028 
102.382  82.323  69.170 
100.580  84.333  69.595 
100.704  84.739  70.294 
99.715  86.065  68.915 
100.642  85.461  69.289 
99.174  85.727  70.048 
98.657  86.664  70.968 
97.125  88.031  71.553 
96.289  89.042  72.237 
100.533  88.223  62.613 
95.006  91.823  69.564 
95.626  91.797  68.042 
94.732  92.700  69.836 
92.832  93.666  70.381 
93.594  93.842  70.222 
91.214  95.374  70.725 
93.089  93.449  70.974 
92.564  94.345  70.621 
91.821  94.423  70.872 
90.588  96.909  67.568 
89.727  96.795  69.936 
89.744  96.256  71.036 
89.768  97.654  70.084 
89.592  98.316  68.910 
82.638  101.994  71.408 
85.373  100.105  72.853 
83.326  101.793  71.645 
84.306  100.504  76.043 
83.861  101.180  74.229 
88.489  100.048  65.768 
84.929  101.683  69.545 
84.643  100.649  73.133 
85.893  101.629  67.157 
82.437  100.955  77.002 
78.326  103.968  73.863 
84.638  101.646  66.808 
84.051  101.873  71.605 
82.960  102.361  70.228 
77.464  105.103  73.097 
80.376  103.774  71.356 
77.945  104.228  69.362 
77.665  104.732  68.509 
76.107  105.214  68.648 
75.208  105.589  69.571 
75.604  105.085  68.169 
72.948  106.676  69.650 
72.335  106.818  70.216 
62.521  107.890  70.624 
74.598  106.935  61.051 
66.536  109.342  63.108 
69.027  105.326  76.517 
71.686  107.084  65.822 
71.219  106.345  71.545 
71.793  105.492  75.563 
70.707  105.979  73.830 
67.577  106.828  72.938 
63.603  108.164  72.467 
58.233  109.822  58.445 
59.696  105.816  78.535 
66.980  108.966  66.845 
63.979  105.068  77.591 
64.729  104.731  78.585 
59.610  109.216  69.854 
49.148  106.109  74.324 
61.560  109.029  68.947 
59.023  109.099  65.289 
60.488  107.816  73.155 
57.818  109.519  65.806 
64.830  108.534  68.964 
56.488  108.118  70.967 
63.700  106.598  76.064 
50.550  107.505  71.027 
55.508  109.222  65.739 
47.051  108.016  66.346 
53.630  108.881  64.279 
54.646  109.110  65.300 
46.500  107.113  70.047 
44.335  107.002  65.854 
55.971  109.254  63.522 
53.556  108.761  67.127 
46.235  107.520  64.309 
36.965  102.624  69.632 
64.048  109.043  66.100 
51.797  108.310  68.702 
43.078  105.853  66.032 
48.414  107.478  70.857 
42.274  104.124  73.303 
42.072  104.937  64.311 
36.314  101.708  73.498 
45.531  105.523  74.125 
39.311  104.218  69.227 
50.930  108.174  69.405 
33.489  102.171  64.403 
40.635  104.802  68.897 
36.825  99.697  79.373 
35.371  98.370  81.883 
32.798  100.099  72.422 
40.388  99.125  84.398 
40.014  102.231  78.313 
41.707  102.936  77.093 
39.008  103.744  70.570 
39.258  100.528  80.774 
35.922  100.484  76.079 
34.318  100.393  73.448 
35.084  99.813  76.399 
26.579  95.658  72.592 
35.333  101.816  71.825 
28.608  98.611  66.448 
22.969  92.448  68.891 
23.133  93.726  67.014 
28.122  95.838  74.780 
23.751  91.381  76.444 
20.990  88.349  75.874 
20.827  89.222  72.914 
20.140  87.376  72.189 
18.939  86.254  73.520 
24.150  94.955  63.820 
25.914  86.443  86.041 
19.785  87.655  72.693 
26.335  92.894  78.627 
21.957  92.796  65.951 
21.340  91.508  61.426 
15.328  77.203  74.066 
20.347  89.440  68.562 
24.611  91.743  76.587 
21.577  91.276  69.832 
23.040  83.930  84.698 
27.294  93.475  79.302 
23.730  89.863  79.740 
17.390  82.039  75.425 
20.557  89.395  69.384 
17.654  83.941  73.378 
17.289  82.692  72.831 
19.633  84.487  76.968 
18.420  84.847  74.172 
16.211  78.964  74.888 
16.351  79.157  73.931 
16.724  81.746  72.137 
15.206  76.527  74.734 
16.649  82.070  73.330 
14.181  75.050  72.219 
14.025  73.690  73.413 
14.035  74.139  71.306 
15.049  77.523  72.679 
12.863  71.773  71.964 
13.162  69.505  73.256 
14.318  75.528  71.123 
13.630  70.195  77.557 
13.489  73.924  72.649 
14.216  67.790  79.609 
12.132  65.659  73.532 
11.888  69.439  66.615 
11.406  66.136  70.961 
11.287  66.795  59.372 
15.578  62.717  81.520 
12.204  61.198  74.818 
12.372  61.675  74.632 
14.025  65.207  77.650 
12.060  58.631  72.133 
13.471  63.657  76.885 
11.926  64.301  72.811 
14.459  50.093  74.286 
11.950  61.085  71.475 
12.453  58.469  74.276 
14.203  61.478  78.873 
10.506  61.960  65.026 
13.341  52.709  71.738 
14.614  54.861  78.907 
12.477  57.602  74.559 
13.678  50.448  71.479 
12.867  52.144  71.446 
14.862  46.685  72.961 
14.403  48.306  72.019 
14.022  49.925  72.675 
13.956  48.498  71.085 
13.898  49.454  71.138 
13.953  49.458  73.089 
15.021  46.902  76.683 
15.024  46.127  73.458 
13.636  45.602  67.160 
14.707  44.038  70.865 
13.906  43.127  65.848 
14.129  43.174  67.566 
15.069  43.741  71.698 
14.459  41.395  67.244 
14.524  41.332  67.869 
14.297  44.774  69.947 
14.170  47.107  71.693 
15.987  35.887  65.666 
15.541  40.828  70.873 
15.184  41.932  69.095 
15.913  36.982  68.579 
15.282  44.833  73.615 
16.780  44.580  80.571 
17.259  37.003  71.328 
16.052  43.859  77.326 
18.029  36.606  73.859 
20.655  29.043  64.980 
22.403  28.099  67.833 
19.813  30.264  67.743 
20.579  32.514  74.229 
15.932  37.365  67.667 
19.760  33.788  74.454 
24.372  28.096  73.975 
25.082  27.570  75.954 
19.870  29.777  62.756 
20.761  29.439  63.431 
27.882  23.537  69.442 
23.745  26.426  66.055 
26.983  24.591  69.406 
27.379  24.930  72.133 
27.384  24.164  71.614 
26.544  24.824  68.128 
27.864  22.927  66.787 
30.100  22.655  71.333 
30.497  22.485  70.601 
30.651  21.721  70.697 
31.304  21.040  70.420 
31.362  21.464  69.232 
32.050  20.404  69.311 
32.856  20.037  70.084 
33.311  19.529  69.947 
34.198  18.818  69.838 
33.951  18.536  69.387 
34.455  18.509  70.216 
35.408  17.996  70.388 
35.704  17.543  69.791 
37.206  17.084  69.940 
37.104  16.416  69.399 
37.810  16.751  68.781 
36.883  17.950  72.290 
42.540  15.873  77.245 
37.292  17.589  73.327 
46.333  12.027  66.523 
48.391  14.493  79.916 
39.836  15.784  70.482 
39.700  16.222  68.824 
44.307  13.822  71.134 
42.652  13.646  64.120 
40.542  15.954  71.270 
41.327  15.617  74.102 
39.018  16.997  75.181 
46.500  13.709  75.780 
41.880  13.980  67.241 
49.435  13.510  78.139 
48.154  12.631  74.552 
47.649  11.900  71.038 
49.906  11.174  69.833 
49.084  11.133  68.666 
50.398  13.302  77.186 
51.716  10.775  68.538 
59.639  9.922  64.519 
47.656  11.952  68.686 
50.014  10.832  71.638 
52.527  10.652  69.487 
55.814  9.658  67.261 
57.333  10.474  70.092 
59.987  10.730  63.315 
58.170  10.482  66.822 
61.369  11.229  68.286 
54.393  10.177  68.755 
65.663  11.610  70.627 
67.332  11.856  67.503 
63.729  10.416  66.129 
67.439  11.041  65.788 
74.567  12.625  70.014 
64.111  11.097  67.727 
67.856  11.477  69.757 
67.618  11.315  63.920 
73.533  12.494  70.563 
68.217  12.058  70.809 
69.524  10.947  63.319 
67.960  11.372  65.570 
71.394  11.330  59.814 
68.733  10.964  55.788 
69.705  11.638  68.421 
69.339  11.195  67.930 
69.734  12.427  69.654 
80.375  14.688  64.182 
79.904  14.479  63.257 
82.655  15.465  69.706 
73.946  13.547  74.368 
79.210  15.163  70.188 
72.555  12.203  66.413 
86.934  18.470  70.473 
80.721  15.277  62.190 
79.602  14.935  61.882 
87.424  19.168  69.457 
82.925  16.431  72.384 
80.760  15.261  63.693 
83.060  15.851  68.397 
82.246  15.655  68.754 
76.100  15.614  76.173 
82.303  16.013  64.260 
84.885  20.248  78.702 
89.593  20.963  68.145 
85.611  17.983  66.028 
86.662  19.416  62.910 
90.717  21.571  67.394 
92.032  24.749  73.517 
85.071  17.476  65.408 
81.132  15.931  65.642 
87.093  19.588  60.460 
80.100  19.182  81.977 
79.299  16.975  77.035 
89.192  20.022  69.656 
99.657  29.066  60.076 
94.183  24.708  68.286 
96.978  25.733  61.821 
89.646  20.493  67.802 
91.796  22.947  65.998 
95.241  25.360  66.814 
98.745  29.643  68.573 
103.565  36.283  69.523 
100.633  30.567  66.974 
99.296  28.095  60.251 
102.609  33.810  65.807 
93.344  23.601  67.036 
100.320  29.124  57.562 
100.353  30.319  58.432 
103.554  36.998  70.250 
106.066  42.695  64.156 
102.795  33.980  61.519 
101.249  36.181  75.329 
103.090  35.496  69.381 
104.400  38.448  70.976 
99.295  35.222  79.225 
102.734  34.109  64.971 
96.541  26.258  66.709 
100.357  33.751  72.503 
104.318  42.555  74.043 
103.803  35.579  67.396 
101.948  33.937  69.429 
102.785  37.111  71.432 
100.746  30.175  66.682 
105.616  40.367  61.902 
106.591  43.100  63.288 
106.183  44.865  70.601 
104.299  43.382  75.091 
109.871  53.401  66.299 
107.971  50.549  70.582 
106.474  40.234  68.613 
108.091  48.193  69.774 
107.883  48.630  67.384 
106.998  46.503  70.392 
106.649  44.705  68.143 
107.502  51.650  72.121 
107.546  46.637  70.195 
110.268  57.222  61.618 
107.310  50.853  71.624 
109.023  52.381  65.446 
105.310  41.785  72.175 
110.321  60.754  62.525 
110.674  61.159  64.067 
110.137  57.122  62.463 
110.103  61.978  66.505 
109.344  57.888  68.863 
109.894  56.569  61.067 
109.023  59.188  70.837 
109.402  60.581  69.571 
110.446  58.810  61.426 
108.700  69.978  69.125 
108.106  70.234  73.352 
107.011  62.192  75.803 
110.065  65.552  65.741 
107.273  73.846  67.488 
108.293  70.982  64.825 
109.098  67.971  68.169 
107.487  69.794  74.985 
107.025  66.085  77.298 
108.375  70.209  71.563 
108.041  72.378  68.059 
108.461  68.884  69.527 
106.560  73.331  69.921 
103.995  78.452  70.052 
107.880  72.181  62.880 
107.979  71.883  69.850 
109.202  69.413  66.384 
104.703  75.977  71.823 
104.718  80.609  62.335 
103.932  78.345  69.565 
103.660  79.308  69.710 
104.456  76.918  70.126 
104.897  79.281  65.382 
103.088  80.242  69.538 
102.621  80.883  68.529 
102.535  81.828  69.020 
103.074  81.299  67.887 
103.937  79.089  69.293 
102.690  80.752  70.590 
101.421  82.790  71.652 
101.801  82.976  68.730 
100.874  85.689  68.639 
100.108  84.890  70.968 
101.113  83.603  70.406 
97.941  88.053  71.067 
101.125  84.306  69.650 
97.180  89.673  68.702 
98.290  87.086  71.329 
98.686  87.531  69.727 
96.456  88.336  72.571 
95.421  91.113  70.798 
97.634  87.652  71.033 
98.663  89.965  56.834 
93.817  93.380  70.834 
94.835  92.074  70.328 
94.168  93.261  70.055 
94.223  93.913  68.232 
92.588  95.058  69.202 
92.892  94.483  69.901 
91.101  96.611  68.211 
90.489  96.303  70.551 
92.067  94.645  70.456 
87.212  100.672  66.332 
91.722  96.315  68.175 
88.768  98.273  69.387 
91.025  96.411  68.762 
90.293  97.813  69.178 
86.297  101.021  67.857 
81.457  100.690  77.186 
84.483  100.656  74.634 
84.104  100.582  75.481 
81.708  101.718  76.138 
78.069  103.194  75.701 
85.157  97.963  78.846 
86.224  99.083  74.847 
84.472  101.216  72.407 
85.557  99.434  75.174 
81.417  102.955  68.488 
80.820  103.299  69.512 
81.582  102.780  69.331 
78.461  104.379  70.024 
78.293  104.256  70.494 
78.953  104.571  68.456 
76.984  105.144  68.285 
75.986  105.568  67.255 
76.400  105.583  67.017 
75.090  105.956  68.078 
72.002  106.666  67.889 
72.612  106.579  68.404 
69.428  106.899  72.956 
64.675  108.813  60.965 
71.024  106.649  70.877 
69.390  106.374  71.429 
71.950  107.313  61.957 
70.289  108.067  65.275 
65.921  107.969  69.803 
71.867  107.092  69.571 
63.875  108.562  60.309 
68.757  108.428  67.153 
72.471  107.647  56.897 
66.624  106.005  75.364 
72.573  106.122  71.714 
58.921  107.711  71.656 
64.889  104.364  78.074 
57.358  108.563  69.363 
67.112  107.516  72.595 
68.596  107.908  68.096 
54.245  106.363  77.268 
66.034  108.669  62.457 
44.687  107.019  65.054 
47.893  108.369  62.827 
63.288  107.622  74.071 
63.964  105.410  76.926 
60.637  109.353  62.486 
60.619  108.861  69.438 
61.816  109.032  62.644 
50.839  108.737  68.109 
65.594  109.157  68.629 
56.582  108.068  74.310 
48.550  107.772  69.468 
59.390  109.465  55.730 
39.737  104.358  68.040 
51.370  107.309  73.235 
46.377  106.454  71.715 
50.954  106.893  73.062 
50.505  107.931  70.586 
54.949  105.925  78.759 
48.110  106.732  72.289 
39.886  104.541  68.674 
36.394  101.854  72.834 
38.873  104.710  64.664 
39.916  103.739  70.139 
39.136  103.021  72.242 
49.878  106.636  71.798 
42.929  105.949  65.187 
40.463  104.014  71.574 
36.270  100.930  76.996 
33.519  97.812  79.272 
22.464  92.675  67.914 
44.907  105.204  74.385 
26.573  95.869  70.040 
34.734  96.953  82.598 
35.009  100.030  75.882 
34.932  100.182  74.669 
38.701  103.360  70.641 
38.427  101.951  73.168 
38.422  100.317  80.429 
26.069  95.649  72.009 
35.888  101.304  74.792 
38.001  103.123  70.807 
34.132  101.380  70.945 
35.213  100.766  74.902 
32.113  97.919  75.344 
27.022  96.562  68.753 
24.539  94.078  69.628 
22.973  90.393  75.228 
26.344  95.969  70.801 
21.058  89.098  74.162 
27.423  98.056  68.172 
25.674  94.113  75.138 
21.833  87.632  78.837 
17.968  86.039  69.602 
20.017  87.259  74.513 
20.166  85.790  75.765 
17.132  83.528  68.400 
18.208  83.207  74.895 
20.157  81.600  80.337 
21.281  86.972  78.005 
17.997  82.752  75.739 
23.506  90.876  75.808 
23.020  90.470  76.819 
19.339  86.577  74.566 
17.485  84.266  71.902 
19.655  83.367  78.020 
18.655  87.561  70.037 
17.482  81.454  73.905 
17.042  80.990  72.466 
19.270  85.326  75.742 
16.757  80.193  74.296 
16.116  79.181  73.021 
15.185  77.680  71.391 
16.430  80.494  72.149 
14.683  76.327  73.103 
14.410  76.355  71.499 
13.517  71.872  72.820 
15.310  76.510  75.536 
13.210  73.946  67.791 
14.960  75.644  72.893 
13.005  73.291  66.813 
15.516  78.279  72.589 
12.572  71.854  70.715 
14.504  75.822  74.902 
15.692  67.624  81.241 
13.900  68.789  78.468 
13.785  72.430  73.676 
10.921  65.165  63.926 
12.711  72.150  67.495 
13.310  65.114  77.124 
11.224  64.806  67.326 
12.938  61.545  75.901 
10.613  60.851  64.429 
10.669  60.611  67.451 
13.899  61.711  77.981 
11.106  65.057  71.123 
15.739  55.368  82.273 
12.444  59.641  74.507 
12.522  64.978  72.550 
13.507  51.338  72.987 
13.017  53.132  72.021 
13.724  52.953  74.877 
13.459  51.925  71.788 
13.981  50.883  72.896 
17.613  56.617  85.420 
13.135  51.492  70.361 
12.917  50.387  69.582 
13.760  50.275  70.414 
13.008  51.268  70.790 
14.033  52.643  73.929 
15.169  57.006  79.779 
14.680  50.380  78.311 
13.882  48.342  68.289 
13.885  47.492  71.742 
14.287  43.178  68.432 
13.706  46.750  67.971 
14.731  42.677  68.637 
13.912  44.584  67.931 
14.656  45.084  70.715 
14.935  45.405  72.973 
15.646  37.517  66.262 
15.671  39.071  67.233 
16.648  35.694  69.760 
15.426  52.676  81.030 
14.933  43.187  70.959 
16.484  36.401  66.306 
17.113  34.418  62.224 
22.731  26.436  63.632 
22.932  29.162  45.986 
16.938  35.179  68.394 
17.518  34.159  66.387 
18.459  31.318  64.519 
15.141  45.753  75.877 
21.341  28.850  68.476 
19.762  32.889  73.915 
15.094  43.079  71.772 
23.739  29.714  76.035 
19.162  33.961  72.752 
19.548  29.927  66.965 
23.233  30.627  77.108 
23.436  26.829  66.885 
27.263  24.878  70.313 
25.836  26.809  72.064 
26.678  26.101  72.755 
27.088  24.024  68.177 
26.399  24.747  68.756 
27.802  23.052  68.585 
27.690  24.166  68.805 
29.839  22.562  69.470 
27.590  23.971  69.961 
30.378  21.714  69.750 
30.719  21.806  68.975 
30.669  21.383  68.215 
30.998  20.966  68.819 
31.528  20.245  68.602 
32.532  19.571  69.096 
33.133  19.165  69.000 
33.725  18.792  69.827 
34.801  18.158  68.980 
34.494  18.130  69.504 
36.230  17.810  69.131 
36.166  17.134  69.282 
36.976  17.276  68.912 
37.313  16.423  67.561 
39.174  16.039  69.746 
38.319  16.099  69.430 
38.296  16.829  72.356 
37.791  16.183  68.991 
40.261  15.217  67.656 
42.207  15.182  73.256 
52.403  13.181  79.062 
42.550  14.275  67.711 
44.026  12.916  62.858 
45.660  12.805  70.238 
46.215  12.984  69.818 
42.078  13.176  63.734 
45.339  12.620  64.344 
43.658  14.087  72.356 
40.169  16.792  72.355 
43.142  15.800  76.744 
54.818  10.515  70.705 
49.263  11.200  72.049 
46.889  12.388  67.919 
51.317  10.735  70.776 
63.260  10.109  52.782 
48.662  11.612  69.224 
47.072  11.530  67.495 
61.517  10.785  69.701 
58.392  9.952  66.243 
54.959  10.401  64.599 
61.287  11.186  67.222 
62.424  10.484  66.635 
61.398  11.150  67.747 
59.314  10.657  71.309 
64.237  10.676  67.266 
58.360  10.237  67.786 
64.905  11.124  68.068 
65.945  10.839  64.480 
64.544  11.392  66.679 
63.745  10.711  67.016 
65.848  10.713  65.525 
68.815  11.324  67.117 
68.556  11.914  69.133 
73.799  12.226  69.821 
70.199  11.785  68.708 
68.918  11.206  66.282 
70.761  12.351  73.321 
68.211  11.932  63.779 
69.641  11.617  66.839 
75.242  13.062  70.513 
69.714  11.323  63.622 
70.241  11.657  69.855 
71.474  11.818  61.909 
80.696  14.723  67.263 
83.214  16.803  61.973 
81.875  15.367  66.241 
76.837  14.852  73.338 
70.798  13.199  73.209 
79.672  15.787  71.287 
77.902  13.581  66.281 
77.255  13.125  66.354 
83.279  16.349  63.837 
81.068  15.405  67.149 
82.649  15.976  63.564 
85.906  18.058  71.348 
79.234  15.211  59.398 
73.506  12.489  68.536 
79.139  14.156  69.085 
83.186  17.243  61.272 
76.618  14.916  74.569 
88.078  20.146  71.614 
88.828  20.221  67.519 
85.164  18.012  64.286 
88.997  19.835  69.136 
95.150  25.361  62.201 
84.007  16.711  69.013 
89.013  20.867  65.982 
88.781  20.161  66.103 
88.469  20.206  71.919 
95.004  24.476  61.757 
87.702  18.891  66.694 
91.994  24.598  75.731 
87.176  19.408  64.756 
92.749  22.892  68.263 
93.409  24.051  61.096 
96.611  25.542  60.817 
93.923  25.629  74.412 
98.184  28.062  66.589 
96.009  25.855  66.870 
93.756  24.463  66.992 
100.318  32.870  52.596 
103.942  36.052  64.249 
100.218  29.860  62.758 
95.612  25.176  62.836 
97.059  26.442  63.756 
105.558  39.247  62.140 
100.104  33.535  74.115 
103.875  35.464  66.514 
101.884  31.995  66.584 
104.585  37.967  67.342 
101.277  32.322  62.170 
100.960  35.469  74.861 
105.963  46.691  71.773 
102.853  36.041  72.748 
100.191  39.789  80.338 
106.769  43.380  68.028 
107.350  44.756  66.167 
108.478  48.970  64.934 
106.053  40.562  66.645 
106.930  44.068  69.500 
105.287  38.457  63.494 
106.291  42.124  64.668 
105.329  39.347  64.689 
107.495  47.947  67.650 
106.104  42.309  70.495 
106.734  43.591  62.029 
106.796  43.282  65.575 
108.081  51.521  70.043 
108.247  48.220  68.881 
106.326  47.933  72.670 
110.033  56.880  65.369 
109.257  52.984  67.872 
110.506  57.236  62.839 
105.255  39.019  65.197 
105.577  44.967  73.376 
108.560  57.926  70.826 
108.363  63.013  74.864 
109.324  70.161  66.739 
110.116  59.745  67.793 
110.121  55.841  64.493 
109.586  64.976  63.124 
109.875  56.286  58.781 
108.436  68.040  71.080 
109.923  63.918  65.648 
108.995  68.746  68.748 
109.617  62.999  70.127 
109.422  66.277  68.512 
108.304  57.580  71.893 
106.406  68.235  77.041 
106.221  68.672  78.393 
108.749  59.432  71.578 
107.390  72.269  70.482 
108.593  70.253  62.634 
109.293  69.235  66.978 
108.311  70.514  61.632 
108.484  69.844  71.059 
109.377  66.774  62.232 
108.656  68.880  71.201 
108.211  72.350  68.638 
107.977  69.245  73.405 
105.778  75.329  71.074 
109.174  70.329  65.365 
104.161  79.727  67.297 
107.119  72.286  69.971 
105.282  76.308  70.935 
104.231  78.124  71.108 
105.761  76.309  69.118 
105.032  77.647  67.175 
101.208  85.545  67.743 
103.240  79.840  70.285 
102.351  81.904  70.563 
102.119  83.715  67.768 
103.348  82.819  65.465 
101.488  84.866  67.866 
102.484  84.182  61.169 
99.888  84.590  70.404 
99.319  88.345  66.182 
98.066  87.396  70.485 
100.992  85.659  66.984 
97.816  89.335  68.598 
103.201  82.856  62.077 
98.902  86.647  69.526 
97.893  88.807  69.431 
97.707  88.263  70.190 
98.481  87.891  70.239 
98.815  88.175  69.108 
96.732  89.418  71.067 
97.114  89.101  70.015 
94.540  91.360  69.888 
96.251  91.278  67.468 
93.421  94.056  67.228 
93.169  96.569  62.120 
94.181  93.479  69.506 
93.711  93.341  69.665 
93.200  94.453  69.179 
91.510  95.268  69.953 
91.650  95.785  68.211 
89.389  98.698  67.437 
92.758  96.499  64.420 
91.897  95.482  69.412 
92.124  95.705  66.706 
87.551  101.131  60.274 
89.141  97.510  70.882 
81.672  103.148  69.832 
86.159  99.651  74.076 
85.540  98.395  75.964 
84.937  101.753  68.799 
81.392  100.309  78.998 
87.901  99.946  67.566 
89.293  98.639  67.994 
82.792  101.706  72.712 
86.958  99.126  72.849 
81.859  103.333  67.203 
83.292  102.234  71.925 
80.836  102.794  68.655 
79.368  104.265  69.332 
80.150  103.907  69.906 
78.865  103.883  69.549 
79.485  104.256  68.805 
77.871  105.100  67.983 
77.089  105.090  67.601 
76.461  105.704  67.811 
75.658  106.180  67.477 
75.032  106.064  69.039 
73.928  106.514  66.304 
73.676  107.019  61.422 
71.845  107.418  64.038 
72.306  106.751  62.554 
73.856  106.898  62.261 
61.304  109.258  65.000 
69.016  108.001  65.471 
61.891  108.689  68.798 
71.101  105.766  74.096 
68.657  108.625  59.615 
63.390  109.003  68.237 
64.705  108.939  60.419 
71.436  107.619  61.667 
61.102  109.260  65.927 
68.066  108.737  67.660 
60.847  109.567  59.334 
62.045  107.730  73.471 
58.857  108.477  73.015 
58.480  109.290  64.112 
61.240  109.357  60.807 
58.534  109.202  61.897 
55.587  109.665  60.670 
55.439  107.763  73.744 
63.714  108.208  70.343 
51.584  107.359  72.553 
49.220  108.390  60.986 
46.261  107.263  69.303 
58.435  108.581  71.698 
57.703  107.628  72.835 
53.441  109.520  63.170 
44.624  106.724  63.636 
44.761  106.302  62.797 
45.715  106.464  62.407 
48.238  108.458  65.858 
50.644  108.531  69.584 
43.493  105.833  70.338 
46.892  105.403  74.275 
43.061  106.092  64.412 
43.269  105.428  70.470 
51.893  108.756  68.229 
35.182  101.758  67.654 
38.218  103.407  68.998 
51.246  106.600  74.426 
42.943  105.422  71.158 
45.011  106.615  69.829 
43.283  102.943  77.308 
46.307  105.054  77.124 
33.333  97.892  78.393 
35.093  101.214  72.837 
38.219  102.936  72.450 
32.706  101.430  66.079 
34.261  102.265  66.566 
36.896  103.498  67.699 
45.652  106.634  69.096 
36.208  102.567  70.360 
39.597  99.583  82.851 
33.748  100.183  71.900 
29.620  98.060  70.784 
35.341  102.148  68.734 
35.582  102.424  68.227 
35.686  101.145  73.542 
34.166  99.792  76.188 
24.295  94.033  70.397 
