10.791  55.756  53.869 
11.349  52.634  56.917 
13.411  54.625  44.932 
10.886  56.119  64.182 
13.764  43.340  51.831 
11.517  49.308  56.892 
12.346  51.933  51.920 
12.953  42.264  54.344 
12.457  53.680  49.891 
11.006  53.993  55.236 
12.854  44.736  60.602 
15.226  41.197  50.737 
11.515  51.182  53.973 
17.263  36.708  50.398 
12.076  47.393  53.876 
12.810  44.308  54.223 
15.576  35.058  63.382 
17.339  33.816  62.615 
15.833  35.982  57.170 
13.994  46.171  50.900 
14.096  42.559  52.260 
19.034  32.079  51.411 
13.239  43.116  57.639 
21.292  29.104  49.765 
22.483  27.836  50.152 
20.321  29.451  53.724 
21.464  27.026  60.028 
17.664  35.861  53.997 
20.186  29.938  50.842 
20.331  29.023  58.359 
20.368  29.003  60.222 
25.333  23.033  57.423 
13.850  41.141  58.210 
25.710  23.502  55.349 
29.307  20.579  59.971 
22.154  27.632  53.903 
20.091  32.919  46.701 
21.595  28.807  50.032 
26.085  22.770  55.018 
14.942  38.482  57.280 
22.720  26.435  55.118 
23.445  25.872  50.234 
32.752  17.379  56.608 
29.431  24.458  45.493 
35.983  17.851  50.870 
29.481  20.540  61.272 
27.879  22.527  50.372 
26.087  25.819  48.017 
25.402  22.817  60.095 
30.954  18.832  59.375 
31.313  18.297  59.005 
33.049  16.965  59.554 
39.154  14.877  55.735 
36.093  16.425  59.701 
38.909  15.545  56.074 
36.421  17.268  51.582 
32.308  19.469  50.793 
40.482  15.874  49.029 
37.572  17.136  49.659 
45.119  13.623  51.087 
38.245  16.629  49.772 
42.929  14.403  53.102 
46.682  13.584  49.930 
41.771  14.813  51.426 
41.033  14.417  54.181 
42.808  14.571  52.152 
43.408  14.979  51.607 
43.395  13.329  54.452 
44.873  13.073  53.336 
44.667  12.847  53.995 
46.173  12.365  52.911 
46.648  12.600  54.076 
47.252  12.288  54.711 
47.953  11.796  54.554 
48.746  11.720  53.971 
49.308  12.194  54.170 
50.145  11.927  54.459 
51.952  10.950  55.092 
49.799  11.306  55.796 
51.854  11.240  54.264 
54.214  10.121  56.907 
54.317  10.670  53.927 
52.755  10.967  57.477 
57.100  9.022  60.873 
54.890  9.792  56.399 
61.441  11.082  47.627 
68.827  11.986  51.701 
57.634  10.408  51.889 
57.023  10.084  54.549 
50.932  13.411  45.272 
66.530  12.576  45.765 
60.526  11.296  50.008 
59.028  11.177  48.776 
55.258  11.265  48.938 
69.735  12.408  48.528 
73.055  12.062  55.124 
62.262  10.886  49.200 
65.346  12.264  46.449 
70.032  15.019  40.995 
73.297  13.675  51.179 
65.098  12.460  47.266 
70.797  12.911  47.627 
73.508  12.500  51.711 
76.291  14.944  49.094 
77.823  14.903  53.431 
74.669  13.307  51.979 
71.491  12.442  50.425 
76.980  15.333  48.965 
78.908  16.267  49.445 
76.711  16.605  47.574 
76.854  17.269  45.733 
78.170  16.815  49.222 
74.035  14.796  48.157 
76.812  14.937  49.628 
79.009  15.181  55.612 
80.417  16.518  50.259 
81.370  16.510  52.539 
79.993  15.488  52.820 
81.884  17.131  51.838 
82.495  16.997  53.735 
83.494  18.154  53.265 
83.713  18.174  54.218 
84.384  19.263  53.246 
84.985  19.223  51.271 
86.130  20.608  51.349 
85.355  19.419  50.759 
87.479  21.228  51.063 
88.085  21.920  51.357 
88.016  22.232  51.986 
88.908  22.340  51.934 
89.583  22.710  51.688 
90.508  24.292  51.159 
91.518  23.647  53.034 
91.574  24.772  52.608 
91.252  23.878  52.186 
92.584  25.188  50.612 
92.051  25.300  49.898 
93.918  25.813  51.488 
94.079  27.298  49.611 
92.102  24.789  54.954 
95.902  27.464  51.557 
97.067  28.213  52.721 
97.759  29.280  52.811 
96.538  29.722  50.020 
96.574  30.373  47.792 
95.141  27.002  51.756 
95.746  28.423  51.426 
96.914  29.157  51.191 
98.965  29.467  54.063 
101.565  33.160  65.554 
97.088  32.411  45.203 
98.670  32.721  48.105 
103.673  36.799  52.865 
98.855  32.031  51.206 
101.087  31.377  55.818 
100.148  29.614  56.639 
100.109  34.930  47.827 
104.670  38.263  57.075 
101.803  34.377  52.188 
102.343  33.619  56.745 
101.980  32.148  60.324 
103.436  39.951  51.245 
104.140  41.400  51.266 
104.322  41.055  51.968 
105.070  43.445  53.143 
105.767  44.354  52.100 
104.227  42.877  51.196 
105.937  46.074  52.744 
106.387  45.128  54.931 
105.084  44.059  52.386 
106.306  45.163  54.164 
105.074  45.607  51.797 
106.356  46.786  52.601 
107.339  48.832  52.911 
106.807  48.594  53.491 
107.406  50.114  54.115 
107.350  48.897  54.276 
107.593  49.553  53.542 
107.488  50.499  54.438 
107.486  51.283  54.593 
108.201  52.512  54.792 
108.134  53.968  54.903 
109.198  57.584  55.707 
108.948  58.525  51.991 
108.912  56.269  53.957 
108.720  56.584  51.862 
109.402  58.268  55.256 
108.283  57.028  52.282 
109.526  62.338  61.438 
110.020  55.898  62.381 
108.208  59.986  52.160 
108.934  58.501  55.038 
108.566  60.290  53.683 
108.039  61.610  51.773 
107.309  68.535  49.802 
108.073  66.731  50.916 
107.706  64.923  53.158 
108.125  65.653  52.020 
108.004  67.419  52.988 
108.242  67.107  53.704 
108.109  68.314  53.016 
107.607  68.590  52.804 
107.426  69.106  53.687 
107.781  69.583  53.312 
107.129  70.071  53.644 
107.310  70.728  52.947 
107.086  71.245  53.358 
105.352  77.535  51.157 
105.866  75.482  52.038 
104.071  76.362  44.102 
106.574  75.133  54.402 
104.537  82.217  58.737 
106.399  72.662  50.473 
101.314  87.629  62.784 
106.595  77.095  58.874 
102.822  85.767  57.529 
100.532  88.553  54.602 
103.204  82.445  52.286 
103.073  83.146  52.106 
103.307  79.595  45.617 
97.870  84.610  40.193 
104.257  80.682  49.510 
102.428  83.019  48.906 
101.971  85.496  51.480 
105.370  78.451  51.406 
106.299  75.487  53.057 
99.313  86.934  45.854 
92.263  97.726  56.147 
93.185  96.653  63.691 
101.058  86.223  51.892 
96.879  92.543  52.434 
99.756  88.409  55.359 
97.247  88.362  44.550 
95.632  95.000  59.944 
97.235  90.465  45.934 
100.443  88.562  55.777 
92.673  95.505  48.369 
95.150  94.463  64.256 
97.646  91.849  52.291 
93.414  97.453  58.247 
81.947  101.869  48.142 
96.068  94.698  54.630 
93.029  94.747  47.447 
93.447  93.752  45.879 
92.425  97.508  52.492 
88.377  98.937  50.333 
86.411  99.311  47.642 
92.724  96.161  49.727 
86.866  101.809  62.263 
88.964  97.770  48.052 
94.246  94.124  49.006 
89.211  100.183  58.010 
89.164  100.575  55.446 
88.909  99.642  54.831 
82.808  103.897  57.327 
78.477  105.836  55.633 
89.437  99.178  52.380 
86.835  101.960  55.264 
88.446  100.024  51.964 
79.388  105.459  59.989 
82.413  103.730  56.177 
71.829  106.054  49.086 
79.093  102.993  46.402 
77.371  104.957  50.384 
78.928  105.659  59.304 
71.694  107.844  54.936 
79.864  104.209  48.826 
89.299  98.461  51.899 
72.370  106.258  50.094 
70.875  104.385  41.323 
71.128  106.880  53.940 
69.410  105.863  50.260 
71.655  106.074  50.386 
66.480  107.155  49.170 
68.266  105.740  44.446 
66.701  107.026  50.052 
71.770  105.414  46.604 
69.955  107.263  52.094 
68.515  106.892  50.662 
66.447  107.135  51.447 
66.280  107.535  51.847 
65.017  107.593  51.802 
64.556  107.573  52.589 
64.308  106.946  51.902 
64.070  107.678  52.873 
62.308  108.333  53.109 
62.797  107.771  53.359 
58.726  109.178  55.071 
56.114  108.900  56.514 
53.829  109.086  57.336 
58.658  109.294  54.618 
60.778  108.941  54.478 
50.468  108.197  61.420 
55.506  106.956  47.775 
56.338  107.689  48.247 
56.932  107.481  47.794 
50.920  106.673  49.487 
56.585  108.725  54.557 
51.623  107.289  49.488 
48.051  107.247  57.396 
53.862  108.136  49.532 
50.099  107.652  57.605 
47.846  106.499  55.749 
47.310  106.021  55.302 
47.166  106.669  56.230 
44.775  105.778  55.794 
47.610  106.266  53.457 
44.393  105.031  54.931 
43.508  105.656  55.714 
43.065  105.042  55.193 
42.370  104.244  55.248 
43.976  105.528  55.501 
41.551  103.987  55.170 
40.608  104.116  55.499 
37.891  103.579  56.055 
37.165  102.991  55.725 
38.032  103.500  53.814 
37.561  102.487  55.393 
36.695  102.548  55.085 
33.403  100.616  49.988 
35.608  101.353  49.564 
26.260  97.674  53.517 
34.181  101.787  56.601 
36.297  101.798  63.473 
28.819  99.258  57.402 
32.584  99.607  49.197 
33.707  101.415  63.463 
35.433  102.086  57.002 
26.229  97.469  60.177 
23.669  93.484  48.884 
34.096  100.484  48.765 
24.365  95.559  52.082 
29.820  99.473  61.580 
34.007  99.557  47.672 
33.005  100.491  52.080 
31.832  99.939  52.527 
18.352  87.312  62.783 
27.546  97.622  64.150 
30.392  99.848  61.563 
27.947  98.711  63.404 
25.819  97.299  56.977 
32.369  101.035  57.109 
32.266  99.742  50.329 
20.567  90.428  54.248 
25.523  96.840  54.861 
18.722  86.001  51.868 
19.272  87.855  55.226 
21.474  90.131  51.364 
19.221  87.666  57.382 
18.793  86.117  53.470 
19.738  89.382  63.153 
18.011  84.732  58.139 
18.640  84.843  56.303 
17.862  84.794  56.657 
17.473  83.572  56.451 
17.534  83.166  55.787 
17.261  82.277  56.658 
16.853  82.803  56.721 
16.549  81.056  57.107 
16.286  80.891  56.200 
15.637  79.894  56.189 
16.051  79.570  56.941 
15.489  78.440  56.240 
15.204  78.518  57.101 
14.395  76.865  56.343 
14.072  75.894  55.605 
14.237  76.956  57.618 
13.892  75.716  56.813 
13.426  75.359  58.076 
13.189  75.232  57.637 
13.574  74.812  55.751 
13.837  73.158  54.670 
14.218  71.981  50.783 
14.479  72.861  50.511 
13.184  74.865  59.808 
13.505  74.329  56.322 
11.935  66.255  51.813 
12.191  67.981  53.237 
11.361  65.923  57.231 
11.566  67.818  56.804 
10.420  60.248  59.581 
12.551  67.782  54.006 
10.966  64.752  59.509 
12.494  71.454  59.610 
11.620  69.640  60.451 
11.426  61.005  54.323 
12.287  69.248  59.836 
10.527  57.003  61.803 
11.313  57.004  50.997 
10.532  58.980  60.084 
11.450  51.878  60.265 
10.477  57.410  58.862 
10.456  55.945  60.516 
10.451  57.714  60.957 
11.362  50.640  58.979 
11.330  52.385  62.617 
12.176  48.054  52.243 
13.585  54.492  43.471 
10.987  53.011  61.080 
11.302  56.092  54.989 
10.584  56.128  56.979 
14.318  44.383  50.927 
11.299  50.531  57.247 
14.035  40.808  56.933 
10.798  53.817  53.989 
13.901  41.342  59.001 
12.285  51.611  50.774 
12.820  44.910  58.083 
12.512  46.836  59.211 
16.779  37.556  50.736 
14.406  39.941  55.867 
12.568  44.486  54.772 
14.378  39.032  59.678 
14.784  40.883  52.855 
15.391  36.572  59.392 
13.540  41.466  56.296 
13.643  40.674  56.104 
15.737  35.458  58.540 
19.934  30.573  56.765 
15.106  40.143  54.095 
16.335  34.282  61.266 
17.879  35.445  50.210 
20.253  29.629  52.455 
17.082  34.857  54.304 
21.925  30.564  45.783 
23.537  27.728  45.467 
21.472  29.422  48.514 
24.694  26.504  47.099 
23.845  27.090  48.876 
21.451  27.960  61.243 
25.575  24.116  51.419 
27.305  23.991  48.168 
29.945  19.236  56.169 
20.178  29.599  56.321 
28.411  21.267  55.127 
27.571  23.654  49.518 
24.449  24.742  53.894 
23.446  25.442  57.186 
33.049  19.241  51.616 
31.124  17.991  56.897 
25.973  22.991  51.974 
31.627  19.386  53.386 
25.501  23.217  57.015 
37.008  16.138  58.847 
31.810  20.577  49.537 
30.874  18.772  58.459 
33.172  18.716  51.721 
32.788  17.510  57.106 
38.821  14.771  59.967 
29.576  19.992  54.533 
31.842  17.696  56.323 
39.574  14.262  60.874 
28.618  22.978  48.619 
35.830  15.912  58.207 
38.507  16.109  51.208 
43.298  15.366  45.693 
37.627  16.580  51.421 
41.567  14.865  54.518 
42.615  14.768  51.036 
46.038  13.254  50.782 
39.963  15.197  52.381 
40.010  15.706  54.251 
42.219  14.112  53.439 
43.683  14.205  52.383 
44.393  13.876  53.122 
45.095  12.601  53.976 
45.334  13.243  52.588 
45.991  12.747  53.647 
46.814  12.088  53.552 
47.451  12.009  53.847 
47.786  12.370  53.972 
48.489  12.405  53.273 
49.501  12.061  53.325 
50.705  11.283  54.671 
51.444  11.055  55.060 
49.696  11.503  53.888 
51.534  10.623  56.427 
53.262  11.227  55.190 
52.971  10.759  53.739 
51.353  11.570  55.860 
58.852  10.583  51.481 
53.321  10.310  60.726 
54.325  10.343  54.986 
59.185  10.311  55.390 
54.676  10.754  52.026 
57.950  11.044  50.642 
52.242  11.160  51.408 
59.979  11.578  46.907 
61.768  10.906  50.241 
64.104  10.958  53.559 
55.044  15.152  38.098 
62.435  13.043  41.406 
53.268  11.095  56.760 
61.155  10.618  52.910 
62.279  11.584  48.449 
64.789  12.222  45.684 
73.269  12.896  50.509 
61.544  11.344  46.859 
63.104  11.947  44.903 
76.471  14.369  50.866 
75.360  13.490  55.475 
76.737  15.978  48.328 
74.621  12.098  62.583 
78.188  16.080  52.497 
80.865  17.864  48.012 
76.716  14.779  51.605 
78.790  17.174  48.633 
78.312  15.595  51.751 
78.533  15.801  50.124 
80.888  16.845  50.351 
81.452  17.723  49.934 
79.610  16.037  50.621 
79.022  17.184  46.761 
81.615  16.611  51.609 
82.785  17.485  50.999 
82.019  17.153  52.666 
82.161  17.526  51.856 
84.418  18.732  52.092 
84.210  18.845  50.801 
83.483  18.045  51.787 
84.321  18.573  51.378 
85.971  20.162  50.945 
86.710  20.708  50.883 
87.096  21.114  50.362 
88.599  22.173  50.782 
88.543  22.093  52.228 
88.776  22.855  51.979 
89.442  23.000  51.307 
90.542  23.362  51.266 
91.172  24.307  50.498 
91.491  24.233  51.490 
91.119  24.517  49.180 
92.001  24.711  50.393 
92.394  26.116  50.100 
93.031  27.236  48.427 
96.629  30.483  49.612 
93.794  28.814  47.144 
92.661  27.548  47.636 
92.424  26.596  48.897 
94.852  28.052  50.312 
92.313  25.022  52.253 
96.159  28.595  50.603 
94.744  29.492  48.569 
98.136  31.905  48.355 
99.027  32.404  48.888 
98.186  30.829  49.993 
96.015  28.792  49.907 
100.467  32.652  51.730 
99.030  35.017  46.327 
100.140  33.823  49.426 
102.167  36.736  49.697 
102.815  36.345  52.137 
103.537  37.743  52.981 
103.574  36.535  55.690 
102.723  37.142  50.307 
103.416  36.215  54.843 
103.952  39.783  51.984 
103.194  39.376  50.598 
103.702  40.723  51.575 
104.219  40.421  52.394 
104.032  41.923  50.525 
103.591  41.522  49.971 
104.709  42.888  51.072 
105.744  44.052  53.211 
103.740  42.638  51.167 
105.093  43.960  51.694 
103.179  41.796  49.407 
104.864  43.456  51.855 
105.206  44.424  51.519 
106.632  46.187  53.175 
106.917  47.518  52.602 
107.076  47.991  53.338 
107.223  49.358  54.381 
107.312  49.458  52.558 
107.312  50.458  52.759 
107.359  50.076  53.500 
107.713  51.266  54.013 
108.162  52.925  54.379 
108.608  53.789  54.608 
107.614  52.517  51.802 
109.273  61.307  56.566 
109.174  63.064  63.135 
109.030  54.752  55.734 
107.009  54.004  49.571 
108.947  68.569  64.873 
109.628  53.289  62.514 
109.181  57.606  56.618 
108.070  58.981  46.325 
107.846  55.086  52.562 
107.901  62.511  49.914 
108.029  64.415  50.966 
108.179  62.688  53.586 
106.016  68.000  46.769 
108.439  66.291  51.534 
108.306  64.908  51.792 
107.772  66.598  52.612 
108.107  67.406  51.963 
107.698  67.699  52.703 
107.439  69.084  52.062 
107.332  69.885  52.488 
107.574  69.188  52.516 
107.488  70.229  52.910 
107.293  71.281  52.675 
106.906  71.701  51.843 
106.813  74.210  53.973 
104.790  75.296  46.358 
105.669  76.961  51.711 
101.981  81.325  43.928 
100.986  84.380  46.876 
101.902  83.909  48.714 
101.622  85.370  51.965 
105.368  78.332  51.998 
106.164  76.848  55.151 
104.066  75.104  43.077 
100.217  87.157  51.283 
101.455  86.768  53.497 
103.678  83.364  59.280 
100.216  88.588  52.006 
103.580  79.155  46.179 
100.518  77.883  38.442 
97.573  93.026  59.340 
96.956  91.462  50.088 
96.944  87.319  42.087 
100.140  90.316  58.910 
96.572  93.659  62.144 
104.718  81.145  61.513 
98.758  90.193  49.316 
88.541  100.690  55.288 
99.476  89.404  51.309 
93.711  96.682  54.457 
101.020  88.217  56.385 
97.018  90.654  46.457 
91.137  99.588  60.494 
94.570  95.445  54.617 
96.236  92.259  47.214 
103.558  84.874  57.962 
101.514  85.450  48.678 
93.533  95.873  51.195 
90.637  96.277  48.855 
97.003  93.598  58.298 
93.666  96.443  52.234 
90.270  98.804  52.559 
93.273  95.558  50.032 
93.005  95.380  49.257 
93.907  96.445  55.382 
89.467  98.148  49.545 
93.669  96.778  58.582 
90.478  99.036  53.291 
89.823  97.477  49.966 
90.970  99.048  57.365 
91.915  98.722  60.476 
81.938  102.466  48.045 
88.096  101.276  59.863 
77.106  106.242  52.690 
80.613  104.436  54.744 
86.035  101.319  53.506 
84.587  103.176  58.395 
80.330  103.744  48.987 
95.299  95.460  58.357 
82.003  104.246  59.720 
87.455  98.330  48.608 
87.488  100.423  53.093 
74.123  106.271  50.777 
78.193  105.001  50.059 
83.961  101.846  50.018 
76.321  106.603  59.189 
75.012  106.910  53.135 
75.905  106.939  57.990 
76.454  106.586  53.840 
69.227  105.889  47.591 
68.299  106.518  47.004 
70.734  106.613  50.576 
67.758  106.552  49.660 
67.290  107.135  50.594 
68.290  106.994  51.501 
66.838  107.745  51.237 
66.150  107.003  50.730 
65.781  107.464  51.915 
65.664  107.598  51.051 
64.022  107.816  51.975 
63.623  107.546  52.134 
63.321  108.052  52.516 
62.591  107.903  52.525 
62.056  108.230  53.580 
60.787  107.886  52.520 
60.979  108.513  53.606 
60.837  108.522  55.194 
57.952  108.059  51.113 
54.991  109.363  54.165 
58.318  109.168  53.941 
53.189  109.048  64.349 
54.808  106.952  45.985 
50.099  106.622  49.606 
50.898  105.362  45.663 
54.752  107.264  47.909 
49.419  106.472  50.017 
53.552  108.627  53.165 
50.598  108.201  59.329 
55.731  107.665  48.858 
49.212  107.021  54.330 
48.010  106.992  55.979 
46.497  106.506  55.727 
44.857  105.716  55.081 
46.166  105.770  55.698 
43.295  104.040  54.051 
41.957  104.279  53.283 
41.931  104.904  56.182 
41.853  104.742  55.330 
41.456  104.140  53.933 
41.617  104.280  54.634 
40.509  104.069  54.376 
38.830  103.054  55.424 
37.796  103.309  54.629 
37.963  102.788  54.377 
37.801  102.480  53.673 
37.065  102.378  54.206 
36.009  102.131  54.184 
34.671  102.360  57.481 
35.549  101.453  55.046 
31.424  99.530  50.822 
30.158  97.524  46.886 
36.482  102.020  54.010 
28.970  98.978  53.721 
30.222  100.201  55.215 
34.385  101.157  53.004 
33.214  99.945  48.337 
29.824  97.783  48.050 
32.277  98.605  46.770 
31.244  100.392  63.645 
24.756  96.057  54.145 
34.258  97.537  41.810 
32.144  100.867  56.172 
33.976  100.622  51.967 
31.706  100.587  55.557 
25.085  96.658  56.391 
28.204  99.104  59.178 
26.326  97.762  54.798 
28.585  99.194  56.798 
21.015  92.295  55.123 
23.406  94.532  57.621 
34.518  99.937  46.752 
20.783  90.187  54.936 
30.239  98.002  50.249 
24.813  92.148  43.188 
18.689  88.496  59.359 
19.239  86.574  53.767 
18.631  86.065  55.893 
19.078  87.026  55.612 
18.847  86.262  56.766 
18.360  86.057  56.893 
18.175  85.405  55.790 
18.291  84.664  55.301 
17.620  83.744  55.873 
17.155  81.939  55.656 
16.696  82.252  56.108 
16.654  81.498  55.699 
15.826  80.661  56.355 
16.115  80.230  55.622 
16.250  79.323  55.914 
15.002  78.495  56.171 
14.867  77.989  55.639 
15.214  78.821  55.309 
14.623  77.616  56.085 
13.889  75.981  56.068 
13.595  71.017  55.503 
13.303  73.289  56.856 
13.124  71.695  55.195 
13.390  74.975  59.023 
12.771  70.494  55.165 
13.270  71.046  53.719 
13.248  75.497  60.508 
12.164  68.613  55.728 
12.600  71.521  58.702 
12.304  67.518  54.965 
12.339  68.688  57.499 
12.212  64.623  55.717 
11.874  68.560  56.717 
11.439  68.201  58.628 
11.508  64.789  55.167 
13.370  72.803  59.458 
10.914  68.450  65.644 
11.789  68.384  59.362 
9.916  58.624  58.448 
11.485  55.339  65.522 
12.655  48.443  52.567 
12.154  70.005  62.119 
11.757  51.487  52.242 
10.147  59.328  60.311 
10.970  52.748  60.292 
10.788  59.159  51.920 
10.263  57.452  57.868 
10.859  58.497  54.494 
12.594  51.063  50.071 
11.666  56.133  50.370 
13.553  56.271  45.562 
11.556  50.127  56.976 
12.067  49.566  54.814 
13.021  48.425  50.305 
13.337  44.650  52.444 
11.168  49.670  57.548 
12.211  47.796  59.309 
16.261  37.993  51.944 
13.512  42.236  60.301 
13.175  42.791  56.229 
12.585  45.312  53.886 
12.777  45.868  57.212 
12.234  46.676  55.728 
13.592  47.348  51.719 
12.762  45.753  59.391 
14.832  41.813  51.224 
15.430  39.308  51.197 
14.703  39.697  54.288 
13.958  41.159  60.109 
16.140  34.420  62.554 
12.221  46.357  59.471 
15.182  35.794  62.364 
18.632  32.561  52.528 
16.122  36.374  54.624 
15.902  38.806  52.884 
15.005  37.303  59.864 
17.881  34.559  54.364 
19.798  33.317  49.887 
17.468  36.123  50.819 
19.468  30.327  55.038 
18.734  33.771  50.981 
24.136  28.292  43.766 
19.582  30.827  56.121 
22.954  26.706  50.720 
21.805  27.259  55.852 
28.404  20.622  54.723 
25.128  24.572  50.604 
23.668  25.460  55.013 
24.701  26.136  49.276 
23.659  28.498  44.874 
19.779  29.859  53.676 
29.761  22.611  48.219 
26.949  22.549  51.740 
28.944  21.237  52.770 
34.842  17.714  52.868 
31.745  18.901  53.178 
28.188  21.545  52.220 
25.767  23.828  55.795 
38.811  15.560  53.662 
35.006  16.763  53.894 
26.745  24.788  48.204 
33.815  16.876  56.724 
34.247  17.195  58.195 
34.442  17.226  56.201 
35.278  17.393  53.277 
36.508  16.767  52.670 
40.324  15.790  52.183 
38.139  17.376  48.365 
40.945  16.254  47.708 
40.018  15.452  53.122 
41.347  15.346  52.007 
38.860  15.467  52.743 
44.926  13.958  50.277 
38.923  16.059  51.850 
44.101  14.167  51.370 
41.037  16.324  48.289 
43.830  13.585  52.513 
44.402  13.541  52.216 
44.871  13.353  51.432 
45.349  12.857  53.028 
46.566  12.527  51.921 
46.114  12.659  52.462 
47.480  12.533  53.378 
48.198  11.971  53.267 
48.952  11.814  53.280 
50.173  11.367  53.344 
51.087  11.769  54.103 
49.627  12.137  50.858 
51.088  11.220  50.769 
50.846  11.799  53.250 
52.012  10.740  56.344 
57.091  10.181  53.526 
51.570  11.209  51.515 
54.091  10.078  57.487 
53.913  9.946  60.446 
66.569  13.816  43.198 
57.428  10.451  55.129 
63.862  12.766  43.518 
63.043  11.249  50.404 
55.866  11.676  46.742 
56.038  10.401  50.893 
58.615  10.134  52.843 
59.476  11.141  47.370 
71.421  15.681  42.168 
59.717  11.118  49.636 
60.395  11.331  47.463 
76.864  13.044  59.747 
73.063  12.757  51.943 
68.638  10.696  55.382 
65.969  11.006  52.171 
61.395  11.493  48.037 
72.848  12.165  54.276 
75.198  14.090  52.137 
74.643  14.993  47.707 
76.425  16.570  45.986 
76.024  15.455  48.968 
69.018  12.043  49.023 
77.228  14.739  50.834 
72.472  14.153  47.508 
77.999  15.627  50.062 
78.367  16.604  47.981 
79.810  17.076  49.794 
80.198  16.961  49.446 
79.585  17.164  48.109 
80.706  17.032  49.519 
81.520  19.019  48.406 
81.951  16.983  50.413 
81.363  18.070  47.434 
82.194  17.285  50.009 
83.478  19.180  48.645 
83.600  18.702  52.538 
82.065  18.502  49.121 
83.746  18.259  52.535 
83.903  18.611  50.283 
85.213  19.920  50.963 
86.450  20.402  50.347 
87.407  21.651  50.855 
87.964  21.803  50.567 
88.821  22.563  51.128 
89.537  23.370  50.969 
89.813  23.275  50.522 
90.174  24.263  50.312 
90.817  24.947  49.346 
91.341  25.041  50.585 
91.162  24.097  51.173 
92.796  26.754  49.424 
93.500  27.114  49.096 
92.794  26.044  49.572 
92.940  27.940  47.342 
93.836  27.444  48.933 
93.926  28.871  48.410 
93.570  25.795  50.741 
94.224  29.473  46.997 
93.980  28.092  48.397 
95.604  26.707  52.283 
103.533  36.150  53.584 
98.974  31.333  52.607 
98.493  31.530  50.534 
101.921  35.732  50.303 
100.139  30.391  54.701 
96.164  31.070  46.314 
97.801  32.166  46.930 
100.179  33.803  50.039 
100.672  34.406  50.300 
102.553  38.426  50.599 
103.849  35.725  56.091 
103.886  36.745  54.854 
102.743  38.210  49.368 
104.385  38.787  54.895 
103.731  36.982  53.435 
103.566  38.738  51.214 
103.404  39.970  50.227 
103.989  40.219  51.608 
103.125  40.386  49.418 
104.109  42.692  50.425 
103.309  40.806  50.493 
102.490  42.132  48.233 
103.954  42.433  49.762 
106.212  45.441  52.921 
105.710  43.840  52.724 
105.364  45.629  50.830 
105.572  45.276  52.102 
105.931  45.646  52.161 
106.559  46.956  53.655 
107.026  48.026  52.783 
107.310  48.751  53.388 
106.499  49.189  52.723 
106.727  50.094  52.293 
107.834  50.349  54.143 
107.540  50.687  53.257 
107.930  52.030  53.295 
108.215  54.243  53.547 
108.834  54.859  56.589 
108.722  57.879  52.058 
109.351  55.291  58.119 
108.000  57.414  49.562 
109.991  56.289  57.658 
109.545  56.324  55.233 
106.355  54.346  48.327 
106.985  60.219  44.802 
107.671  55.518  52.079 
107.805  60.947  48.464 
107.421  65.171  50.054 
108.260  59.744  49.126 
107.634  62.450  47.359 
106.843  68.682  47.997 
107.579  62.477  48.270 
107.935  65.899  50.511 
107.541  66.758  51.092 
107.526  66.922  52.166 
107.894  68.298  52.063 
106.991  68.450  51.491 
107.391  69.343  51.552 
106.874  70.121  52.145 
107.119  70.210  51.745 
106.687  72.058  51.237 
106.520  68.786  46.553 
106.650  71.494  49.460 
106.346  72.071  49.043 
99.259  88.261  48.101 
105.010  75.895  47.489 
106.346  73.554  51.533 
104.551  82.440  57.372 
105.053  80.445  58.108 
96.238  88.380  40.780 
106.250  74.023  51.722 
104.141  80.472  51.185 
103.110  79.808  47.541 
101.290  86.484  50.152 
102.840  79.544  44.965 
100.849  88.172  58.966 
99.710  88.568  51.979 
100.693  86.711  49.653 
104.763  80.371  59.155 
101.600  80.498  41.791 
103.204  83.805  59.285 
100.159  89.498  60.405 
102.786  85.789  56.002 
91.315  99.171  57.042 
91.944  98.551  58.329 
103.719  81.224  51.243 
97.096  90.673  49.298 
96.082  93.653  55.351 
99.182  86.892  46.610 
101.734  81.881  46.462 
98.216  88.704  46.014 
93.872  96.369  53.583 
95.720  94.800  62.504 
96.866  92.954  59.853 
89.355  98.932  51.449 
88.552  99.785  54.265 
91.566  96.669  49.956 
88.388  97.820  48.185 
93.000  96.112  50.644 
86.461  99.694  49.719 
93.339  97.427  59.171 
91.639  96.247  48.744 
85.269  101.466  51.862 
91.402  98.270  52.090 
91.715  98.692  56.754 
82.752  103.221  52.951 
86.952  101.680  56.711 
84.452  102.237  51.110 
87.775  100.319  65.374 
89.994  99.902  56.227 
88.147  98.330  49.017 
80.059  105.263  57.007 
93.361  96.540  53.182 
87.383  99.826  53.724 
86.504  101.315  52.858 
72.417  107.236  53.493 
88.724  100.326  59.013 
80.618  104.477  53.648 
84.388  103.030  56.144 
75.965  106.250  58.470 
75.955  103.940  43.565 
90.857  99.421  59.486 
71.736  105.929  48.164 
71.828  105.483  48.474 
72.423  106.784  51.874 
71.642  106.592  50.315 
73.144  104.337  43.800 
71.065  106.433  49.836 
71.702  106.850  51.325 
68.798  104.925  44.228 
69.053  106.207  47.286 
68.292  106.863  50.123 
66.076  107.467  49.428 
65.520  107.807  49.401 
66.124  107.610  50.159 
64.854  107.658  50.749 
64.681  107.770  51.441 
64.061  107.806  50.846 
63.202  108.148  51.671 
62.539  108.243  52.193 
61.682  107.837  52.573 
60.997  108.230  52.230 
59.339  108.883  53.442 
57.496  107.468  50.570 
60.038  109.159  54.615 
56.501  109.646  58.014 
55.107  109.171  53.685 
55.570  109.322  55.783 
55.928  106.230  45.524 
54.786  109.556  57.217 
53.096  109.522  55.199 
56.167  107.181  46.111 
55.302  108.461  50.155 
49.885  107.456  55.526 
54.726  106.663  45.456 
50.157  107.430  52.202 
55.732  109.359  54.183 
47.925  106.529  53.851 
47.070  105.974  54.148 
46.380  106.096  54.986 
46.120  105.865  54.031 
43.991  105.328  54.561 
45.680  105.368  54.880 
43.127  105.483  56.096 
43.631  104.756  54.480 
42.370  103.916  54.412 
41.301  103.438  53.546 
39.755  104.002  54.724 
39.855  103.688  54.034 
38.774  102.973  54.451 
38.377  103.478  54.844 
36.596  102.205  51.900 
37.188  102.501  52.788 
37.057  102.569  53.263 
36.196  102.002  53.182 
32.877  101.337  59.711 
31.827  100.454  62.914 
38.607  100.985  46.958 
30.546  100.009  54.483 
29.728  99.511  62.909 
34.990  99.177  44.997 
31.702  97.990  46.118 
35.093  101.358  52.356 
28.585  98.588  55.723 
34.012  102.001  57.463 
32.423  100.093  51.929 
32.761  100.092  49.485 
27.198  95.681  49.864 
34.955  101.730  55.893 
24.946  95.524  52.033 
30.775  100.117  53.521 
27.850  98.485  61.954 
25.480  96.795  58.481 
26.389  98.113  60.733 
27.308  96.043  48.855 
25.665  96.076  66.414 
20.612  92.336  57.029 
23.077  93.906  58.099 
25.868  96.231  62.841 
20.666  91.848  61.678 
26.929  97.695  58.259 
19.432  87.308  51.977 
19.594  87.554  52.460 
18.497  86.020  53.118 
18.411  86.132  55.048 
19.173  87.154  54.643 
18.250  85.680  56.452 
18.608  86.504  56.164 
17.881  83.980  55.225 
18.046  83.338  54.724 
17.446  82.528  55.446 
17.401  82.772  54.983 
16.840  82.088  54.954 
16.263  80.923  54.683 
16.454  80.548  55.411 
15.990  80.137  54.649 
15.729  78.769  55.289 
15.118  78.513  54.522 
14.889  77.381  55.221 
14.522  77.616  56.841 
14.759  75.558  55.629 
14.673  76.478  54.336 
13.855  75.142  55.980 
12.854  70.880  52.492 
14.400  75.053  54.098 
13.549  73.952  55.791 
13.531  73.722  54.089 
12.314  69.300  55.950 
13.019  71.118  58.459 
13.935  73.176  51.753 
11.614  67.880  55.948 
11.732  67.441  57.203 
12.939  71.161  53.314 
12.145  71.035  60.733 
10.937  57.251  65.666 
10.900  65.594  58.800 
10.430  56.954  57.610 
13.027  70.502  57.664 
10.944  55.363  53.045 
11.672  64.369  54.435 
11.589  64.699  51.082 
10.851  65.361  58.054 
10.578  60.102  55.912 
10.859  61.580  54.055 
12.300  53.671  48.035 
13.232  46.803  53.016 
11.175  54.565  63.890 
10.700  57.643  56.326 
11.873  55.165  51.085 
12.727  56.792  47.613 
10.784  60.066  67.401 
10.207  58.494  59.296 
13.276  49.654  47.937 
12.575  48.604  51.772 
13.695  48.457  48.689 
13.809  46.937  50.858 
14.624  43.058  51.843 
11.752  52.131  52.297 
12.624  58.251  46.110 
12.137  50.709  51.197 
15.040  36.238  61.935 
13.143  55.374  44.603 
12.778  47.785  52.079 
13.400  41.548  58.856 
14.294  45.402  50.417 
11.256  50.282  60.323 
15.770  38.807  50.581 
18.425  32.506  53.292 
18.766  32.702  50.760 
14.356  42.239  51.850 
17.431  33.111  58.010 
19.063  32.020  55.156 
14.088  40.827  54.588 
14.816  38.891  54.171 
16.758  35.283  55.447 
21.767  26.438  61.925 
17.101  37.533  50.352 
14.235  40.137  57.638 
15.544  37.789  57.526 
18.722  30.848  58.540 
19.178  31.444  51.565 
17.966  32.687  57.316 
20.372  31.328  50.866 
16.819  35.828  54.150 
22.169  26.320  53.317 
17.343  36.161  51.738 
28.477  23.426  48.261 
22.970  26.098  56.069 
22.139  25.939  60.413 
20.596  29.464  55.163 
27.792  21.331  54.911 
23.551  25.758  53.751 
18.714  33.721  53.099 
21.475  31.285  45.912 
32.441  18.204  54.071 
29.619  21.149  52.226 
31.186  19.985  51.106 
34.650  18.873  50.956 
34.115  17.094  60.812 
31.629  20.918  48.787 
34.198  17.611  54.887 
33.295  19.866  50.149 
28.208  22.688  49.364 
38.385  15.240  55.679 
39.354  17.173  48.428 
29.368  19.604  58.819 
36.871  16.927  50.857 
37.917  15.063  54.853 
38.571  16.530  50.560 
38.910  17.046  48.185 
40.295  16.325  50.173 
42.459  14.904  49.550 
42.031  15.077  51.088 
41.196  15.521  49.373 
42.867  14.670  50.301 
43.463  14.358  51.865 
44.341  14.282  50.167 
44.053  13.939  50.480 
44.364  13.832  51.791 
45.362  13.424  50.220 
45.415  12.965  51.783 
46.838  12.926  51.849 
46.934  13.025  52.442 
47.311  12.398  52.475 
48.109  12.753  52.621 
48.719  12.101  52.548 
49.102  12.504  52.106 
49.788  11.872  52.576 
52.701  11.220  50.677 
57.612  10.857  52.185 
55.497  10.538  53.634 
53.713  10.956  52.744 
55.082  9.140  60.376 
56.061  11.360  49.278 
56.536  9.534  59.252 
52.519  11.078  55.679 
57.530  11.367  48.109 
63.633  10.035  59.820 
51.862  10.868  52.847 
57.678  9.884  57.152 
63.204  12.524  46.686 
64.344  10.856  51.148 
61.129  10.003  57.613 
52.248  12.133  47.663 
63.714  11.231  49.876 
68.022  13.533  45.622 
67.346  11.128  51.314 
65.963  11.457  51.863 
69.662  10.721  56.346 
64.575  12.091  46.719 
73.858  12.088  55.174 
75.526  12.564  58.323 
74.940  13.764  52.658 
71.485  14.387  46.417 
69.206  12.777  47.059 
71.572  12.354  51.078 
76.094  15.985  47.972 
75.916  17.144  45.456 
75.143  16.070  46.016 
76.508  14.322  51.396 
77.490  16.275  47.639 
78.954  16.681  50.225 
78.191  16.759  47.078 
80.667  17.761  49.371 
78.241  15.044  51.251 
82.045  17.685  49.233 
81.355  17.311  49.599 
77.884  16.258  48.962 
82.982  17.984  51.674 
80.285  16.358  50.826 
81.666  17.677  52.632 
83.260  17.877  50.385 
83.218  18.609  49.297 
83.570  18.569  49.914 
83.808  18.116  51.086 
85.680  20.219  49.401 
86.235  20.919  49.575 
87.158  21.665  49.764 
87.762  21.687  50.165 
88.552  22.023  49.885 
88.394  22.539  50.301 
89.872  23.293  49.114 
89.311  22.972  49.654 
90.493  23.887  49.504 
90.704  24.007  49.899 
93.225  26.403  50.208 
92.330  26.741  47.437 
93.319  27.834  47.694 
93.503  27.630  48.179 
92.817  27.082  47.755 
91.460  26.141  48.132 
94.941  27.713  50.753 
95.652  29.671  47.928 
98.572  29.329  53.087 
95.724  30.399  46.776 
101.841  34.976  51.797 
102.327  35.198  52.005 
98.138  31.478  49.229 
97.302  31.765  48.475 
97.683  34.174  43.566 
99.923  35.205  47.155 
99.172  33.427  48.043 
99.972  36.427  46.502 
99.225  34.727  48.028 
100.737  36.173  47.810 
101.099  35.714  48.241 
99.876  34.132  48.143 
99.970  33.420  49.136 
101.705  37.139  48.705 
102.039  36.626  50.487 
103.216  38.742  51.988 
102.075  37.483  49.087 
103.409  39.003  50.356 
102.866  38.984  49.631 
102.444  40.015  48.968 
103.640  40.202  50.610 
103.132  42.034  48.810 
103.717  41.897  51.012 
103.833  43.344  49.794 
103.237  42.830  49.260 
104.391  43.426  50.662 
104.911  42.976  51.738 
106.391  46.247  52.514 
106.199  46.386  51.788 
106.314  48.080  52.319 
106.629  48.341  52.638 
106.281  48.768  51.644 
107.128  49.694  51.741 
106.515  50.333  51.426 
107.422  51.242  52.746 
107.014  52.029  52.666 
107.798  52.267  53.856 
107.922  54.939  51.474 
108.141  53.599  52.813 
107.268  54.991  48.601 
108.594  61.516  51.261 
108.031  53.349  54.087 
106.195  59.084  41.683 
108.668  57.274  52.533 
107.852  54.224  52.229 
109.047  56.507  54.916 
108.176  56.680  51.066 
106.283  55.671  45.123 
109.623  57.081  58.012 
106.849  61.451  42.713 
107.815  58.705  46.046 
107.356  65.562  49.722 
106.596  67.697  45.086 
107.682  67.785  51.082 
108.232  66.520  52.420 
107.492  67.787  51.624 
107.812  67.592  50.629 
107.502  68.612  51.209 
107.458  69.385  50.651 
106.752  69.335  51.153 
107.099  71.092  51.992 
106.347  70.355  51.297 
107.085  66.864  47.955 
106.495  72.924  50.901 
106.626  72.693  51.807 
106.686  73.719  52.535 
103.063  82.229  48.824 
103.940  77.271  44.433 
103.427  84.862  57.101 
103.233  81.444  49.316 
103.635  74.776  41.914 
103.675  77.171  43.894 
99.888  86.860  49.037 
102.175  84.742  52.594 
102.350  82.011  46.701 
99.045  88.832  51.086 
101.923  85.793  55.706 
105.440  79.352  58.839 
102.361  85.140  53.107 
101.842  87.016  54.335 
94.620  95.698  61.377 
99.430  86.246  45.460 
100.625  86.794  50.508 
95.868  92.426  48.665 
99.907  89.724  54.816 
97.508  90.117  48.720 
98.208  84.078  38.863 
97.483  92.709  55.609 
90.486  97.625  51.577 
95.554  89.289  41.973 
101.271  85.978  50.604 
100.644  85.050  45.761 
94.564  93.760  47.422 
93.729  93.923  46.735 
92.021  97.726  55.696 
86.438  99.342  48.631 
97.997  87.146  42.919 
90.168  98.965  55.966 
89.001  97.257  49.590 
91.225  97.084  50.583 
76.902  106.723  56.248 
98.011  92.029  54.028 
94.621  95.136  51.850 
96.868  90.556  48.070 
90.700  100.070  57.887 
84.713  102.810  59.784 
91.673  96.320  49.453 
90.954  98.753  53.964 
80.122  101.389  44.603 
92.210  97.742  62.976 
84.129  102.637  52.673 
75.551  106.980  57.530 
79.959  105.224  55.231 
81.497  104.072  51.724 
87.424  100.919  53.816 
76.806  106.196  57.799 
86.380  101.622  57.600 
75.735  106.416  54.748 
80.976  101.473  45.971 
83.784  101.775  50.972 
79.995  104.978  60.349 
83.719  102.717  52.209 
75.993  105.406  48.929 
71.159  107.327  56.173 
71.276  106.511  51.263 
81.883  104.265  55.123 
75.789  107.080  55.452 
75.944  106.607  52.714 
71.846  105.204  45.375 
72.241  105.893  49.784 
68.809  106.023  46.456 
67.392  107.275  49.351 
66.140  107.629  48.850 
67.991  106.900  48.808 
65.360  107.407  49.071 
65.820  107.233  49.957 
64.797  107.427  49.831 
64.193  107.180  50.671 
63.019  107.646  50.911 
62.449  107.913  51.399 
61.767  108.080  51.757 
61.438  107.577  51.748 
60.218  108.358  51.931 
59.923  108.621  52.704 
60.901  109.172  55.311 
56.415  108.957  53.510 
51.223  107.987  56.435 
49.988  107.284  54.646 
55.273  109.113  54.941 
56.610  109.157  55.868 
50.556  106.735  52.162 
52.705  107.470  50.811 
53.271  107.497  49.297 
55.965  108.494  52.772 
57.182  109.502  53.475 
49.340  107.407  56.593 
53.289  107.956  50.856 
49.397  107.097  53.455 
48.466  106.081  54.346 
48.445  106.671  55.054 
47.163  105.725  53.064 
45.555  105.483  53.750 
46.737  106.042  53.703 
44.867  105.065  52.598 
42.276  103.960  50.922 
45.302  105.775  55.906 
41.248  103.542  51.813 
40.683  103.394  54.203 
39.820  103.255  53.746 
39.194  103.520  54.418 
39.650  103.164  54.984 
39.075  103.502  53.516 
37.605  102.904  53.910 
37.141  102.856  54.665 
37.487  102.638  51.789 
33.876  101.312  54.786 
37.051  99.522  44.220 
33.593  100.995  52.716 
28.930  99.598  56.458 
31.923  99.299  48.167 
36.814  100.683  49.141 
33.024  101.220  54.639 
36.000  100.660  48.597 
31.421  97.951  47.055 
32.967  101.312  59.099 
26.018  94.944  48.100 
34.519  101.326  50.942 
34.641  100.393  50.482 
30.534  99.455  63.320 
32.551  100.875  55.329 
37.461  101.611  50.327 
27.323  97.762  52.515 
34.589  101.979  61.397 
28.985  97.491  48.043 
31.528  100.709  53.779 
30.807  97.534  46.398 
26.066  96.160  50.940 
25.454  95.803  56.032 
20.176  87.851  50.680 
22.073  89.814  47.049 
19.280  86.267  54.814 
20.738  91.564  55.782 
21.019  88.677  48.999 
20.304  87.503  52.682 
21.089  91.035  53.426 
19.985  89.102  55.378 
18.148  85.093  54.964 
18.207  85.407  53.654 
18.560  84.914  54.153 
17.961  84.525  54.470 
17.333  83.283  55.046 
17.378  82.153  54.620 
16.827  82.238  54.048 
16.733  81.130  54.635 
16.539  80.419  54.168 
15.759  79.945  54.054 
15.425  79.548  54.808 
15.410  78.995  54.279 
15.328  77.921  54.922 
14.943  77.068  53.114 
14.913  77.190  54.724 
14.845  76.350  55.314 
14.601  77.069  55.659 
14.055  76.357  57.044 
13.872  74.751  54.901 
12.914  72.240  57.710 
13.845  71.654  49.249 
13.373  71.100  52.365 
13.288  72.750  56.058 
11.606  66.118  54.715 
12.677  68.406  53.441 
11.657  66.429  53.822 
12.246  70.281  56.875 
12.013  67.831  54.012 
12.644  70.581  54.048 
10.676  54.492  60.917 
10.886  61.515  54.902 
10.331  59.204  60.749 
11.409  63.599  54.211 
12.479  69.115  54.984 
10.631  60.702  54.593 
10.749  61.029  55.836 
10.673  63.234  54.388 
10.432  58.872  62.032 
10.787  59.194  53.365 
10.169  57.576  59.591 
10.460  58.467  62.958 
10.641  56.267  61.436 
11.208  52.104  59.843 
10.442  55.760  59.758 
10.811  63.486  58.905 
14.566  46.416  48.594 
12.033  49.245  59.146 
14.457  51.200  44.000 
13.364  51.708  47.517 
13.704  49.441  48.629 
11.851  48.234  55.416 
11.900  53.580  52.494 
10.767  54.887  53.714 
12.189  48.708  53.789 
14.208  41.512  62.289 
13.171  43.148  54.265 
12.523  43.595  57.836 
13.266  44.075  53.645 
11.602  49.665  54.033 
13.613  44.875  50.865 
19.608  30.310  52.397 
14.712  38.723  55.802 
12.523  44.930  57.204 
16.442  39.262  49.005 
13.729  42.177  52.737 
13.723  41.713  59.810 
19.037  32.229  50.495 
12.404  44.748  56.551 
14.902  39.885  51.682 
15.700  38.701  52.103 
17.868  36.744  51.269 
17.788  33.975  52.304 
19.811  31.533  53.940 
17.261  35.816  52.618 
12.946  43.883  58.260 
16.573  36.214  53.931 
18.833  32.602  51.552 
17.551  34.853  52.501 
27.982  22.445  49.863 
23.343  26.115  51.887 
19.649  32.383  49.208 
24.925  26.428  45.134 
25.462  25.184  48.799 
23.819  29.150  41.890 
26.900  22.563  54.076 
23.678  27.417  46.228 
31.875  19.518  51.678 
27.045  21.760  55.755 
31.218  21.576  47.813 
20.716  28.946  51.151 
25.532  23.379  51.718 
34.101  19.273  50.006 
30.341  21.468  48.679 
29.619  19.709  55.624 
36.785  15.496  59.535 
30.246  19.042  55.727 
33.466  18.014  53.638 
39.891  14.328  57.248 
27.777  22.481  51.352 
33.025  19.583  50.763 
33.620  18.743  52.197 
32.907  17.824  54.566 
38.564  17.489  48.835 
37.040  17.658  49.399 
36.175  17.802  49.895 
39.393  16.723  50.374 
42.439  15.579  48.388 
41.703  15.849  46.863 
43.217  15.601  45.167 
45.933  13.414  49.477 
40.158  16.708  49.159 
45.695  15.180  44.974 
43.592  14.058  53.386 
48.281  13.755  46.064 
45.653  13.018  51.077 
46.061  12.557  51.450 
46.939  13.333  50.853 
46.577  12.966  51.181 
47.510  12.720  51.389 
49.125  12.387  51.225 
53.269  11.622  47.961 
49.503  12.779  51.098 
50.599  12.060  48.526 
51.202  11.617  51.994 
52.762  10.589  51.798 
52.678  11.225  54.621 
53.787  10.736  53.390 
55.378  10.309  54.512 
51.405  11.909  47.548 
70.261  12.295  49.953 
56.115  10.274  55.493 
57.936  10.288  53.737 
61.057  10.207  54.220 
54.017  10.551  52.937 
57.231  9.790  56.111 
54.981  10.689  49.180 
56.365  10.591  50.046 
68.714  12.753  47.343 
72.140  13.530  48.126 
65.528  11.689  49.695 
68.317  10.923  52.016 
62.868  12.452  44.043 
66.305  10.538  57.247 
69.928  12.942  47.240 
74.828  14.607  50.906 
68.983  12.709  47.961 
69.718  11.741  53.379 
68.659  14.711  41.998 
76.932  14.310  52.468 
75.800  16.872  44.634 
74.828  18.340  40.462 
75.156  16.739  45.210 
77.392  15.184  49.483 
77.390  16.739  46.067 
76.694  16.421  48.137 
78.120  16.065  49.456 
80.708  17.651  48.766 
77.893  16.693  47.951 
82.743  17.361  50.453 
79.281  16.762  49.513 
78.487  17.325  46.490 
75.721  17.478  44.715 
83.039  19.174  48.071 
84.358  19.786  50.013 
83.174  18.169  49.999 
79.594  17.826  47.164 
83.052  21.085  45.686 
83.911  18.290  51.990 
85.050  20.284  50.425 
84.460  19.426  50.344 
86.018  20.318  50.038 
86.847  20.913  49.988 
86.686  21.657  49.456 
87.487  22.413  49.745 
88.862  22.686  50.008 
88.907  23.207  49.458 
90.279  23.743  48.650 
90.002  23.538  49.843 
90.580  24.981  48.545 
91.232  25.206  48.818 
91.734  25.783  49.131 
91.787  25.107  49.117 
92.156  26.565  48.091 
94.440  28.778  47.543 
92.646  27.557  46.578 
94.783  29.503  47.663 
92.262  27.502  48.460 
97.559  32.435  45.993 
97.490  30.065  50.261 
97.416  31.731  46.625 
97.258  29.875  49.622 
98.888  33.138  47.506 
96.444  31.845  44.782 
104.045  39.474  52.788 
97.660  28.675  52.176 
102.224  34.501  54.520 
97.692  29.814  50.929 
102.313  36.725  51.543 
99.491  31.442  52.091 
101.037  36.993  47.016 
101.153  37.989  48.360 
100.692  37.745  45.485 
101.022  38.326  44.426 
102.992  37.360  51.278 
102.715  37.434  49.807 
103.483  39.708  52.062 
103.078  38.147  51.106 
103.161  39.433  49.695 
102.937  40.713  50.168 
103.167  41.200  48.742 
103.389  42.303  49.875 
103.244  42.538  47.955 
103.576  42.839  48.242 
103.447  43.314  48.258 
103.581  43.650  49.076 
105.293  44.766  52.106 
105.417  46.075  51.701 
106.340  47.202  51.373 
106.405  47.112  52.185 
106.636  48.300  51.607 
106.354  48.378  50.876 
106.891  48.889  52.168 
107.294  50.280  52.113 
107.250  51.672  52.071 
106.875  51.170  51.336 
107.648  52.588  52.503 
107.854  52.894  53.283 
109.434  56.485  57.811 
107.478  55.954  48.051 
107.667  55.441  50.412 
107.799  53.682  53.445 
107.740  55.916  49.648 
105.776  55.435  43.878 
108.005  59.096  50.378 
107.850  61.777  48.528 
108.842  59.268  52.138 
107.863  57.169  48.815 
108.368  58.560  48.828 
107.945  58.980  47.761 
107.735  55.980  51.154 
106.883  67.981  49.271 
107.441  66.309  49.990 
107.328  66.744  50.253 
107.309  67.529  49.807 
102.928  68.499  38.641 
106.617  68.720  49.907 
107.375  68.427  50.425 
107.178  69.207  50.267 
106.601  69.760  50.327 
106.616  71.248  48.664 
106.867  70.985  50.630 
106.790  71.787  50.317 
102.883  82.640  50.088 
106.363  72.993  49.052 
106.442  68.025  47.737 
105.444  74.326  47.860 
105.588  73.811  51.219 
106.444  71.572  50.843 
103.254  77.732  44.515 
102.025  84.582  49.504 
102.979  78.626  43.651 
99.967  89.364  57.000 
106.485  73.137  49.901 
102.644  78.536  42.841 
101.373  81.104  41.862 
102.714  77.594  42.430 
94.541  95.719  58.337 
96.192  86.937  37.345 
100.014  85.175  45.234 
99.848  77.953  36.674 
95.803  90.748  45.070 
97.523  92.124  64.238 
98.265  88.987  46.776 
97.684  87.947  42.980 
98.699  85.248  42.756 
94.697  95.523  52.611 
96.939  86.528  39.472 
100.030  84.557  43.777 
94.988  94.768  59.276 
98.994  89.046  48.395 
93.410  94.728  49.831 
100.518  83.161  43.423 
88.755  98.764  51.107 
82.940  101.395  47.065 
90.186  98.771  54.978 
81.841  103.056  49.544 
88.619  96.738  45.659 
94.705  95.988  53.347 
95.452  93.475  49.497 
89.656  96.866  47.127 
95.900  94.560  55.669 
86.675  99.171  48.230 
88.536  100.897  58.596 
90.683  99.142  55.466 
86.849  101.630  54.684 
82.229  101.193  46.876 
83.221  100.503  46.756 
83.595  101.664  48.467 
88.440  100.753  56.095 
90.365  98.177  51.514 
85.773  102.051  59.194 
81.317  103.975  49.859 
92.175  97.228  62.025 
81.426  101.564  46.705 
80.505  104.008  49.593 
85.211  102.178  51.241 
80.540  104.968  56.536 
81.493  101.961  47.314 
79.387  105.324  49.993 
69.044  105.486  44.884 
78.218  102.713  43.756 
77.863  105.703  55.081 
71.647  105.836  47.271 
69.445  105.913  47.115 
70.747  107.719  54.250 
77.505  104.759  45.905 
74.573  107.001  57.326 
71.990  104.825  43.567 
65.459  107.018  46.156 
67.481  106.738  47.334 
67.048  106.607  48.500 
69.533  105.425  44.685 
65.473  107.624  48.197 
66.137  106.999  48.073 
64.158  107.808  49.300 
65.300  107.784  50.128 
63.575  107.375  50.347 
62.849  107.732  49.877 
62.206  107.972  50.447 
62.630  107.887  50.664 
61.045  107.854  51.185 
60.579  108.213  50.957 
59.780  108.064  51.865 
59.824  107.965  50.582 
57.730  109.437  54.974 
54.339  109.175  54.239 
52.489  107.291  49.652 
55.221  109.751  56.580 
57.299  106.953  46.368 
53.268  108.289  50.032 
50.731  106.387  50.467 
54.887  107.587  48.841 
56.985  107.742  49.077 
49.652  105.749  47.082 
50.006  106.485  51.424 
51.813  108.344  52.932 
53.054  108.973  52.521 
47.951  106.975  55.107 
47.444  106.327  52.647 
47.129  105.951  52.617 
46.709  105.611  51.645 
45.346  105.164  53.221 
42.823  104.667  54.879 
44.184  104.236  53.411 
44.048  104.928  53.610 
41.858  103.501  51.736 
41.059  103.877  53.536 
39.475  103.148  52.143 
40.468  103.712  53.164 
38.697  102.693  52.611 
36.621  102.693  54.169 
37.836  102.656  52.648 
35.812  102.307  56.522 
36.386  101.229  53.149 
30.107  99.861  57.725 
31.002  100.743  59.913 
31.757  97.130  43.827 
34.889  100.726  51.491 
30.735  99.166  50.667 
30.485  98.276  49.182 
36.446  101.840  51.393 
35.939  101.680  52.403 
35.788  99.128  45.133 
28.230  96.054  47.094 
25.487  95.528  50.646 
35.397  99.760  46.674 
35.168  101.099  48.977 
33.942  101.412  55.658 
32.158  100.467  53.217 
26.499  96.150  51.056 
27.317  98.347  57.293 
29.535  99.605  61.203 
20.991  90.487  53.463 
32.227  99.417  47.366 
22.354  93.649  57.715 
24.820  95.023  51.077 
23.720  95.014  58.546 
26.605  97.451  54.343 
27.859  98.080  63.380 
20.877  88.903  53.343 
23.416  94.385  58.175 
20.375  89.553  52.917 
18.708  85.618  55.133 
19.673  88.274  53.932 
19.446  86.787  50.949 
18.416  85.766  52.383 
19.643  87.591  53.790 
18.906  87.088  54.169 
17.740  84.229  53.775 
17.688  82.861  53.947 
16.846  82.009  53.518 
16.947  81.232  53.924 
16.210  81.144  54.247 
17.069  80.048  53.344 
15.932  79.827  53.426 
15.529  79.264  53.824 
15.732  78.744  54.581 
14.800  76.751  53.617 
15.310  77.511  56.013 
14.482  76.509  54.958 
15.388  77.625  54.137 
14.290  76.009  56.368 
14.135  75.577  53.276 
14.002  74.756  53.273 
13.878  73.828  54.697 
13.441  72.356  55.043 
14.291  71.803  49.720 
11.452  70.202  61.023 
12.776  70.838  56.353 
12.199  67.143  51.868 
12.127  67.175  50.842 
11.439  66.033  59.256 
11.062  66.154  58.073 
12.324  69.924  55.426 
11.400  64.606  57.035 
12.064  65.788  54.897 
10.846  62.382  54.250 
10.584  56.899  60.827 
